226976.700000 142950.000000 NaN
226976.600000 142950.000000 NaN
226976.500000 142950.000000 NaN
226976.400000 142950.000000 NaN
226976.300000 142950.000000 NaN
226976.200000 142950.000000 NaN
226976.100000 142950.000000 NaN
226976.000000 142950.000000 NaN
226975.900000 142950.000000 NaN
226975.800000 142950.000000 NaN
226975.700000 142950.000000 NaN
226975.600000 142950.000000 NaN
226975.500000 142950.000000 NaN
226975.400000 142950.000000 NaN
226975.300000 142950.000000 NaN
226975.200000 142950.000000 NaN
226975.100000 142950.000000 NaN
226975.000000 142950.000000 NaN
226974.900000 142950.000000 NaN
226974.800000 142950.000000 NaN
226974.700000 142950.000000 NaN
226974.600000 142950.000000 NaN
226974.500000 142950.000000 NaN
226974.400000 142950.000000 NaN
226974.300000 142950.000000 NaN
226974.200000 142950.000000 NaN
226974.100000 142950.000000 NaN
226974.000000 142950.000000 NaN
226973.900000 142950.000000 NaN
226973.800000 142950.000000 NaN
226973.700000 142950.000000 NaN
226973.600000 142950.000000 NaN
226973.500000 142950.000000 NaN
226973.400000 142950.000000 NaN
226973.300000 142950.000000 NaN
226973.200000 142950.000000 NaN
226973.100000 142950.000000 NaN
226973.000000 142950.000000 NaN
226972.900000 142950.000000 NaN
226972.800000 142950.000000 NaN
226972.700000 142950.000000 NaN
226972.600000 142950.000000 NaN
226972.500000 142950.000000 NaN
226972.400000 142950.000000 NaN
226972.300000 142950.000000 NaN
226972.200000 142950.000000 NaN
226972.100000 142950.000000 NaN
226972.000000 142950.000000 NaN
226971.900000 142950.000000 NaN
226971.800000 142950.000000 NaN
226971.700000 142950.000000 NaN
226971.600000 142950.000000 NaN
226971.500000 142950.000000 NaN
226971.400000 142950.000000 NaN
226971.300000 142950.000000 NaN
226971.200000 142950.000000 9.278622
226971.100000 142950.000000 9.282730
226971.000000 142950.000000 9.288135
226970.900000 142950.000000 NaN
226970.800000 142950.000000 NaN
226970.700000 142950.000000 NaN
226970.600000 142950.000000 NaN
226970.500000 142950.000000 NaN
226970.400000 142950.000000 NaN
226970.300000 142950.000000 NaN
226970.200000 142950.000000 NaN
226970.100000 142950.000000 NaN
226970.000000 142950.000000 NaN
226969.900000 142950.000000 NaN
226969.800000 142950.000000 NaN
226969.700000 142950.000000 NaN
226969.600000 142950.000000 NaN
226969.500000 142950.000000 NaN
226969.400000 142950.000000 NaN
226969.300000 142950.000000 NaN
226969.200000 142950.000000 NaN
226969.100000 142950.000000 NaN
226969.000000 142950.000000 NaN
226968.900000 142950.000000 NaN
226968.800000 142950.000000 NaN
226968.700000 142950.000000 NaN
226968.600000 142950.000000 NaN
226968.500000 142950.000000 NaN
226968.400000 142950.000000 NaN
226968.300000 142950.000000 NaN
226968.200000 142950.000000 NaN
226968.100000 142950.000000 NaN
226968.000000 142950.000000 NaN
226967.900000 142950.000000 NaN
226967.800000 142950.000000 NaN
226967.700000 142950.000000 NaN
226967.600000 142950.000000 NaN
226967.500000 142950.000000 NaN
226967.400000 142950.000000 8.966732
226967.300000 142950.000000 8.955217
226967.200000 142950.000000 8.943702
226967.100000 142950.000000 8.932187
226967.000000 142950.000000 8.920673
226966.900000 142950.000000 8.909158
226966.800000 142950.000000 8.897643
226966.700000 142950.000000 8.886128
226966.600000 142950.000000 8.874614
226966.500000 142950.000000 8.863099
226966.400000 142950.000000 8.851584
226966.300000 142950.000000 8.840070
226966.200000 142950.000000 8.828555
226966.100000 142950.000000 8.817040
226966.000000 142950.000000 8.805525
226965.900000 142950.000000 NaN
226965.800000 142950.000000 NaN
226965.700000 142950.000000 NaN
226965.600000 142950.000000 NaN
226965.500000 142950.000000 NaN
226965.400000 142950.000000 NaN
226965.300000 142950.000000 NaN
226965.200000 142950.000000 NaN
226965.100000 142950.000000 NaN
226965.000000 142950.000000 NaN
226964.900000 142950.000000 NaN
226964.800000 142950.000000 NaN
226964.700000 142950.000000 NaN
226964.600000 142950.000000 NaN
226964.500000 142950.000000 NaN
226964.400000 142950.000000 NaN
226964.300000 142950.000000 NaN
226964.200000 142950.000000 NaN
226964.100000 142950.000000 NaN
226964.000000 142950.000000 NaN
226963.900000 142950.000000 NaN
226963.800000 142950.000000 NaN
226963.700000 142950.000000 NaN
226963.600000 142950.000000 NaN
226963.500000 142950.000000 NaN
226963.400000 142950.000000 NaN
226963.300000 142950.000000 NaN
226963.200000 142950.000000 NaN
226963.100000 142950.000000 NaN
226963.000000 142950.000000 NaN
226962.900000 142950.000000 NaN
226962.800000 142950.000000 NaN
226962.700000 142950.000000 NaN
226962.600000 142950.000000 NaN
226962.500000 142950.000000 NaN
226962.400000 142950.000000 8.374403
226962.300000 142950.000000 8.360009
226962.200000 142950.000000 8.344760
226962.100000 142950.000000 8.325518
226962.000000 142950.000000 8.298950
226961.900000 142950.000000 8.266711
226961.800000 142950.000000 8.232463
226961.700000 142950.000000 8.197884
226961.600000 142950.000000 8.163281
226961.500000 142950.000000 8.128679
226961.400000 142950.000000 8.094119
226961.300000 142950.000000 8.060116
226961.200000 142950.000000 8.029200
226961.100000 142950.000000 8.006027
226961.000000 142950.000000 7.991920
226960.900000 142950.000000 7.982487
226960.800000 142950.000000 7.974029
226960.700000 142950.000000 7.965650
226960.600000 142950.000000 7.957272
226960.500000 142950.000000 7.948895
226960.400000 142950.000000 7.940518
226960.300000 142950.000000 7.932139
226960.200000 142950.000000 7.923721
226960.100000 142950.000000 7.914781
226960.000000 142950.000000 7.903067
226959.900000 142950.000000 7.884823
226959.800000 142950.000000 7.859391
226959.700000 142950.000000 7.830397
226959.600000 142950.000000 7.800675
226959.500000 142950.000000 7.770894
226959.400000 142950.000000 7.741112
226959.300000 142950.000000 7.711331
226959.200000 142950.000000 7.681578
226959.100000 142950.000000 7.652233
226959.000000 142950.000000 7.625520
226958.900000 142950.000000 7.606722
226958.800000 142950.000000 7.598621
226958.700000 142950.000000 7.596486
226958.600000 142950.000000 7.595637
226958.500000 142950.000000 7.594894
226958.400000 142950.000000 7.594153
226958.300000 142950.000000 7.593413
226958.200000 142950.000000 7.592672
226958.100000 142950.000000 7.591932
226958.000000 142950.000000 7.591190
226957.900000 142950.000000 7.590412
226957.800000 142950.000000 7.589296
226957.700000 142950.000000 7.586819
226957.600000 142950.000000 7.582190
226957.500000 142950.000000 7.576277
226957.400000 142950.000000 7.570078
226957.300000 142950.000000 7.563856
226957.200000 142950.000000 7.557633
226957.100000 142950.000000 7.551411
226957.000000 142950.000000 7.545189
226956.900000 142950.000000 7.538984
226956.800000 142950.000000 7.532921
226956.700000 142950.000000 7.527380
226956.600000 142950.000000 7.522634
226956.500000 142950.000000 7.518357
226956.400000 142950.000000 7.514183
226956.300000 142950.000000 7.510018
226956.200000 142950.000000 7.505853
226956.100000 142950.000000 7.501690
226956.000000 142950.000000 7.497619
226955.900000 142950.000000 7.494557
226955.800000 142950.000000 7.494787
226955.700000 142950.000000 7.494927
226955.600000 142950.000000 7.485912
226955.500000 142950.000000 7.469335
226955.400000 142950.000000 7.450907
226955.300000 142950.000000 7.432322
226955.200000 142950.000000 7.413732
226955.100000 142950.000000 7.395142
226955.000000 142950.000000 7.376552
226954.900000 142950.000000 7.357965
226954.800000 142950.000000 7.339487
226954.700000 142950.000000 7.322328
226954.600000 142950.000000 7.311095
226954.500000 142950.000000 7.309668
226954.400000 142950.000000 7.314255
226954.300000 142950.000000 7.320222
226954.200000 142950.000000 7.326311
226954.100000 142950.000000 7.332404
226954.000000 142950.000000 7.338497
226953.900000 142950.000000 7.344591
226953.800000 142950.000000 7.350684
226953.700000 142950.000000 7.356777
226953.600000 142950.000000 7.362871
226953.500000 142950.000000 7.368964
226953.400000 142950.000000 7.375057
226953.300000 142950.000000 7.381151
226953.200000 142950.000000 7.387244
226953.100000 142950.000000 7.393337
226953.000000 142950.000000 7.399431
226952.900000 142950.000000 7.405524
226952.800000 142950.000000 7.411617
226952.700000 142950.000000 7.417711
226952.600000 142950.000000 7.423804
226952.500000 142950.000000 7.429898
226952.400000 142950.000000 7.435991
226952.300000 142950.000000 7.442084
226952.200000 142950.000000 7.448178
226952.100000 142950.000000 7.454271
226952.000000 142950.000000 7.460364
226951.900000 142950.000000 7.466458
226951.800000 142950.000000 7.472551
226951.700000 142950.000000 7.478644
226951.600000 142950.000000 7.484738
226951.500000 142950.000000 7.490831
226951.400000 142950.000000 7.496924
226951.300000 142950.000000 7.503007
226951.200000 142950.000000 7.508936
226951.100000 142950.000000 7.513909
226951.000000 142950.000000 7.516078
226950.900000 142950.000000 7.514553
226950.800000 142950.000000 7.511241
226950.700000 142950.000000 7.508590
226950.600000 142950.000000 7.507660
226950.500000 142950.000000 7.507780
226950.400000 142950.000000 7.508135
226950.300000 142950.000000 7.508508
226950.200000 142950.000000 7.508882
226950.100000 142950.000000 7.509256
226950.000000 142950.000000 7.509629
226949.900000 142950.000000 7.510003
226949.800000 142950.000000 7.510377
226949.700000 142950.000000 7.510751
226949.600000 142950.000000 7.511115
226949.500000 142950.000000 7.511360
226949.400000 142950.000000 7.511033
226949.300000 142950.000000 7.509598
226949.200000 142950.000000 7.507214
226949.100000 142950.000000 7.504452
226949.000000 142950.000000 7.501622
226948.900000 142950.000000 7.498786
226948.800000 142950.000000 7.495949
226948.700000 142950.000000 7.493084
226948.600000 142950.000000 7.489784
226948.500000 142950.000000 7.483398
226948.400000 142950.000000 7.466847
226948.300000 142950.000000 7.435761
226948.200000 142950.000000 7.396354
226948.100000 142950.000000 7.355132
226948.000000 142950.000000 7.313768
226947.900000 142950.000000 7.272629
226947.800000 142950.000000 7.234299
226947.700000 142950.000000 7.208890
226947.600000 142950.000000 7.206072
226947.500000 142950.000000 7.217011
226947.400000 142950.000000 7.223060
226947.300000 142950.000000 7.219561
226947.200000 142950.000000 7.220199
226947.100000 142950.000000 7.228484
226947.000000 142950.000000 7.241074
226946.900000 142950.000000 7.259562
226946.800000 142950.000000 7.288225
226946.700000 142950.000000 7.336788
226946.600000 142950.000000 7.401827
226946.500000 142950.000000 7.442173
226946.400000 142950.000000 7.433769
226946.300000 142950.000000 7.405251
226946.200000 142950.000000 7.384087
226946.100000 142950.000000 7.366529
226946.000000 142950.000000 7.343727
226945.900000 142950.000000 7.317078
226945.800000 142950.000000 7.291928
226945.700000 142950.000000 7.274019
226945.600000 142950.000000 7.271531
226945.500000 142950.000000 7.281923
226945.400000 142950.000000 7.281423
226945.300000 142950.000000 7.249700
226945.200000 142950.000000 7.199514
226945.100000 142950.000000 7.162465
226945.000000 142950.000000 7.148291
226944.900000 142950.000000 7.149386
226944.800000 142950.000000 7.152850
226944.700000 142950.000000 7.150577
226944.600000 142950.000000 7.144246
226944.500000 142950.000000 7.138142
226944.400000 142950.000000 7.138036
226944.300000 142950.000000 7.146673
226944.200000 142950.000000 7.152422
226944.100000 142950.000000 7.141300
226944.000000 142950.000000 7.116716
226943.900000 142950.000000 7.092939
226943.800000 142950.000000 7.078156
226943.700000 142950.000000 7.069146
226943.600000 142950.000000 7.061428
226943.500000 142950.000000 7.053980
226943.400000 142950.000000 7.048002
226943.300000 142950.000000 7.047705
226943.200000 142950.000000 7.056236
226943.100000 142950.000000 7.070138
226943.000000 142950.000000 7.086005
226942.900000 142950.000000 7.104026
226942.800000 142950.000000 7.124489
226942.700000 142950.000000 7.146014
226942.600000 142950.000000 7.165228
226942.500000 142950.000000 7.172647
226942.400000 142950.000000 7.160349
226942.300000 142950.000000 7.140938
226942.200000 142950.000000 7.136007
226942.100000 142950.000000 7.148857
226942.000000 142950.000000 7.157098
226941.900000 142950.000000 7.141792
226941.800000 142950.000000 7.112876
226941.700000 142950.000000 7.077870
226941.600000 142950.000000 7.033829
226941.500000 142950.000000 6.993954
226941.400000 142950.000000 6.970827
226941.300000 142950.000000 6.959810
226941.200000 142950.000000 6.959142
226941.100000 142950.000000 6.972994
226941.000000 142950.000000 6.995838
226940.900000 142950.000000 7.014357
226940.800000 142950.000000 7.014359
226940.700000 142950.000000 6.989469
226940.600000 142950.000000 6.952224
226940.500000 142950.000000 6.924891
226940.400000 142950.000000 6.913966
226940.300000 142950.000000 6.907493
226940.200000 142950.000000 6.897576
226940.100000 142950.000000 6.889146
226940.000000 142950.000000 6.890110
226939.900000 142950.000000 6.896416
226939.800000 142950.000000 6.894297
226939.700000 142950.000000 6.879543
226939.600000 142950.000000 6.858222
226939.500000 142950.000000 6.836946
226939.400000 142950.000000 6.821019
226939.300000 142950.000000 6.813020
226939.200000 142950.000000 6.812077
226939.100000 142950.000000 6.815761
226939.000000 142950.000000 6.815092
226938.900000 142950.000000 6.801990
226938.800000 142950.000000 6.786195
226938.700000 142950.000000 6.783140
226938.600000 142950.000000 6.791774
226938.500000 142950.000000 6.802651
226938.400000 142950.000000 6.805048
226938.300000 142950.000000 6.791162
226938.200000 142950.000000 6.766224
226938.100000 142950.000000 6.739939
226938.000000 142950.000000 6.721864
226937.900000 142950.000000 6.718014
226937.800000 142950.000000 6.717688
226937.700000 142950.000000 6.704985
226937.600000 142950.000000 6.681042
226937.500000 142950.000000 6.658144
226937.400000 142950.000000 6.642870
226937.300000 142950.000000 6.633235
226937.200000 142950.000000 6.630162
226937.100000 142950.000000 6.640017
226937.000000 142950.000000 6.660195
226936.900000 142950.000000 6.676048
226936.800000 142950.000000 6.678526
226936.700000 142950.000000 6.665462
226936.600000 142950.000000 6.638665
226936.500000 142950.000000 6.605446
226936.400000 142950.000000 6.572113
226936.300000 142950.000000 6.543959
226936.200000 142950.000000 6.532508
226936.100000 142950.000000 6.547518
226936.000000 142950.000000 6.574369
226935.900000 142950.000000 6.588994
226935.800000 142950.000000 6.587954
226935.700000 142950.000000 6.580505
226935.600000 142950.000000 6.575418
226935.500000 142950.000000 6.576737
226935.400000 142950.000000 6.579999
226935.300000 142950.000000 6.578310
226935.200000 142950.000000 6.568238
226935.100000 142950.000000 6.551797
226935.000000 142950.000000 6.537689
226934.900000 142950.000000 6.533952
226934.800000 142950.000000 6.536333
226934.700000 142950.000000 6.536251
226934.600000 142950.000000 6.530646
226934.500000 142950.000000 6.521639
226934.400000 142950.000000 6.516899
226934.300000 142950.000000 6.519522
226934.200000 142950.000000 6.521827
226934.100000 142950.000000 6.518856
226934.000000 142950.000000 6.514742
226933.900000 142950.000000 6.513654
226933.800000 142950.000000 6.514339
226933.700000 142950.000000 6.511167
226933.600000 142950.000000 6.500752
226933.500000 142950.000000 6.486572
226933.400000 142950.000000 6.472783
226933.300000 142950.000000 6.461485
226933.200000 142950.000000 6.456843
226933.100000 142950.000000 6.462196
226933.000000 142950.000000 6.470581
226932.900000 142950.000000 6.470562
226932.800000 142950.000000 6.456211
226932.700000 142950.000000 6.437876
226932.600000 142950.000000 6.436567
226932.500000 142950.000000 6.449404
226932.400000 142950.000000 6.459016
226932.300000 142950.000000 6.454089
226932.200000 142950.000000 6.439236
226932.100000 142950.000000 6.429157
226932.000000 142950.000000 6.429354
226931.900000 142950.000000 6.436009
226931.800000 142950.000000 6.443935
226931.700000 142950.000000 6.445596
226931.600000 142950.000000 6.439269
226931.500000 142950.000000 6.434948
226931.400000 142950.000000 6.439830
226931.300000 142950.000000 6.451994
226931.200000 142950.000000 6.466948
226931.100000 142950.000000 6.477148
226931.000000 142950.000000 6.477904
226930.900000 142950.000000 6.473154
226930.800000 142950.000000 6.468162
226930.700000 142950.000000 6.466972
226930.600000 142950.000000 6.471615
226930.500000 142950.000000 6.477498
226930.400000 142950.000000 6.474108
226930.300000 142950.000000 6.455872
226930.200000 142950.000000 6.432488
226930.100000 142950.000000 6.414146
226930.000000 142950.000000 6.404741
226929.900000 142950.000000 6.399574
226929.800000 142950.000000 6.384848
226929.700000 142950.000000 6.359561
226929.600000 142950.000000 6.337531
226929.500000 142950.000000 6.322415
226929.400000 142950.000000 6.313868
226929.300000 142950.000000 6.315824
226929.200000 142950.000000 6.326996
226929.100000 142950.000000 6.338467
226929.000000 142950.000000 6.342091
226928.900000 142950.000000 6.336756
226928.800000 142950.000000 6.323836
226928.700000 142950.000000 6.306197
226928.600000 142950.000000 6.294827
226928.500000 142950.000000 6.295148
226928.400000 142950.000000 6.293166
226928.300000 142950.000000 6.277026
226928.200000 142950.000000 6.256987
226928.100000 142950.000000 6.249653
226928.000000 142950.000000 6.257858
226927.900000 142950.000000 6.269303
226927.800000 142950.000000 6.272937
226927.700000 142950.000000 6.267132
226927.600000 142950.000000 6.256540
226927.500000 142950.000000 6.244838
226927.400000 142950.000000 6.232985
226927.300000 142950.000000 6.221114
226927.200000 142950.000000 6.209242
226927.100000 142950.000000 6.197371
226927.000000 142950.000000 6.185498
226926.900000 142950.000000 6.173607
226926.800000 142950.000000 6.161434
226926.700000 142950.000000 6.147371
226926.600000 142950.000000 6.127374
226926.500000 142950.000000 6.099134
226926.400000 142950.000000 6.066239
226926.300000 142950.000000 6.032333
226926.200000 142950.000000 5.998346
226926.100000 142950.000000 5.964409
226926.000000 142950.000000 5.931132
226925.900000 142950.000000 5.901141
226925.800000 142950.000000 5.878012
226925.700000 142950.000000 5.861432
226925.600000 142950.000000 5.847760
226925.500000 142950.000000 5.834651
226925.400000 142950.000000 5.821585
226925.300000 142950.000000 5.808520
226925.200000 142950.000000 5.795445
226925.100000 142950.000000 5.782250
226925.000000 142950.000000 5.768444
226924.900000 142950.000000 5.753333
226924.800000 142950.000000 5.736938
226924.700000 142950.000000 5.719956
226924.600000 142950.000000 5.702860
226924.500000 142950.000000 5.685754
226924.400000 142950.000000 5.668649
226924.300000 142950.000000 5.651550
226924.200000 142950.000000 5.634544
226924.100000 142950.000000 5.618078
226924.000000 142950.000000 5.603062
226923.900000 142950.000000 5.589847
226923.800000 142950.000000 5.577594
226923.700000 142950.000000 5.565545
226923.600000 142950.000000 5.553511
226923.500000 142950.000000 5.541479
226923.400000 142950.000000 5.529447
226923.300000 142950.000000 5.517447
226923.200000 142950.000000 5.505841
226923.100000 142950.000000 5.496088
226923.000000 142950.000000 5.489809
226922.900000 142950.000000 5.486323
226922.800000 142950.000000 5.483876
226922.700000 142950.000000 5.481607
226922.600000 142950.000000 5.479352
226922.500000 142950.000000 5.477097
226922.400000 142950.000000 5.474842
226922.300000 142950.000000 5.472586
226922.200000 142950.000000 5.470304
226922.100000 142950.000000 5.467706
226922.000000 142950.000000 5.463579
226921.900000 142950.000000 5.456438
226921.800000 142950.000000 5.446661
226921.700000 142950.000000 5.435806
226921.600000 142950.000000 5.424752
226921.500000 142950.000000 5.413679
226921.400000 142950.000000 5.402462
226921.300000 142950.000000 5.389386
226921.200000 142950.000000 5.366684
226921.100000 142950.000000 5.324377
226921.000000 142950.000000 5.273160
226920.900000 142950.000000 5.237062
226920.800000 142950.000000 5.216994
226920.700000 142950.000000 5.206821
226920.600000 142950.000000 5.205234
226920.500000 142950.000000 5.205292
226920.400000 142950.000000 5.201420
226920.300000 142950.000000 5.195867
226920.200000 142950.000000 5.193012
226920.100000 142950.000000 5.194628
226920.000000 142950.000000 5.193105
226919.900000 142950.000000 5.173839
226919.800000 142950.000000 5.139852
226919.700000 142950.000000 5.108344
226919.600000 142950.000000 5.086920
226919.500000 142950.000000 5.076437
226919.400000 142950.000000 5.073809
226919.300000 142950.000000 5.074906
226919.200000 142950.000000 5.081247
226919.100000 142950.000000 5.098623
226919.000000 142950.000000 5.123482
226918.900000 142950.000000 5.136394
226918.800000 142950.000000 5.126066
226918.700000 142950.000000 5.105831
226918.600000 142950.000000 5.093206
226918.500000 142950.000000 5.090974
226918.400000 142950.000000 5.084694
226918.300000 142950.000000 5.065567
226918.200000 142950.000000 5.042136
226918.100000 142950.000000 5.021643
226918.000000 142950.000000 5.006623
226917.900000 142950.000000 5.002044
226917.800000 142950.000000 5.009650
226917.700000 142950.000000 5.021996
226917.600000 142950.000000 5.028924
226917.500000 142950.000000 5.024994
226917.400000 142950.000000 5.011708
226917.300000 142950.000000 4.993866
226917.200000 142950.000000 4.975376
226917.100000 142950.000000 4.960364
226917.000000 142950.000000 4.954565
226916.900000 142950.000000 4.958234
226916.800000 142950.000000 4.961109
226916.700000 142950.000000 4.955179
226916.600000 142950.000000 4.944209
226916.500000 142950.000000 4.935486
226916.400000 142950.000000 4.932819
226916.300000 142950.000000 4.935468
226916.200000 142950.000000 4.945259
226916.100000 142950.000000 4.965866
226916.000000 142950.000000 4.991352
226915.900000 142950.000000 5.007705
226915.800000 142950.000000 5.008744
226915.700000 142950.000000 5.005740
226915.600000 142950.000000 5.012028
226915.500000 142950.000000 5.023987
226915.400000 142950.000000 5.018637
226915.300000 142950.000000 4.985285
226915.200000 142950.000000 4.949725
226915.100000 142950.000000 4.935767
226915.000000 142950.000000 4.936766
226914.900000 142950.000000 4.942002
226914.800000 142950.000000 4.952043
226914.700000 142950.000000 4.971999
226914.600000 142950.000000 4.999728
226914.500000 142950.000000 5.019882
226914.400000 142950.000000 5.019188
226914.300000 142950.000000 5.004107
226914.200000 142950.000000 4.986194
226914.100000 142950.000000 4.968984
226914.000000 142950.000000 4.952151
226913.900000 142950.000000 4.935302
226913.800000 142950.000000 4.917898
226913.700000 142950.000000 4.898619
226913.600000 142950.000000 4.876627
226913.500000 142950.000000 4.853074
226913.400000 142950.000000 4.829181
226913.300000 142950.000000 4.805259
226913.200000 142950.000000 4.781337
226913.100000 142950.000000 4.757415
226913.000000 142950.000000 4.733493
226912.900000 142950.000000 4.709609
226912.800000 142950.000000 4.686214
226912.700000 142950.000000 4.665449
226912.600000 142950.000000 4.650981
226912.500000 142950.000000 4.643566
226912.400000 142950.000000 4.639685
226912.300000 142950.000000 4.636532
226912.200000 142950.000000 4.633437
226912.100000 142950.000000 4.630344
226912.000000 142950.000000 4.627251
226911.900000 142950.000000 4.624157
226911.800000 142950.000000 4.621064
226911.700000 142950.000000 4.617976
226911.600000 142950.000000 4.614976
226911.500000 142950.000000 4.612659
226911.400000 142950.000000 4.612758
226911.300000 142950.000000 4.616452
226911.200000 142950.000000 4.622238
226911.100000 142950.000000 4.628485
226911.000000 142950.000000 4.634768
226910.900000 142950.000000 4.641053
226910.800000 142950.000000 4.647338
226910.700000 142950.000000 4.653624
226910.600000 142950.000000 4.659909
226910.500000 142950.000000 4.666193
226910.400000 142950.000000 4.672468
226910.300000 142950.000000 4.678596
226910.200000 142950.000000 4.683806
226910.100000 142950.000000 4.686324
226910.000000 142950.000000 4.685265
226909.900000 142950.000000 4.682230
226909.800000 142950.000000 4.678770
226909.700000 142950.000000 4.675275
226909.600000 142950.000000 4.671779
226909.500000 142950.000000 4.668283
226909.400000 142950.000000 4.664788
226909.300000 142950.000000 4.661292
226909.200000 142950.000000 4.657806
226909.100000 142950.000000 4.654397
226909.000000 142950.000000 4.651292
226908.900000 142950.000000 4.648659
226908.800000 142950.000000 4.646306
226908.700000 142950.000000 4.644014
226908.600000 142950.000000 4.641728
226908.500000 142950.000000 4.639442
226908.400000 142950.000000 4.637156
226908.300000 142950.000000 4.634870
226908.200000 142950.000000 4.632584
226908.100000 142950.000000 4.630288
226908.000000 142950.000000 4.627860
226907.900000 142950.000000 4.624630
226907.800000 142950.000000 4.619152
226907.700000 142950.000000 4.610784
226907.600000 142950.000000 4.600845
226907.500000 142950.000000 4.590571
226907.400000 142950.000000 4.580269
226907.300000 142950.000000 4.569967
226907.200000 142950.000000 4.559664
226907.100000 142950.000000 4.549362
226907.000000 142950.000000 4.539046
226906.900000 142950.000000 4.528570
226906.800000 142950.000000 4.517327
226906.700000 142950.000000 4.504598
226906.600000 142950.000000 4.490605
226906.500000 142950.000000 4.476110
226906.400000 142950.000000 4.461525
226906.300000 142950.000000 4.446934
226906.200000 142950.000000 4.432342
226906.100000 142950.000000 4.417750
226906.000000 142950.000000 4.403158
226905.900000 142950.000000 4.388575
226905.800000 142950.000000 4.374100
226905.700000 142950.000000 4.360163
226905.600000 142950.000000 4.347335
226905.500000 142950.000000 4.335552
226905.400000 142950.000000 4.324226
226905.300000 142950.000000 4.312987
226905.200000 142950.000000 4.301756
226905.100000 142950.000000 4.290525
226905.000000 142950.000000 4.279294
226904.900000 142950.000000 4.268062
226904.800000 142950.000000 4.256831
226904.700000 142950.000000 4.245616
226904.600000 142950.000000 4.234617
226904.500000 142950.000000 4.225036
226904.400000 142950.000000 4.219771
226904.300000 142950.000000 4.220390
226904.200000 142950.000000 4.224302
226904.100000 142950.000000 4.228926
226904.000000 142950.000000 4.233608
226903.900000 142950.000000 4.238292
226903.800000 142950.000000 4.242975
226903.700000 142950.000000 4.247659
226903.600000 142950.000000 4.252343
226903.500000 142950.000000 4.257025
226903.400000 142950.000000 4.261677
226903.300000 142950.000000 4.265994
226903.200000 142950.000000 4.268879
226903.100000 142950.000000 4.269443
226903.000000 142950.000000 4.268608
226902.900000 142950.000000 4.267462
226902.800000 142950.000000 4.266290
226902.700000 142950.000000 4.265118
226902.600000 142950.000000 4.263945
226902.500000 142950.000000 4.262773
226902.400000 142950.000000 4.261600
226902.300000 142950.000000 4.260427
226902.200000 142950.000000 4.259230
226902.100000 142950.000000 4.257844
226902.000000 142950.000000 4.255756
226901.900000 142950.000000 4.252597
226901.800000 142950.000000 4.248808
226901.700000 142950.000000 4.244880
226901.600000 142950.000000 4.240941
226901.500000 142950.000000 4.237001
226901.400000 142950.000000 4.233062
226901.300000 142950.000000 4.229122
226901.200000 142950.000000 4.225183
226901.100000 142950.000000 4.221244
226901.000000 142950.000000 4.217304
226900.900000 142950.000000 4.213358
226900.800000 142950.000000 4.209329
226900.700000 142950.000000 4.204850
226900.600000 142950.000000 4.199275
226900.500000 142950.000000 4.192455
226900.400000 142950.000000 4.185004
226900.300000 142950.000000 4.177423
226900.200000 142950.000000 4.169832
226900.100000 142950.000000 4.162241
226900.000000 142950.000000 4.154649
226899.900000 142950.000000 4.147057
226899.800000 142950.000000 4.139466
226899.700000 142950.000000 4.131872
226899.600000 142950.000000 4.124247
226899.500000 142950.000000 4.116387
226899.400000 142950.000000 4.107726
226899.300000 142950.000000 4.097896
226899.200000 142950.000000 4.087391
226899.100000 142950.000000 4.076738
226899.000000 142950.000000 4.066073
226898.900000 142950.000000 4.055408
226898.800000 142950.000000 4.044742
226898.700000 142950.000000 4.034077
226898.600000 142950.000000 4.023432
226898.500000 142950.000000 4.013025
226898.400000 142950.000000 4.003783
226898.300000 142950.000000 3.996859
226898.200000 142950.000000 3.992001
226898.100000 142950.000000 3.988005
226898.000000 142950.000000 3.984168
226897.900000 142950.000000 3.980344
226897.800000 142950.000000 3.976520
226897.700000 142950.000000 3.972697
226897.600000 142950.000000 3.968873
226897.500000 142950.000000 3.965049
226897.400000 142950.000000 3.961228
226897.300000 142950.000000 3.957439
226897.200000 142950.000000 3.953805
226897.100000 142950.000000 3.950489
226897.000000 142950.000000 3.947463
226896.900000 142950.000000 3.944562
226896.800000 142950.000000 3.941685
226896.700000 142950.000000 3.938809
226896.600000 142950.000000 3.935933
226896.500000 142950.000000 3.933058
226896.400000 142950.000000 3.930182
226896.300000 142950.000000 3.927307
226896.200000 142950.000000 3.924434
226896.100000 142950.000000 3.921593
226896.000000 142950.000000 3.918921
226895.900000 142950.000000 3.916643
226895.800000 142950.000000 3.914792
226895.700000 142950.000000 3.913152
226895.600000 142950.000000 3.911554
226895.500000 142950.000000 3.909959
226895.400000 142950.000000 3.908365
226895.300000 142950.000000 3.906770
226895.200000 142950.000000 3.905176
226895.100000 142950.000000 3.903581
226895.000000 142950.000000 3.901987
226894.900000 142950.000000 3.900392
226894.800000 142950.000000 3.898794
226894.700000 142950.000000 3.897178
226894.600000 142950.000000 3.895510
226894.500000 142950.000000 3.893775
226894.400000 142950.000000 3.892003
226894.300000 142950.000000 3.890224
226894.200000 142950.000000 3.888445
226894.100000 142950.000000 3.886665
226894.000000 142950.000000 3.884885
226893.900000 142950.000000 3.883106
226893.800000 142950.000000 3.881326
226893.700000 142950.000000 3.879546
226893.600000 142950.000000 3.877768
226893.500000 142950.000000 3.875999
226893.400000 142950.000000 3.874290
226893.300000 142950.000000 3.872733
226893.200000 142950.000000 3.871355
226893.100000 142950.000000 3.870072
226893.000000 142950.000000 3.868808
226892.900000 142950.000000 3.867546
226892.800000 142950.000000 3.866284
226892.700000 142950.000000 3.865022
226892.600000 142950.000000 3.863760
226892.500000 142950.000000 3.862498
226892.400000 142950.000000 3.861229
226892.300000 142950.000000 3.859874
226892.200000 142950.000000 3.858069
226892.100000 142950.000000 3.855236
226892.000000 142950.000000 3.851308
226891.900000 142950.000000 3.846851
226891.800000 142950.000000 3.842286
226891.700000 142950.000000 3.837713
226891.600000 142950.000000 3.833140
226891.500000 142950.000000 3.828566
226891.400000 142950.000000 3.823993
226891.300000 142950.000000 3.819419
226891.200000 142950.000000 3.814846
226891.100000 142950.000000 3.810281
226891.000000 142950.000000 3.805817
226890.900000 142950.000000 3.801826
226890.800000 142950.000000 3.798705
226890.700000 142950.000000 3.796262
226890.600000 142950.000000 3.794061
226890.500000 142950.000000 3.791900
226890.400000 142950.000000 3.789742
226890.300000 142950.000000 3.787584
226890.200000 142950.000000 3.785426
226890.100000 142950.000000 3.783268
226890.000000 142950.000000 3.781110
226889.900000 142950.000000 3.778952
226889.800000 142950.000000 3.776785
226889.700000 142950.000000 3.774569
226889.600000 142950.000000 3.772212
226889.500000 142950.000000 3.769675
226889.400000 142950.000000 3.767040
226889.300000 142950.000000 3.764383
226889.200000 142950.000000 3.761725
226889.100000 142950.000000 3.759067
226889.000000 142950.000000 3.756409
226888.900000 142950.000000 3.753751
226888.800000 142950.000000 3.751092
226888.700000 142950.000000 3.748434
226888.600000 142950.000000 3.745777
226888.500000 142950.000000 3.743131
226888.400000 142950.000000 3.740583
226888.300000 142950.000000 3.738402
226888.200000 142950.000000 3.736781
226888.100000 142950.000000 3.735489
226888.000000 142950.000000 3.734269
226887.900000 142950.000000 3.733055
226887.800000 142950.000000 3.731842
226887.700000 142950.000000 3.730629
226887.600000 142950.000000 3.729415
226887.500000 142950.000000 3.728202
226887.400000 142950.000000 3.726988
226887.300000 142950.000000 3.725774
226887.200000 142950.000000 3.724542
226887.100000 142950.000000 3.723084
226887.000000 142950.000000 3.720595
226886.900000 142950.000000 3.716331
226886.800000 142950.000000 3.710858
226886.700000 142950.000000 3.705037
226886.600000 142950.000000 3.699170
226886.500000 142950.000000 3.693300
226886.400000 142950.000000 3.687429
226886.300000 142950.000000 3.681559
226886.200000 142950.000000 3.675689
226886.100000 142950.000000 3.669819
226886.000000 142950.000000 3.663949
226885.900000 142950.000000 3.658078
226885.800000 142950.000000 3.652208
226885.700000 142950.000000 3.646333
226885.600000 142950.000000 3.640440
226885.500000 142950.000000 3.634512
226885.400000 142950.000000 3.628557
226885.300000 142950.000000 3.622593
226885.200000 142950.000000 3.616627
226885.100000 142950.000000 3.610661
226885.000000 142950.000000 3.604694
226884.900000 142950.000000 3.598728
226884.800000 142950.000000 3.592762
226884.700000 142950.000000 3.586796
226884.600000 142950.000000 3.580830
226884.500000 142950.000000 3.574877
226884.400000 142950.000000 3.569090
226884.300000 142950.000000 3.564143
226884.200000 142950.000000 3.560999
226884.100000 142950.000000 3.559644
226884.000000 142950.000000 3.559110
226883.900000 142950.000000 3.558736
226883.800000 142950.000000 3.558376
226883.700000 142950.000000 3.558015
226883.600000 142950.000000 3.557655
226883.500000 142950.000000 3.557295
226883.400000 142950.000000 3.556935
226883.300000 142950.000000 3.556574
226883.200000 142950.000000 3.556214
226883.100000 142950.000000 3.555852
226883.000000 142950.000000 3.555465
226882.900000 142950.000000 3.554957
226882.800000 142950.000000 3.554212
226882.700000 142950.000000 3.553258
226882.600000 142950.000000 3.552218
226882.500000 142950.000000 3.551162
226882.400000 142950.000000 3.550104
226882.300000 142950.000000 3.549047
226882.200000 142950.000000 3.547989
226882.100000 142950.000000 3.546932
226882.000000 142950.000000 3.545875
226881.900000 142950.000000 3.544817
226881.800000 142950.000000 3.543761
226881.700000 142950.000000 3.542721
226881.600000 142950.000000 3.541769
226881.500000 142950.000000 3.541026
226881.400000 142950.000000 3.540515
226881.300000 142950.000000 3.540119
226881.200000 142950.000000 3.539748
226881.100000 142950.000000 3.539379
226881.000000 142950.000000 3.539010
226880.900000 142950.000000 3.538640
226880.800000 142950.000000 3.538271
226880.700000 142950.000000 3.537902
226880.600000 142950.000000 3.537533
226880.500000 142950.000000 3.537162
226880.400000 142950.000000 3.536768
226880.300000 142950.000000 3.536067
226880.200000 142950.000000 3.533964
226880.100000 142950.000000 3.529397
226880.000000 142950.000000 3.523087
226879.900000 142950.000000 3.516237
226879.800000 142950.000000 3.509309
226879.700000 142950.000000 3.502376
226879.600000 142950.000000 3.495443
226879.500000 142950.000000 3.488510
226879.400000 142950.000000 3.481577
226879.300000 142950.000000 3.474644
226879.200000 142950.000000 3.467711
226879.100000 142950.000000 3.460789
226879.000000 142950.000000 3.453993
226878.900000 142950.000000 3.447822
226878.800000 142950.000000 3.442925
226878.700000 142950.000000 3.439208
226878.600000 142950.000000 3.436000
226878.500000 142950.000000 3.432889
226878.400000 142950.000000 3.429785
226878.300000 142950.000000 3.426681
226878.200000 142950.000000 3.423578
226878.100000 142950.000000 3.420474
226878.000000 142950.000000 3.417370
226877.900000 142950.000000 3.414267
226877.800000 142950.000000 3.411167
226877.700000 142950.000000 3.408119
226877.600000 142950.000000 3.405353
226877.500000 142950.000000 3.403271
226877.400000 142950.000000 3.401967
226877.300000 142950.000000 3.401056
226877.200000 142950.000000 3.400226
226877.100000 142950.000000 3.399402
226877.000000 142950.000000 3.398579
226876.900000 142950.000000 3.397755
226876.800000 142950.000000 3.396932
226876.700000 142950.000000 3.396109
226876.600000 142950.000000 3.395285
226876.500000 142950.000000 3.394462
226876.400000 142950.000000 3.393636
226876.300000 142950.000000 3.392787
226876.200000 142950.000000 3.391832
226876.100000 142950.000000 3.390705
226876.000000 142950.000000 3.389474
226875.900000 142950.000000 3.388220
226875.800000 142950.000000 3.386965
226875.700000 142950.000000 3.385709
226875.600000 142950.000000 3.384453
226875.500000 142950.000000 3.383197
226875.400000 142950.000000 3.381941
226875.300000 142950.000000 3.380686
226875.200000 142950.000000 3.379429
226875.100000 142950.000000 3.378161
226875.000000 142950.000000 3.376823
226874.900000 142950.000000 3.375298
226874.800000 142950.000000 3.373537
226874.700000 142950.000000 3.371650
226874.600000 142950.000000 3.369736
226874.500000 142950.000000 3.367820
226874.400000 142950.000000 3.365903
226874.300000 142950.000000 3.363987
226874.200000 142950.000000 3.362070
226874.100000 142950.000000 3.360154
226874.000000 142950.000000 3.358230
226873.900000 142950.000000 3.356215
226873.800000 142950.000000 3.353778
226873.700000 142950.000000 3.350577
226873.600000 142950.000000 3.346801
226873.500000 142950.000000 3.342830
226873.400000 142950.000000 3.338827
226873.300000 142950.000000 3.334823
226873.200000 142950.000000 3.330818
226873.100000 142950.000000 3.326818
226873.000000 142950.000000 3.322886
226872.900000 142950.000000 3.319336
226872.800000 142950.000000 3.316788
226872.700000 142950.000000 3.315461
226872.600000 142950.000000 3.314777
226872.500000 142950.000000 3.314229
226872.400000 142950.000000 3.313692
226872.300000 142950.000000 3.313156
226872.200000 142950.000000 3.312619
226872.100000 142950.000000 3.312082
226872.000000 142950.000000 3.311545
226871.900000 142950.000000 3.310988
226871.800000 142950.000000 3.310297
226871.700000 142950.000000 3.309143
226871.600000 142950.000000 3.307316
226871.500000 142950.000000 3.305099
226871.400000 142950.000000 3.302797
226871.300000 142950.000000 3.300489
226871.200000 142950.000000 3.298180
226871.100000 142950.000000 3.295871
226871.000000 142950.000000 3.293562
226870.900000 142950.000000 3.291253
226870.800000 142950.000000 3.288944
226870.700000 142950.000000 3.286636
226870.600000 142950.000000 3.284331
226870.500000 142950.000000 3.282086
226870.400000 142950.000000 3.280196
226870.300000 142950.000000 3.279280
226870.200000 142950.000000 3.279597
226870.100000 142950.000000 3.280580
226870.000000 142950.000000 3.281703
226869.900000 142950.000000 3.282812
226869.800000 142950.000000 3.283721
226869.700000 142950.000000 3.283923
226869.600000 142950.000000 3.283072
226869.500000 142950.000000 3.281609
226869.400000 142950.000000 3.280011
226869.300000 142950.000000 3.278402
226869.200000 142950.000000 3.276793
226869.100000 142950.000000 3.275184
226869.000000 142950.000000 3.273572
226868.900000 142950.000000 3.271932
226868.800000 142950.000000 3.270095
226868.700000 142950.000000 3.267631
226868.600000 142950.000000 3.264284
226868.500000 142950.000000 3.260438
226868.400000 142950.000000 3.256483
226868.300000 142950.000000 3.252519
226868.200000 142950.000000 3.248555
226868.100000 142950.000000 3.244591
226868.000000 142950.000000 3.240626
226867.900000 142950.000000 3.236662
226867.800000 142950.000000 3.232699
226867.700000 142950.000000 3.228757
226867.600000 142950.000000 3.225092
226867.500000 142950.000000 3.222706
226867.400000 142950.000000 3.222625
226867.300000 142950.000000 3.224263
226867.200000 142950.000000 3.226480
226867.100000 142950.000000 3.228788
226867.000000 142950.000000 3.231103
226866.900000 142950.000000 3.233417
226866.800000 142950.000000 3.235732
226866.700000 142950.000000 3.238047
226866.600000 142950.000000 3.240361
226866.500000 142950.000000 3.242676
226866.400000 142950.000000 3.244983
226866.300000 142950.000000 3.247193
226866.200000 142950.000000 3.248887
226866.100000 142950.000000 3.249369
226866.000000 142950.000000 3.248518
226865.900000 142950.000000 3.247008
226865.800000 142950.000000 3.245363
226865.700000 142950.000000 3.243707
226865.600000 142950.000000 3.242051
226865.500000 142950.000000 3.240395
226865.400000 142950.000000 3.238739
226865.300000 142950.000000 3.237083
226865.200000 142950.000000 3.235427
226865.100000 142950.000000 3.233771
226865.000000 142950.000000 3.232114
226864.900000 142950.000000 3.230445
226864.800000 142950.000000 3.228714
226864.700000 142950.000000 3.226850
226864.600000 142950.000000 3.224856
226864.500000 142950.000000 3.222803
226864.400000 142950.000000 3.220737
226864.300000 142950.000000 3.218671
226864.200000 142950.000000 3.216604
226864.100000 142950.000000 3.214538
226864.000000 142950.000000 3.212472
226863.900000 142950.000000 3.210405
226863.800000 142950.000000 3.208339
226863.700000 142950.000000 3.206273
226863.600000 142950.000000 3.204206
226863.500000 142950.000000 3.202140
226863.400000 142950.000000 3.200073
226863.300000 142950.000000 3.198002
226863.200000 142950.000000 3.195924
226863.100000 142950.000000 3.193843
226863.000000 142950.000000 3.191761
226862.900000 142950.000000 3.189679
226862.800000 142950.000000 3.187597
226862.700000 142950.000000 3.185515
226862.600000 142950.000000 3.183433
226862.500000 142950.000000 3.181351
226862.400000 142950.000000 3.179269
226862.300000 142950.000000 3.177187
226862.200000 142950.000000 3.175105
226862.100000 142950.000000 3.173023
226862.000000 142950.000000 3.170937
226861.900000 142950.000000 3.168838
226861.800000 142950.000000 3.166709
226861.700000 142950.000000 3.164554
226861.600000 142950.000000 3.162387
226861.500000 142950.000000 3.160218
226861.400000 142950.000000 3.158048
226861.300000 142950.000000 3.155879
226861.200000 142950.000000 3.153710
226861.100000 142950.000000 3.151541
226861.000000 142950.000000 3.149371
226860.900000 142950.000000 3.147202
226860.800000 142950.000000 3.145033
226860.700000 142950.000000 3.142864
226860.600000 142950.000000 3.140695
226860.500000 142950.000000 3.138527
226860.400000 142950.000000 3.136363
226860.300000 142950.000000 3.134203
226860.200000 142950.000000 3.132045
226860.100000 142950.000000 3.129888
226860.000000 142950.000000 3.127731
226859.900000 142950.000000 3.125574
226859.800000 142950.000000 3.123417
226859.700000 142950.000000 3.121260
226859.600000 142950.000000 3.119103
226859.500000 142950.000000 3.116946
226859.400000 142950.000000 3.114789
226859.300000 142950.000000 3.112632
226859.200000 142950.000000 3.110478
226859.100000 142950.000000 3.108355
226859.000000 142950.000000 3.106377
226858.900000 142950.000000 3.104643
226858.800000 142950.000000 3.103069
226858.700000 142950.000000 3.101538
226858.600000 142950.000000 3.100012
226858.500000 142950.000000 3.098487
226858.400000 142950.000000 3.096962
226858.300000 142950.000000 3.095436
226858.200000 142950.000000 3.093911
226858.100000 142950.000000 3.092385
226858.000000 142950.000000 3.090860
226857.900000 142950.000000 3.089335
226857.800000 142950.000000 3.087809
226857.700000 142950.000000 3.086283
226857.600000 142950.000000 3.084747
226857.500000 142950.000000 3.083149
226857.400000 142950.000000 3.081362
226857.300000 142950.000000 3.079319
226857.200000 142950.000000 3.077132
226857.100000 142950.000000 3.074915
226857.000000 142950.000000 3.072696
226856.900000 142950.000000 3.070476
226856.800000 142950.000000 3.068256
226856.700000 142950.000000 3.066036
226856.600000 142950.000000 3.063817
226856.500000 142950.000000 3.061597
226856.400000 142950.000000 3.059377
226856.300000 142950.000000 3.057158
226856.200000 142950.000000 3.054940
226856.100000 142950.000000 3.052743
226856.000000 142950.000000 3.050669
226855.900000 142950.000000 3.048906
226855.800000 142950.000000 3.047512
226855.700000 142950.000000 3.046309
226855.600000 142950.000000 3.045147
226855.500000 142950.000000 3.043988
226855.400000 142950.000000 3.042829
226855.300000 142950.000000 3.041671
226855.200000 142950.000000 3.040512
226855.100000 142950.000000 3.039353
226855.000000 142950.000000 3.038194
226854.900000 142950.000000 3.037035
226854.800000 142950.000000 3.035877
226854.700000 142950.000000 3.034715
226854.600000 142950.000000 3.033526
226854.500000 142950.000000 3.032200
226854.400000 142950.000000 3.030610
226854.300000 142950.000000 3.028793
226854.200000 142950.000000 3.026884
226854.100000 142950.000000 3.024958
226854.000000 142950.000000 3.023031
226853.900000 142950.000000 3.021104
226853.800000 142950.000000 3.019177
226853.700000 142950.000000 3.017251
226853.600000 142950.000000 3.015324
226853.500000 142950.000000 3.013397
226853.400000 142950.000000 3.011470
226853.300000 142950.000000 3.009543
226853.200000 142950.000000 3.007612
226853.100000 142950.000000 3.005635
226853.000000 142950.000000 3.003429
226852.900000 142950.000000 3.000763
226852.800000 142950.000000 2.997682
226852.700000 142950.000000 2.994426
226852.600000 142950.000000 2.991137
226852.500000 142950.000000 2.987845
226852.400000 142950.000000 2.984554
226852.300000 142950.000000 2.981262
226852.200000 142950.000000 2.977971
226852.100000 142950.000000 2.974679
226852.000000 142950.000000 2.971388
226851.900000 142950.000000 2.968096
226851.800000 142950.000000 2.964807
226851.700000 142950.000000 2.961547
226851.600000 142950.000000 2.958449
226851.500000 142950.000000 2.955765
226851.400000 142950.000000 2.953572
226851.300000 142950.000000 2.951635
226851.200000 142950.000000 2.949751
226851.100000 142950.000000 2.947871
226851.000000 142950.000000 2.945992
226850.900000 142950.000000 2.944112
226850.800000 142950.000000 2.942233
226850.700000 142950.000000 2.940354
226850.600000 142950.000000 2.938474
226850.500000 142950.000000 2.936595
226850.400000 142950.000000 2.934715
226850.300000 142950.000000 2.932840
226850.200000 142950.000000 2.931018
226850.100000 142950.000000 2.929477
226850.000000 142950.000000 2.928580
226849.900000 142950.000000 2.928376
226849.800000 142950.000000 2.928509
226849.700000 142950.000000 2.928711
226849.600000 142950.000000 2.928918
226849.500000 142950.000000 2.929125
226849.400000 142950.000000 2.929333
226849.300000 142950.000000 2.929540
226849.200000 142950.000000 2.929747
226849.100000 142950.000000 2.929955
226849.000000 142950.000000 2.930162
226848.900000 142950.000000 2.930369
226848.800000 142950.000000 2.930572
226848.700000 142950.000000 2.930725
226848.600000 142950.000000 2.930651
226848.500000 142950.000000 2.930196
226848.400000 142950.000000 2.929500
226848.300000 142950.000000 2.928744
226848.200000 142950.000000 2.927982
226848.100000 142950.000000 2.927220
226848.000000 142950.000000 2.926457
226847.900000 142950.000000 2.925695
226847.800000 142950.000000 2.924933
226847.700000 142950.000000 2.924170
226847.600000 142950.000000 2.923408
226847.500000 142950.000000 2.922646
226847.400000 142950.000000 2.921884
226847.300000 142950.000000 2.921128
226847.200000 142950.000000 2.920404
226847.100000 142950.000000 2.919745
226847.000000 142950.000000 2.919150
226846.900000 142950.000000 2.918584
226846.800000 142950.000000 2.918024
226846.700000 142950.000000 2.917464
226846.600000 142950.000000 2.916904
226846.500000 142950.000000 2.916344
226846.400000 142950.000000 2.915785
226846.300000 142950.000000 2.915225
226846.200000 142950.000000 2.914665
226846.100000 142950.000000 2.914105
226846.000000 142950.000000 2.913546
226845.900000 142950.000000 2.912993
226845.800000 142950.000000 2.912482
226845.700000 142950.000000 2.912087
226845.600000 142950.000000 2.911843
226845.500000 142950.000000 2.911680
226845.400000 142950.000000 2.911536
