4.874671760484869054e+00 4.813881604507821876e+00 4.610499065605388580e+00 4.514290722316749438e+00 4.440340138734197417e+00 4.284124503472773071e+00 4.058623764446850579e+00 3.801007674818495108e+00 3.429517062975003139e+00 3.429517062975003139e+00 2.859633183591447914e+00 2.353895462946529626e+00 2.059217509994572204e+00 1.969047607893011032e+00 1.908429199330406556e+00 1.900998545346572532e+00 1.934941542909331735e+00 1.959589747346535793e+00 1.952711190997511892e+00 2.008606160030421250e+00 2.060105822675128096e+00 2.014418200730788033e+00 1.998767295452922088e+00 1.985352222147138246e+00 1.985352222147138246e+00 1.976141713988500692e+00 1.967282789543760790e+00 2.034206938605273685e+00 2.111251696611383011e+00 2.156515315000194555e+00 2.042169311757819905e+00 1.955526882564249114e+00 1.847940164936320961e+00 1.696602779490395285e+00 1.413819843561600065e+00 1.098206840986521327e+00 1.098206840986521327e+00 8.475082830544771184e-01 6.179351892740396757e-01 4.897436151588566156e-01 3.980245378496959363e-01 -2.314533605705086997e-02 -1.997412032835295115e-01 -1.932596727627782507e-01 -2.402784058013455737e-01 -3.186250944274349739e-01 -4.362602411892181342e-01 -7.930386469846530950e-01 -7.930386469846530950e-01 -1.343358797471129407e+00 -2.011895861622339243e+00 -2.492633354650716004e+00 -2.636362520678925847e+00 -3.005328546342700413e+00 -3.204429128109129721e+00 -3.096781359073358608e+00 -2.943746139732220435e+00 -2.971276926756523107e+00 -3.373463371535427857e+00 -3.690525372204151999e+00 -3.871048396573812944e+00 -4.326857841873995802e+00 -4.492671341690789077e+00 -4.492671341690789077e+00 -4.567848318130700136e+00 -4.573157647421095540e+00 -4.571083266428068725e+00 -4.549851435938136568e+00 -4.550122758387527000e+00 -4.583985579691202794e+00 -4.179950429896605257e+00 -4.003325783713330921e+00 -3.774167550139695404e+00 -3.596741256264682107e+00 -3.835413540074422922e+00 -3.835413540074422922e+00 -4.345068873451533698e+00 -5.048000477856703583e+00 -5.515902662213024499e+00 -5.745104556868859014e+00 -6.403608472937489360e+00 -6.877934262887629657e+00 -7.354215311035853908e+00 -7.495433363117681935e+00 -7.751346269532367828e+00 -8.100947383162106163e+00 -8.315039933679805984e+00 -8.315039933679805984e+00 -8.457068500734493455e+00 -8.644827471391497653e+00 -8.644827471391497653e+00 -8.774848237050294486e+00 -8.927902566812205620e+00 -8.993235035455107607e+00 -9.015639506739598019e+00 -9.137686426447420018e+00 -9.189586929398110726e+00 -9.319682647982038048e+00 -9.346603134771781285e+00 -9.382990582605213348e+00 -9.473962913834192534e+00 -9.537285127848900146e+00 -9.537285127848900146e+00 -9.586931125507854645e+00 -9.605679201106118725e+00 -9.635698117716909650e+00 -9.646908402629625456e+00 -9.727613795623144100e+00 -9.740914864431069020e+00 -9.774278613218012168e+00 -9.827215686008493378e+00 -9.880059665742184194e+00 -1.006926808871765111e+01 -1.009326672218973542e+01 -1.009326672218973542e+01 -1.008092140673329951e+01
4.998425081578544038e+00 4.685348335320477453e+00 4.685348335320477453e+00 4.554871625503480459e+00 4.499719495017876270e+00 4.284124503472773071e+00 4.146840722185919148e+00 3.919363830744285071e+00 3.836964980879170817e+00 3.202445061690698758e+00 2.966384039906820647e+00 2.702231177441323684e+00 2.233997003484635258e+00 2.045531023567097595e+00 2.045531023567097595e+00 2.024574766064017872e+00 2.038770386939757540e+00 1.959589747346535793e+00 2.056505416296272593e+00 2.107652303687569173e+00 2.060105822675128096e+00 2.065133519458808298e+00 2.098052243128885941e+00 2.040886671335782943e+00 2.013617142590931941e+00 1.992504418033461899e+00 1.992504418033461899e+00 2.027694921619800361e+00 2.149430941906598225e+00 2.149430941906598225e+00 2.125623127743193841e+00 2.063550535473209990e+00 1.847940164936320961e+00 1.807767134044776292e+00 1.522849984300932658e+00 1.309665143281482091e+00 1.002353669535720693e+00 9.180924388629041477e-01 7.436441782710744297e-01 6.297044619788471076e-01 2.470616248403504356e-01 2.470616248403504356e-01 -1.645202932083885128e-01 -2.685488862309038938e-01 -2.402784058013455737e-01 -3.023235396154475563e-01 -4.727679199258087994e-01 -6.211336208204553122e-01 -1.021454718526854322e+00 -1.208215319115859776e+00 -1.599784451691123932e+00 -2.223067187869028238e+00 -2.722122147181337493e+00 -2.722122147181337493e+00 -3.006085195751616812e+00 -2.997896222811152089e+00 -2.943746139732220435e+00 -3.224617880163374917e+00 -3.611401993859614024e+00 -3.690525372204151999e+00 -3.962005830653625882e+00 -4.081416368021855590e+00 -4.316129016730011259e+00 -4.481511950904910613e+00 -4.427752767522532551e+00 -4.499576672954531453e+00 -4.503214386908777733e+00 -4.597876976540426597e+00 -4.597876976540426597e+00 -4.559499629162536039e+00 -4.214657724003025407e+00 -4.003325783713330921e+00 -3.859518294701017371e+00 -3.578417677231249705e+00 -3.628000644012930209e+00 -3.965576875133677515e+00 -4.169468642811527737e+00 -4.590700462345220778e+00 -5.280736436219223506e+00 -6.035694803555865739e+00 -6.035694803555865739e+00 -6.619680276106478800e+00 -7.169977935384022949e+00 -7.495433363117681935e+00 -7.613702043639429817e+00 -7.969822415490343204e+00 -8.165322931365166070e+00 -8.357670985476778114e+00 -8.405855540145903859e+00 -8.535404352513419113e+00 -8.671676332186136094e+00 -8.821783755209278155e+00 -8.821783755209278155e+00 -8.974184720625380862e+00 -9.073820168076064618e+00 -9.137686426447420018e+00 -9.168066894192673288e+00 -9.291361506821138150e+00 -9.358194841137477127e+00 -9.434907434955675853e+00 -9.475113224208607576e+00 -9.546635181821727656e+00 -9.560478918465854292e+00 -9.596651238195963884e+00 -9.604619199132098828e+00 -9.671377829248989144e+00 -9.699590950421555391e+00 -9.735475900146710160e+00 -9.749444354906970034e+00 -9.805503123741484472e+00 -9.894728950447376548e+00 -9.894728950447376548e+00 -1.013230705616042471e+01 -1.011085339338851696e+01 -1.009599796801991367e+01 -1.009147758008910856e+01
4.975427092172001409e+00 4.852368896516662922e+00 4.692457188036116555e+00 4.592953711092941482e+00 4.558213910384131928e+00 4.317857351252705200e+00 4.007251348675715086e+00 4.007251348675715086e+00 3.944767977641298273e+00 3.325707695526316066e+00 2.966384039906820647e+00 2.857955526152898607e+00 2.494598631662436006e+00 2.251728180620498065e+00 2.135111956684231149e+00 2.239213754060758177e+00 2.129596710172807938e+00 2.122138388019803479e+00 2.149189729225735590e+00 2.149189729225735590e+00 2.162417932704446599e+00 2.170304942899421885e+00 2.098052243128885941e+00 2.134964946877485836e+00 2.075370451407506867e+00 2.026223362267359995e+00 2.006256675637005937e+00 2.024412990656658362e+00 2.094779858691292240e+00 2.174607436950349637e+00 2.175181822443934543e+00 2.175181822443934543e+00 1.971019284096897861e+00 1.738038229829238279e+00 1.522849984300932658e+00 1.428031595241667562e+00 1.098873685250395749e+00 9.180924388629041477e-01 7.695335850084206175e-01 7.751450622881881358e-01 5.525947899044991729e-01 7.431597598167768992e-02 -9.420105536416439884e-02 -2.109273654816452570e-01 -2.808244712657147479e-01 -2.261479726120926292e-01 -2.261479726120926292e-01 -5.632897366070983569e-01 -9.020344229203027808e-01 -1.208215319115859776e+00 -1.411913048598601783e+00 -1.917101289706392375e+00 -2.330491508231379960e+00 -2.792907443011199753e+00 -2.814153065428320666e+00 -2.979533612260925501e+00 -3.252106073698431743e+00 -3.528549492223138628e+00 -3.528549492223138628e+00 -3.872020122895851291e+00 -3.796067061946491350e+00 -4.081416368021855590e+00 -4.037375264143038933e+00 -4.310363111400743463e+00 -4.427752767522532551e+00 -4.480841840120456609e+00 -4.434313280206660046e+00 -4.596861274018690935e+00 -4.520249559963227526e+00 -4.439900883743597149e+00 -4.249303785520078591e+00 -4.025760737164920222e+00 -3.675574726853220398e+00 -3.558854823814598056e+00 -3.558854823814598056e+00 -3.830683094587771009e+00 -4.368114211920265610e+00 -4.368114211920265610e+00 -5.046732083626972454e+00 -5.755278617663318386e+00 -6.186343751549884473e+00 -6.346403648690783328e+00 -6.943719275972018323e+00 -7.316514031772168636e+00 -7.769167717035113441e+00 -7.834450476301254795e+00 -8.035411436922320405e+00 -8.280963118488877228e+00 -8.491121802186249568e+00 -8.491121802186249568e+00 -8.635195654413861277e+00 -8.774999093152196394e+00 -8.873528260067121920e+00 -8.944871744765540811e+00 -9.015225369802852384e+00 -9.099012682608561775e+00 -9.209803794446301595e+00 -9.268776350307319944e+00 -9.313420785379172173e+00 -9.408120569312163894e+00 -9.490914224980508962e+00 -9.490914224980508962e+00 -9.545288597121487584e+00 -9.600732407619977593e+00 -9.604619199132098828e+00 -9.676220522025918314e+00 -9.697168095337882932e+00 -9.735475900146710160e+00 -9.782846978394776016e+00 -9.811906330440191226e+00 -9.848940161492144796e+00 -1.009694140955901531e+01 -1.014350910785440618e+01 -1.013026559890628597e+01 -1.012564418553865053e+01 -1.009100626554025304e+01
4.975427092172001409e+00 4.879532778647806879e+00 4.746583567603050113e+00 4.592953711092941482e+00 4.517399372384881318e+00 4.362251746488706061e+00 4.178615372210643386e+00 4.003870732029680468e+00 3.843958022543966013e+00 3.843958022543966013e+00 3.093605168241106984e+00 2.799428039143976310e+00 2.494598631662436006e+00 2.539626089361807892e+00 2.369584447486750012e+00 2.239213754060758177e+00 2.326060793460642095e+00 2.292036106098225723e+00 2.184961516518939995e+00 2.209414437344775717e+00 2.266979130527824182e+00 2.221616741538170459e+00 2.203169103078379543e+00 2.143827376282644526e+00 2.143827376282644526e+00 2.076305010546219521e+00 2.041870234175267473e+00 2.024412990656658362e+00 2.072104157033459515e+00 2.185303432725533845e+00 2.174334822513288579e+00 2.142843213140725567e+00 2.114411642059189411e+00 1.955914447535492817e+00 1.642088159979495199e+00 1.313717342004000699e+00 1.199501223974636765e+00 9.873536663925633894e-01 9.027156723032165875e-01 7.092808233084304526e-01 7.092808233084304526e-01 1.942834780195582534e-01 -2.260361467450791584e-01 -3.407675611920444325e-01 -3.350819301276317663e-01 -1.322024527523670001e-01 -3.128119342520829793e-01 -6.576727992202212603e-01 -7.762417511380089730e-01 -1.074441464160218906e+00 -1.515809563689693551e+00 -1.640696164959100756e+00 -2.025101762366464886e+00 -2.550788682616520031e+00 -2.851540503994734355e+00 -2.851540503994734355e+00 -3.444721048598166746e+00 -3.759712281962853453e+00 -3.880407172225516454e+00 -3.888818391908123839e+00 -3.648200081858324673e+00 -3.766957717827333241e+00 -4.064481558241875625e+00 -4.163341326991609748e+00 -4.276720414408414328e+00 -4.373245738344500921e+00 -4.492270553760641327e+00 -4.492270553760641327e+00 -4.494810968099742787e+00 -4.446266540775618559e+00 -4.249303785520078591e+00 -4.049295215660210445e+00 -3.713284269697707529e+00 -3.567257239275854808e+00 -3.645005652757081549e+00 -3.688131703702977049e+00 -3.990082935186862301e+00 -4.577070529192127424e+00 -5.258036687761967976e+00 -5.258036687761967976e+00 -5.971931475865366323e+00 -6.544362967111551299e+00 -6.943719275972018323e+00 -7.124510447378853861e+00 -7.576370042510020220e+00 -7.834450476301254795e+00 -8.125451913397402137e+00 -8.236939600882676515e+00 -8.360247091479532600e+00 -8.537902336689906946e+00 -8.607187145100059666e+00 -8.692177267537385177e+00 -8.817863280814817628e+00 -8.911535841868561292e+00 -8.911535841868561292e+00 -9.021562050416900291e+00 -9.128605407406023886e+00 -9.268776350307319944e+00 -9.219298705669018545e+00 -9.318348210379182817e+00 -9.426966096944536133e+00 -9.499742189535950843e+00 -9.489006311635410640e+00 -9.554274830164187549e+00 -9.567320267716247884e+00 -9.665560394856859361e+00 -9.665560394856859361e+00 -9.683515414717600578e+00 -9.756408397544804600e+00 -9.811906330440191226e+00 -9.824599463671916055e+00 -1.002744286109399496e+01 -1.014350910785440618e+01 -1.006900923474735521e+01 -1.006328015891403460e+01 -1.007272537136578450e+01
4.926804513177679645e+00 4.817645171064580012e+00 4.817645171064580012e+00 4.650416179842418174e+00 4.531382806491259352e+00 4.201053539881733023e+00 4.201053539881733023e+00 4.092211483703084518e+00 4.046861118907163046e+00 3.433823385315701859e+00 3.281126826127829688e+00 3.022082632452385731e+00 2.763215767490140973e+00 2.587592237124439087e+00 2.627906588933075049e+00 2.456212134837915784e+00 2.408752333648020549e+00 2.338624322338320738e+00 2.338624322338320738e+00 2.315710138428940468e+00 2.322769202134246314e+00 2.274366270707808724e+00 2.311834036975942919e+00 2.246814123141935848e+00 2.145352893079903733e+00 2.061908633233358046e+00 2.114759085726398702e+00 2.039422092522725993e+00 2.137802191891895909e+00 2.171594367130592840e+00 2.204803532345620098e+00 2.202854981331570983e+00 2.043287688142759073e+00 2.043287688142759073e+00 1.754350101694835073e+00 1.439254439275723607e+00 1.199501223974636765e+00 1.112762608724855440e+00 9.980313940570233466e-01 9.166302346491588260e-01 5.841451192821889293e-01 3.896093914981074713e-01 -7.180035425997252641e-03 -3.729811684902498703e-01 -2.561377156923222986e-01 -2.561377156923222986e-01 -2.048851283398960554e-01 -5.242358404172999808e-01 -7.762417511380089730e-01 -8.980751217451869994e-01 -1.311040906776555381e+00 -1.640696164959100756e+00 -2.204684117126720189e+00 -2.365259968154442838e+00 -2.649126226888300462e+00 -3.081854280531698631e+00 -3.507894127434985965e+00 -3.507894127434985965e+00 -3.755569151015520468e+00 -3.737762880429344570e+00 -3.648200081858324673e+00 -3.840101133025507707e+00 -4.051276352519342261e+00 -4.163341326991609748e+00 -4.268743039231862824e+00 -4.317299500251509770e+00 -4.371556571983897577e+00 -4.554957954606292603e+00 -4.473400213398973868e+00 -4.428756390316342717e+00 -4.280211637954861814e+00 -3.928053254092454427e+00 -3.928053254092454427e+00 -3.581616714787539291e+00 -3.554625372816641260e+00 -3.688131703702977049e+00 -3.875336607138936351e+00 -4.398624806992947001e+00 -4.809466958136024317e+00 -5.492970464159549593e+00 -5.722830539412223416e+00 -6.078400745684099604e+00 -6.689316651806163527e+00 -7.273880176711484680e+00 -7.273880176711484680e+00 -7.689069832973293828e+00 -8.008506165185249159e+00 -8.236939600882676515e+00 -8.283746308884550658e+00 -8.499222452151524720e+00 -8.607187145100059666e+00 -8.720267160644777249e+00 -8.660172038111349835e+00 -8.781052447486963786e+00 -8.879050698965516020e+00 -9.012233881011397330e+00 -9.012233881011397330e+00 -9.139983754458421927e+00 -9.208477294688911741e+00 -9.208477294688911741e+00 -9.341266616473184570e+00 -9.436321351614079589e+00 -9.489006311635410640e+00 -9.499547492828714468e+00 -9.524847434531881873e+00 -9.625168582207752621e+00 -9.659284682882084638e+00 -9.653836697177160531e+00 -9.766209663790995421e+00 -9.764666833167028770e+00 -9.832965219815761770e+00 -9.832965219815761770e+00 -1.004746225144309690e+01 -9.980371938278787880e+00 -1.006328015891403460e+01 -9.994212535027267919e+00
4.976847915001454403e+00 4.842339680990902728e+00 4.772251210121300602e+00 4.731319442859453162e+00 4.645023316278514613e+00 4.467855797714059385e+00 4.134481289307319507e+00 4.136065724201666960e+00 4.119434892349679522e+00 3.643569356148569582e+00 3.296101435221945763e+00 3.296101435221945763e+00 3.054061162886891889e+00 2.845016625867842208e+00 2.627906588933075049e+00 2.673918098804568544e+00 2.573124636345898164e+00 2.458521005278437421e+00 2.395101861666490528e+00 2.443872763757179989e+00 2.364269516061531462e+00 2.366263304336938766e+00 2.357400756252696183e+00 2.357400756252696183e+00 2.294548002394542152e+00 2.203726722058437115e+00 2.114759085726398702e+00 2.149900989351677172e+00 2.165856432130631060e+00 2.171594367130592840e+00 2.211567114830638392e+00 2.233806960775082562e+00 2.205745829585208373e+00 1.965893335956246935e+00 1.683922564972705427e+00 1.683922564972705427e+00 1.357379201816878656e+00 1.060465070837925072e+00 1.060465070837925072e+00 9.960815527931210500e-01 7.601951646322580025e-01 3.896093914981074713e-01 2.271658290167888616e-01 -2.466437352066413735e-01 -2.878325533505303735e-01 -2.928007336097081525e-01 -3.294637515270939510e-01 -2.854413014973225526e-01 -6.499646068384687947e-01 -1.044447309019338022e+00 -1.044447309019338022e+00 -1.442489891673468971e+00 -2.032537744554851145e+00 -2.365259968154442838e+00 -2.521018952937645885e+00 -2.916122045022061293e+00 -3.208907207769966519e+00 -3.562885297640370652e+00 -3.680081249200994442e+00 -3.744678464399269657e+00 -3.957946734203140249e+00 -3.975069489103519871e+00 -3.975069489103519871e+00 -4.168308306808599539e+00 -4.308071362811896954e+00 -4.317299500251509770e+00 -4.356403763397400652e+00 -4.492763260359335931e+00 -4.473400213398973868e+00 -4.411901902370492401e+00 -4.302986066118300812e+00 -4.101883302306327472e+00 -3.770221188950256153e+00 -3.508125619159319086e+00 -3.508125619159319086e+00 -3.602714062662869310e+00 -4.095110027069294389e+00 -4.095110027069294389e+00 -4.602021182518957865e+00 -5.258117520482710638e+00 -5.722830539412223416e+00 -5.807185187910144819e+00 -6.453508258606883707e+00 -6.895085353713879428e+00 -7.377026232213514945e+00 -7.494064217017618823e+00 -7.765066516607135760e+00 -8.091144338739328035e+00 -8.400024629585974623e+00 -8.400024629585974623e+00 -8.525074920304700044e+00 -8.562575917941309456e+00 -8.660172038111349835e+00 -8.617233150208388537e+00 -8.765666489383248106e+00 -8.890216598380593638e+00 -9.010600656514618834e+00 -9.015358221208511935e+00 -9.104609444466394308e+00 -9.225384230158365284e+00 -9.325467672657639540e+00 -9.325467672657639540e+00 -9.437452454615826269e+00 -9.498524741263496551e+00 -9.524847434531881873e+00 -9.573978072602331579e+00 -9.625995531318551457e+00 -9.653836697177160531e+00 -9.713284081614657950e+00 -9.722696809500526172e+00 -9.779243165028747242e+00 -9.942894820244990939e+00 -9.951415395031787625e+00 -9.891929441977117321e+00 -9.957213214935304535e+00 -9.925801484454698453e+00
4.878997308494913199e+00 4.878997308494913199e+00 4.828425518660703020e+00 4.754534963923452651e+00 4.645023316278514613e+00 4.620201939109956690e+00 4.252733219232714745e+00 4.136065724201666960e+00 4.190766109202455958e+00 3.986821521616435327e+00 3.649778151428756168e+00 3.312784774371618113e+00 3.118784838345454169e+00 3.118784838345454169e+00 2.895602721944809055e+00 2.719234726171415151e+00 2.719234726171415151e+00 2.618336783645631272e+00 2.547826005342709088e+00 2.443872763757179989e+00 2.457892952135069642e+00 2.451526514591800598e+00 2.426491365238911513e+00 2.402337976921272933e+00 2.455869446814328061e+00 2.328553965005604631e+00 2.251338675313652171e+00 2.161395799219156366e+00 2.161395799219156366e+00 2.168243804688426035e+00 2.218246534896525901e+00 2.233806960775082562e+00 2.277408062787571019e+00 2.077256697561201904e+00 1.898975157764019928e+00 1.585754378027524503e+00 1.519779245698308801e+00 1.268274532499944929e+00 1.065402118010183585e+00 9.943842814420860154e-01 9.943842814420860154e-01 6.215120953684878380e-01 1.198389841422582563e-01 -2.466437352066413735e-01 -2.819346058054011950e-01 -4.161018946527028639e-01 -3.294637515270939510e-01 -4.033954313652530210e-01 -4.923851057439864176e-01 -7.389542812172020803e-01 -1.131576030550981216e+00 -1.225345651083293408e+00 -1.610615474032476957e+00 -2.203414565853376583e+00 -2.654516862004526079e+00 -2.654516862004526079e+00 -3.097335735258455180e+00 -3.547763742467640924e+00 -3.680081249200994442e+00 -3.887144918039245667e+00 -4.157581283099163194e+00 -4.069219641778618168e+00 -4.160662194261045776e+00 -4.184392882933639868e+00 -4.320274593231729021e+00 -4.289167077201600620e+00 -4.306682791309777159e+00 -4.306682791309777159e+00 -4.451626045842792756e+00 -4.351599783594934934e+00 -4.302986066118300812e+00 -4.154519348143048241e+00 -3.826888847444815944e+00 -3.658901928516761881e+00 -3.477305376084401267e+00 -3.522967323877879586e+00 -3.748124462581595484e+00 -4.222576326363888910e+00 -4.773729067453582608e+00 -5.023264576805871684e+00 -5.465831383977828750e+00 -6.035956425159771044e+00 -6.659972977699337271e+00 -6.659972977699337271e+00 -7.197155853238512258e+00 -7.609636843305904286e+00 -7.851530230378600095e+00 -8.031851524793882646e+00 -8.329882679964621062e+00 -8.427478800134659664e+00 -8.367383677601230474e+00 -8.404884675237841662e+00 -8.502480795407880265e+00 -8.619628094543507757e+00 -8.639739656985057081e+00 -8.746655053313373784e+00 -8.890245750212013576e+00 -8.991648293084653076e+00 -8.991648293084653076e+00 -9.131921191908091373e+00 -9.241496778114205668e+00 -9.373428214176810158e+00 -9.387467936536406654e+00 -9.452150543008636774e+00 -9.482374601347514087e+00 -9.603196449335628770e+00 -9.591041290012828568e+00 -9.634504713277072696e+00 -9.678193065637373138e+00 -9.754575751157542385e+00 -9.754575751157542385e+00 -9.857270552250795959e+00 -9.870519233379429380e+00 -9.891929441977117321e+00 -9.863495907757412695e+00 -9.828735765429224003e+00
5.007364873308567610e+00 4.855480637623119655e+00 4.912651274592381156e+00 4.797051293425776741e+00 4.766381941302269887e+00 4.435203100929706821e+00 4.435203100929706821e+00 4.179473664409166567e+00 4.339499984082304529e+00 3.986821521616435327e+00 4.003421135052215973e+00 3.638135126766053773e+00 3.362168485795320905e+00 3.121091921336801800e+00 3.159289087407612939e+00 2.908763981095280116e+00 2.745826470024347543e+00 2.651711501269497617e+00 2.651711501269497617e+00 2.573340755303585858e+00 2.490968344798439205e+00 2.451526514591800598e+00 2.521752345779488813e+00 2.538701261795798469e+00 2.455869446814328061e+00 2.491504206745950079e+00 2.387865546964338836e+00 2.262419968365668499e+00 2.193751727227559289e+00 2.166061119089866871e+00 2.167176107047819045e+00 2.265792603601483712e+00 2.265701704114302828e+00 2.265701704114302828e+00 2.095329133810508893e+00 1.764853928638122182e+00 1.519779245698308801e+00 1.423786456275034640e+00 1.125465387813578300e+00 1.075532870937083274e+00 9.302946875225630574e-01 8.293597184481296125e-01 4.615116934595748788e-01 -1.354108034854114850e-01 -5.135892727191746499e-01 -5.135892727191746499e-01 -4.797956517975709989e-01 -2.216655764849595756e-01 -5.813747801227197032e-01 -5.813747801227197032e-01 -9.530969573019800745e-01 -1.404586698617019014e+00 -1.860391371982982767e+00 -2.042917208656874983e+00 -2.599750318996997489e+00 -2.888489833904123394e+00 -3.391871794221162695e+00 -3.545152939398280800e+00 -3.706438505402860351e+00 -3.907238843702011355e+00 -4.263121125314542681e+00 -4.263121125314542681e+00 -4.270048036002750180e+00 -4.282819002169183875e+00 -4.282819002169183875e+00 -4.291420749354392328e+00 -4.273827482151939527e+00 -4.430500836606500847e+00 -4.430480324864659813e+00 -4.302657708373282652e+00 -4.281048551255653756e+00 -4.038604044102552137e+00 -3.859845240868059246e+00 -3.719951177585217650e+00 -3.449772355281397029e+00 -3.620912318024254617e+00 -3.620912318024254617e+00 -4.081664632749163246e+00 -4.561493153884476293e+00 -5.023264576805871684e+00 -5.210272456389478002e+00 -5.796994976295483326e+00 -6.219945144696883865e+00 -6.835312855342168703e+00 -7.009998325909919004e+00 -7.299413366866390973e+00 -7.773848097097309839e+00 -8.144822502655637564e+00 -8.144822502655637564e+00 -8.269787557431190095e+00 -8.307288555067801283e+00 -8.404884675237841662e+00 -8.344789552704410696e+00 -8.456002535930094766e+00 -8.639739656985057081e+00 -8.746513761231167194e+00 -8.764295458429304020e+00 -8.894672369320174354e+00 -9.018424814996063077e+00 -9.038458153657817462e+00 -9.170039503188395003e+00 -9.297540389701655528e+00 -9.388945836609181583e+00 -9.388945836609181583e+00 -9.439901768163149853e+00 -9.566079026736943547e+00 -9.591041290012828568e+00 -9.607708329473034325e+00 -9.668668829345101301e+00 -9.692915336962224515e+00 -9.725521110241732714e+00 -9.771646284256597426e+00 -9.855368538620476571e+00 -9.803486945675444986e+00 -9.825702646013379393e+00 -9.825702646013379393e+00
5.000695119168655722e+00 4.867622415762360433e+00 4.912651274592381156e+00 4.831920185880467677e+00 4.896370958966676845e+00 4.729626963348920299e+00 4.397632686801939528e+00 4.308382599108425914e+00 4.281589719741081268e+00 4.289970350144089117e+00 3.997999745788815229e+00 3.997999745788815229e+00 3.633495126811903120e+00 3.348864518370462839e+00 3.159289087407612939e+00 3.113457795684055895e+00 2.923793199354847161e+00 2.814141226222794057e+00 2.701664483771905267e+00 2.714371030258160733e+00 2.603244945726062465e+00 2.536467641220445657e+00 2.591050628462684635e+00 2.626310141889214300e+00 2.601907633116510521e+00 2.497750596488830244e+00 2.371400011281513454e+00 2.371400011281513454e+00 2.241521568702212530e+00 2.183443863736433954e+00 2.222052932828677552e+00 2.292196483140573449e+00 2.336152879999603638e+00 2.288902191364812211e+00 1.996217183949709595e+00 1.967239175649278859e+00 1.694867651794973229e+00 1.349689940795212095e+00 1.347222474568750217e+00 1.224618890881691735e+00 1.067253346232052591e+00 6.629509000447797451e-01 6.629509000447797451e-01 2.003105736207412557e-02 -5.276777667527633442e-01 -5.471431269151884047e-01 -5.323998496508137723e-01 -3.199713455307760523e-01 -3.433164230774369829e-01 -6.824687636287070092e-01 -8.928620121286916511e-01 -1.067961414350904414e+00 -1.680354127887045079e+00 -2.226599353181955898e+00 -2.226599353181955898e+00 -2.802670868190593634e+00 -3.275286078714835902e+00 -3.545152939398280800e+00 -3.563000748053596123e+00 -3.697243446042234094e+00 -3.966009306577300997e+00 -4.317474050833093102e+00 -4.347589312772497827e+00 -4.291653857791177806e+00 -4.373564104085692961e+00 -4.319360097873448545e+00 -4.319360097873448545e+00 -4.367794438911669630e+00 -4.329331725162042233e+00 -4.302657708373282652e+00 -4.225006692128080665e+00 -4.002356637324719912e+00 -3.859845240868059246e+00 -3.512485243762772491e+00 -3.396485199615954187e+00 -3.427237636750191108e+00 -3.812916506302376440e+00 -3.907331856285411131e+00 -4.210921122387947690e+00 -4.786185180436245190e+00 -5.327897403059032477e+00 -5.327897403059032477e+00 -6.020022355241038348e+00 -6.582918853173846507e+00 -7.009998325909919004e+00 -7.083630887144764188e+00 -7.491693618139700028e+00 -7.867329352066698256e+00 -8.069101211201651580e+00 -8.000559965637995319e+00 -8.209692434897762681e+00 -8.247193432534372093e+00 -8.289594555651234487e+00 -8.289594555651234487e+00 -8.456946267691645147e+00 -8.617295816001607989e+00 -8.764295458429304020e+00 -8.774712393178885961e+00 -8.909201235114293738e+00 -9.038458153657817462e+00 -9.157525883570771796e+00 -9.219177023518703606e+00 -9.306628403179983522e+00 -9.404996457415137456e+00 -9.468680677300136850e+00 -9.468680677300136850e+00 -9.549308469911634845e+00 -9.603869152079045790e+00 -9.668668829345101301e+00 -9.661505102556443347e+00 -9.671799055454718186e+00 -9.771646284256597426e+00 -9.759321682209167292e+00 -9.715044449373772650e+00 -9.764116945748211762e+00 -9.789791093242989461e+00
4.950455580361218466e+00 4.927369405801303337e+00 4.925142987945847040e+00 4.894481942455398027e+00 4.803258635254755049e+00 4.803258635254755049e+00 4.564028800860708834e+00 4.498787531764569358e+00 4.508251137994749413e+00 4.500876185240434424e+00 4.163255942464438419e+00 3.881087735703323105e+00 3.624151069557962845e+00 3.495657843552471000e+00 3.307321264227090829e+00 3.079257015597786307e+00 3.101397382432869776e+00 2.949807513669499670e+00 2.864346644682986387e+00 2.724400731210017135e+00 2.724400731210017135e+00 2.661849190675542598e+00 2.657859121994012863e+00 2.626310141889214300e+00 2.633673761678852365e+00 2.556136293238343349e+00 2.485058647694314171e+00 2.359878678058238588e+00 2.371040458758011837e+00 2.276333877866119515e+00 2.279513566268509983e+00 2.325172212874364153e+00 2.325172212874364153e+00 2.313433024741545108e+00 2.193895005957164024e+00 1.967239175649278859e+00 1.906945109516521075e+00 1.545700972582267907e+00 1.347222474568750217e+00 1.226483732544892735e+00 1.083319765563107495e+00 9.041557692163053606e-01 5.189641398718036758e-01 -1.016673086906307866e-01 -1.016673086906307866e-01 -6.329515118229783743e-01 -5.119176837394096014e-01 -3.199713455307760523e-01 -3.219502142426121094e-01 -5.817251213845198166e-01 -8.928620121286916511e-01 -9.809754280017932704e-01 -1.457985342479709123e+00 -1.848518085134283950e+00 -2.359197666799572435e+00 -2.501629910673394797e+00 -2.905039680188193252e+00 -3.288783797465379077e+00 -3.518082726983268849e+00 -3.518082726983268849e+00 -3.829179273570764153e+00 -4.192677495838625035e+00 -4.347589312772497827e+00 -4.335696806612991061e+00 -4.462585965811497246e+00 -4.389752593297368222e+00 -4.324432174293801445e+00 -4.401763530551189518e+00 -4.415699716436173539e+00 -4.256619553617640328e+00 -4.094124444175449185e+00 -4.094124444175449185e+00 -3.806037255375396278e+00 -3.492131323121419939e+00 -3.396485199615954187e+00 -3.324253703105699120e+00 -3.634745331658416845e+00 -3.907331856285411131e+00 -4.356335716530499447e+00 -4.553979442686450163e+00 -5.002011826424525687e+00 -5.603015567463902613e+00 -6.175779098577184101e+00 -6.175779098577184101e+00 -6.722303186603296510e+00 -7.176741807189779720e+00 -7.176741807189779720e+00 -7.564598250296552528e+00 -7.800684529702873959e+00 -8.000559965637995319e+00 -7.947799567348040384e+00 -8.089502189830902523e+00 -8.187098310000942902e+00 -8.292376977316679998e+00 -8.293320709078232156e+00 -8.490193662315434153e+00 -8.639909545388890777e+00 -8.773201133321114398e+00 -8.773201133321114398e+00 -8.938753588362924773e+00 -9.073554989027337925e+00 -9.219177023518703606e+00 -9.233418798119673809e+00 -9.356034152078036570e+00 -9.397428934978783843e+00 -9.528961604138258323e+00 -9.507575649810439344e+00 -9.573035528347716649e+00 -9.649328498371653851e+00 -9.683802868215316551e+00 -9.683802868215316551e+00 -9.686022016262400669e+00 -9.665643183450431053e+00 -9.715044449373772650e+00 -9.661359464125020224e+00 -9.699594320102548295e+00
5.026718068781038440e+00 4.927369405801303337e+00 4.930230931088070534e+00 4.947564537586222499e+00 4.933976226713542523e+00 4.692335405157156636e+00 4.714035064695645261e+00 4.608746364998643763e+00 4.704261424751077669e+00 4.495048599001296274e+00 4.495048599001296274e+00 4.075648253352942341e+00 3.811757497815995155e+00 3.495657843552471000e+00 3.421414466806657728e+00 3.230177461797147043e+00 3.101397382432869776e+00 2.988275887242275886e+00 3.028199948766042482e+00 2.875425880820744240e+00 2.754999626539829549e+00 2.694730486271531777e+00 2.694730486271531777e+00 2.679340739989553022e+00 2.632828636362537278e+00 2.632828636362537278e+00 2.538325911432250059e+00 2.468241396351062988e+00 2.371040458758011837e+00 2.413074387704816193e+00 2.348819547345432301e+00 2.313243339493549655e+00 2.326799847626961348e+00 2.339627582851058207e+00 2.340628778008382316e+00 2.149381304177375718e+00 1.833480007958432356e+00 1.833480007958432356e+00 1.498124394616628052e+00 1.234447654947432138e+00 1.083319765563107495e+00 9.428368594422784632e-01 6.801038843683862023e-01 3.386480350686918994e-01 -2.458078949278286740e-01 -5.000191099330187905e-01 -6.936794937881807233e-01 -4.869802125847735863e-01 -4.030546070849704288e-01 -4.030546070849704288e-01 -6.976593559948740531e-01 -1.117674617457676378e+00 -1.457985342479709123e+00 -1.587367212995733468e+00 -2.086284557321785194e+00 -2.501629910673394797e+00 -2.979541625533661975e+00 -3.036645743814735177e+00 -3.323591334912210815e+00 -3.559989020555180517e+00 -3.933265647381433805e+00 -3.933265647381433805e+00 -4.305948571556262650e+00 -4.396819613204997701e+00 -4.396819613204997701e+00 -4.494022140984138325e+00 -4.461051714280021230e+00 -4.401763530551189518e+00 -4.398522805842552508e+00 -4.196852367668300943e+00 -4.159669064716862152e+00 -3.920510237263901132e+00 -3.721073652589032221e+00 -3.626984330618991059e+00 -3.317849269543130308e+00 -3.392225371237078679e+00 -3.392225371237078679e+00 -3.731755842124175881e+00 -4.151178279176523489e+00 -4.553979442686450163e+00 -4.791404542461532579e+00 -5.387190128593389638e+00 -5.838387357818346501e+00 -6.339937652621810749e+00 -6.468452050303105771e+00 -6.869221067083675969e+00 -7.221473887682259729e+00 -7.568101933227410427e+00 -7.568101933227410427e+00 -7.747838525077982652e+00 -7.891169645530101029e+00 -8.029407067297473333e+00 -8.029407067297473333e+00 -8.128751418703265230e+00 -8.294264440839784314e+00 -8.478631944575175439e+00 -8.509771195278601041e+00 -8.663977553439343282e+00 -8.799977655232524398e+00 -8.836303666214599062e+00 -8.989584094483904053e+00 -9.135849146469654514e+00 -9.278109134179938877e+00 -9.307071846740935683e+00 -9.354956101794417833e+00 -9.491844181539574876e+00 -9.538362727222400750e+00 -9.538362727222400750e+00 -9.568669940922958972e+00 -9.641557412747189915e+00 -9.618077000667703658e+00 -9.600397748268203912e+00 -9.556877695836536901e+00 -9.626601953072102091e+00 -9.643184209282971153e+00 -9.612387527788353481e+00
5.060213655764459695e+00 4.992400835114124469e+00 4.967089859832925391e+00 4.967089859832925391e+00 4.989150410535963864e+00 4.775870920639498252e+00 4.714035064695645261e+00 4.810894227944437773e+00 4.911530698851078292e+00 4.716787731533824690e+00 4.346245773170907434e+00 4.274653630284209527e+00 4.009250979769428014e+00 3.639488457553747836e+00 3.375880803050362644e+00 3.375880803050362644e+00 3.266356128018666372e+00 3.162410548261757270e+00 3.028199948766042482e+00 3.040605804984084060e+00 2.910691690636578510e+00 2.789550299475998418e+00 2.722783509917984013e+00 2.732567083441800548e+00 2.665439890241192877e+00 2.614521989987856454e+00 2.542549351283692971e+00 2.542549351283692971e+00 2.501781421288961749e+00 2.448114430735488067e+00 2.348819547345432301e+00 2.352024831171600550e+00 2.317446815254319059e+00 2.339627582851058207e+00 2.333380166210766493e+00 2.321620735978607186e+00 2.121259043334597028e+00 1.705795183292873940e+00 1.619569030145658450e+00 1.392163935581163692e+00 1.088304472382751076e+00 8.822927271035325703e-01 8.822927271035325703e-01 6.572650127753090210e-01 7.988348713768725351e-02 -5.000191099330187905e-01 -7.467889650893927422e-01 -7.169399466974271107e-01 -4.058474892934261224e-01 -5.043944318431081708e-01 -5.519490387849804724e-01 -8.172096629300317217e-01 -1.251185268277343443e+00 -1.687648125683522515e+00 -1.687648125683522515e+00 -2.193252071468636544e+00 -2.658433738492400167e+00 -3.036645743814735177e+00 -3.062224450071521886e+00 -3.418136915064954984e+00 -3.806676750901928585e+00 -4.092077567690469486e+00 -4.261592199959530092e+00 -4.476082155231497772e+00 -4.562286570126383722e+00 -4.523684831036516307e+00 -4.538500907764071890e+00 -4.435732622190709407e+00 -4.261303085100783150e+00 -4.101524356810000604e+00 -4.101524356810000604e+00 -3.835546634477537076e+00 -3.521637067914163310e+00 -3.521637067914163310e+00 -3.246316701666393634e+00 -3.272378914761788327e+00 -3.460459627964652007e+00 -3.591307117171397500e+00 -3.950741425029375975e+00 -4.358196050896925300e+00 -4.934621468010760736e+00 -5.149612934889457705e+00 -5.614485525712579417e+00 -6.105833627819609255e+00 -6.639673105067316783e+00 -6.639673105067316783e+00 -6.981848198707668374e+00 -7.263398103983521814e+00 -7.546604482319812846e+00 -7.467608260264738007e+00 -7.589921445040952008e+00 -7.832001943512298503e+00 -7.969311944764044142e+00 -7.940689578463181242e+00 -8.129695150464817388e+00 -8.326427314265252733e+00 -8.502024525208790706e+00 -8.502024525208790706e+00 -8.727395226937193939e+00 -8.913198833261214205e+00 -8.989584094483904053e+00 -9.052521269420607197e+00 -9.212583069818160553e+00 -9.307071846740935683e+00 -9.424458534145877309e+00 -9.454726758940891429e+00 -9.471296186335083078e+00 -9.536765644709563006e+00 -9.572824939109155551e+00 -9.572824939109155551e+00 -9.565958395082091670e+00 -9.567542202370063364e+00 -9.567542202370063364e+00 -9.538159456770429756e+00 -9.526630773933735696e+00 -9.612387527788353481e+00
5.077131989366515441e+00 5.042673782265593374e+00 4.954790861508353572e+00 4.987901132211193023e+00 4.911248009701647099e+00 4.911248009701647099e+00 4.843529807040349411e+00 5.009994944219622326e+00 4.911530698851078292e+00 4.925041364188233572e+00 4.534208029108099502e+00 4.274653630284209527e+00 4.206200642833403336e+00 3.783319071555024671e+00 3.535507669386225515e+00 3.381097907996507779e+00 3.448437175330076876e+00 3.302889274313777435e+00 3.193244675323597015e+00 3.046477063941336993e+00 3.046477063941336993e+00 2.925913588592198522e+00 2.785131099955470368e+00 2.732567083441800548e+00 2.714798428243418105e+00 2.670299809910423594e+00 2.590789186107430364e+00 2.567068287259069326e+00 2.608014515005797840e+00 2.563533617361847927e+00 2.445719020476247341e+00 2.313182036079024950e+00 2.345483439871111742e+00 2.365822140960570863e+00 2.425759735822021756e+00 2.289748804658841674e+00 2.289748804658841674e+00 1.893176294557832318e+00 1.544994796937984471e+00 1.274678166402680501e+00 1.206086662086995887e+00 9.818199439708581444e-01 8.208666608472495740e-01 4.866140012666753112e-01 3.052713830943414308e-01 -2.446906196225371311e-01 -6.662397170059437546e-01 -4.314212778148351912e-01 -4.314212778148351912e-01 -4.652782312948344767e-01 -6.814346306641034801e-01 -6.814346306641034801e-01 -1.013537962615803867e+00 -1.617053545489462119e+00 -1.801044994512909447e+00 -1.895429944575948156e+00 -2.347881969079033571e+00 -2.737667169538746670e+00 -3.183187961154981593e+00 -3.188522975818761651e+00 -3.517075072973157024e+00 -4.009537771153424579e+00 -4.450375926986626318e+00 -4.450375926986626318e+00 -4.615322444445053129e+00 -4.616102309035523099e+00 -4.538500907764071890e+00 -4.491499938901004185e+00 -4.260985673618721492e+00 -4.159279518887927019e+00 -3.918724791510167726e+00 -3.796205498320652350e+00 -3.636110049802668165e+00 -3.335341409218200326e+00 -3.163874045096306098e+00 -3.163874045096306098e+00 -3.334230837666829927e+00 -3.725439272576217320e+00 -3.950741425029375975e+00 -4.205049458375576421e+00 -4.806137303192928201e+00 -5.149612934889457705e+00 -5.744687745570201010e+00 -5.872035015821129633e+00 -6.229122320483523545e+00 -6.719822222812952717e+00 -6.733992507789452020e+00 -7.007252236029637871e+00 -7.282747399972643088e+00 -7.463489092154829585e+00 -7.463489092154829585e+00 -7.609841025183357921e+00 -7.785768887987926767e+00 -7.940689578463181242e+00 -8.022456648253713851e+00 -8.173981705079039983e+00 -8.287214609448243507e+00 -8.508377087352874568e+00 -8.534161302944180960e+00 -8.734633018089333234e+00 -8.887915860894137765e+00 -9.065122717023461618e+00 -9.065122717023461618e+00 -9.198426050567780621e+00 -9.343055345670284950e+00 -9.454726758940891429e+00 -9.388231472284248369e+00 -9.450487211414678512e+00 -9.529052567916165728e+00 -9.508835188882786227e+00 -9.423655714180277698e+00 -9.495835835477839382e+00 -9.460729193465894582e+00 -9.509773165103034387e+00 -9.509773165103034387e+00 -9.539967705500426831e+00
5.100407089097695135e+00 4.994576275802597110e+00 4.994576275802597110e+00 5.007767838523344395e+00 4.922824855603481708e+00 4.842090777465308804e+00 4.878478366939045685e+00 5.023350615091944249e+00 5.045180056509132704e+00 4.817700240248721677e+00 4.679050275793377622e+00 4.458459015839506989e+00 4.186905592046321622e+00 3.800537579988289227e+00 3.800537579988289227e+00 3.648868898893322665e+00 3.574922347791262833e+00 3.354285280370836730e+00 3.414683060687447647e+00 3.254494272964433499e+00 3.086668873781653666e+00 2.935924768187326173e+00 2.951441518100595296e+00 2.836503297124046252e+00 2.747701131727037449e+00 2.780319089302759394e+00 2.656957454873409397e+00 2.634066487428332159e+00 2.632926919836056978e+00 2.632926919836056978e+00 2.542644491877255497e+00 2.422174399600015793e+00 2.345483439871111742e+00 2.430592682282216810e+00 2.444079263346138564e+00 2.411700002938096166e+00 2.146078784193029332e+00 2.032764152304980421e+00 1.812191103289910732e+00 1.457773303512290397e+00 1.167995458218580307e+00 1.167995458218580307e+00 9.138700504274663849e-01 6.178815381608901980e-01 3.052713830943414308e-01 7.866419405911048712e-02 -3.301370889901229511e-01 -3.807791834024790156e-01 -5.413509797087131536e-01 -5.607190507815353886e-01 -5.111455530727171404e-01 -7.632336106636347095e-01 -1.161405240129964600e+00 -1.161405240129964600e+00 -1.549267448377863232e+00 -2.014611919395042694e+00 -2.347881969079033571e+00 -2.388096482427215062e+00 -2.753664677374998426e+00 -3.188522975818761651e+00 -3.216024194032250261e+00 -3.845667494793130636e+00 -4.166658677525723498e+00 -4.470639390500083188e+00 -4.572990094505252401e+00 -4.617784446917030827e+00 -4.601732547228307268e+00 -4.462906874333678608e+00 -4.462906874333678608e+00 -4.188281530018350018e+00 -3.878340856921207891e+00 -3.796205498320652350e+00 -3.565686421545221751e+00 -3.228263175420174047e+00 -3.192026521523772420e+00 -3.132080150499548132e+00 -3.214397180275034849e+00 -3.430964948250990076e+00 -3.821661397448658626e+00 -4.390507036239130301e+00 -4.390507036239130301e+00 -4.915859237590225916e+00 -5.509556088870734669e+00 -5.872035015821129633e+00 -6.019410024981581842e+00 -6.473146997760473198e+00 -6.733992507789452020e+00 -7.036079724944464431e+00 -7.086375368527979113e+00 -7.288076935637748832e+00 -7.479990698962057039e+00 -7.666242380225929409e+00 -7.666242380225929409e+00 -7.859323786902863596e+00 -8.066862980757711910e+00 -8.173981705079039983e+00 -8.171630870582042405e+00 -8.333689587799028686e+00 -8.534161302944180960e+00 -8.559945518535485576e+00 -8.737994124397056694e+00 -8.883632472197135144e+00 -9.041879802810427691e+00 -9.022226775611143168e+00 -9.144008255834759069e+00 -9.293929275178234306e+00 -9.336223581235065794e+00 -9.336223581235065794e+00 -9.381156371085497270e+00 -9.386019177192565621e+00 -9.423655714180277698e+00 -9.363483357586877887e+00 -9.369036836062365481e+00 -9.442504933383187193e+00 -9.450477578355231500e+00 -9.500931366768808672e+00
5.132253832478964384e+00 5.089618162919721911e+00 4.976053852738093752e+00 4.955490421105578136e+00 5.051034537398553681e+00 4.875640824481599189e+00 4.948381973595269656e+00 4.948381973595269656e+00 4.993529158140836088e+00 4.830032387756659773e+00 4.679050275793377622e+00 4.659966974591968736e+00 4.400863689491673725e+00 4.095562240233041607e+00 3.950858680843365889e+00 4.028554931783077997e+00 3.816291364123413743e+00 3.596847358326358712e+00 3.473681754837663949e+00 3.473681754837663949e+00 3.294018177543760473e+00 3.121580037663235441e+00 2.951441518100595296e+00 3.001948834516633191e+00 2.875392851206045819e+00 2.780319089302759394e+00 2.662150051117503136e+00 2.682373227047213593e+00 2.677856496610448112e+00 2.634873593147397219e+00 2.526184228314059865e+00 2.526184228314059865e+00 2.429934310873892667e+00 2.472093686939784263e+00 2.444079263346138564e+00 2.442705677808153730e+00 2.224102206102683610e+00 2.032764152304980421e+00 2.003286287127201692e+00 1.651518045641043209e+00 1.393329445754975637e+00 1.109372194489014252e+00 1.009859740392552219e+00 8.328162991453259556e-01 5.037933614299391349e-01 -6.287590681931856662e-02 -6.287590681931856662e-02 -6.216672562815825365e-02 -5.393663950195140000e-01 -5.607190507815353886e-01 -5.482626003519672775e-01 -6.477826318521289206e-01 -8.340543751725761901e-01 -1.230413499048563342e+00 -1.319950494765628646e+00 -1.671508157283472240e+00 -2.015988601731619312e+00 -2.387017938181011267e+00 -2.387017938181011267e+00 -2.735148797968881773e+00 -3.414889942208522378e+00 -3.845667494793130636e+00 -4.024009381058520241e+00 -4.389715971251305859e+00 -4.572990094505252401e+00 -4.659399292963352757e+00 -4.658785560054742092e+00 -4.626742992892775241e+00 -4.347884756236575221e+00 -4.046425551442604629e+00 -4.046425551442604629e+00 -3.771396934414233293e+00 -3.344904908456296511e+00 -3.344904908456296511e+00 -3.051569996829632814e+00 -2.989852816686397130e+00 -3.214397180275034849e+00 -3.313616431282817132e+00 -3.722245143673251988e+00 -4.034807203315494917e+00 -4.587974478019400060e+00 -4.683071387061637836e+00 -5.098537556847135832e+00 -5.653271481258918207e+00 -6.148563199218570752e+00 -6.148563199218570752e+00 -6.490393693695756028e+00 -6.825957895831459510e+00 -7.086375368527979113e+00 -7.124916967545240176e+00 -7.351505451569414262e+00 -7.477913071168499570e+00 -7.696176249200298081e+00 -7.769745824466951944e+00 -7.940779319647723433e+00 -8.063635795766659342e+00 -8.140709123186089968e+00 -8.140709123186089968e+00 -8.359473803390333302e+00 -8.542384268369755063e+00 -8.714418287233758775e+00 -8.714418287233758775e+00 -8.862093878729742968e+00 -8.971352849064368584e+00 -9.164320162279981474e+00 -9.110229539305285229e+00 -9.154040108964856870e+00 -9.291734706078651485e+00 -9.209410041645046618e+00 -9.263203165502343239e+00 -9.300839702490055316e+00 -9.334674323659918116e+00 -9.277344478658836380e+00 -9.350792402883953969e+00 -9.400376297202386766e+00 -9.519551710925577837e+00
5.132253832478964384e+00 5.151864838590436868e+00 4.989084279279513368e+00 4.955490421105578136e+00 4.937385195166379859e+00 4.909190871497889574e+00 4.905909357511457181e+00 4.989841752582631074e+00 4.900364596929797756e+00 4.900364596929797756e+00 4.791367639553778979e+00 4.633395649672079841e+00 4.633395649672079841e+00 4.396567691579336135e+00 4.395021055630410345e+00 4.028554931783077997e+00 4.185720759891595755e+00 3.955074861165981837e+00 3.658130430038928793e+00 3.477998621881407182e+00 3.506527243351387213e+00 3.303949974652250710e+00 3.133181484346595269e+00 3.016281480050766017e+00 3.016281480050766017e+00 2.891438258801057870e+00 2.726908065941244796e+00 2.682373227047213593e+00 2.736628815450793617e+00 2.707227191743773798e+00 2.632268527576540951e+00 2.540923453156223033e+00 2.544535564547500073e+00 2.508256854915692280e+00 2.474976955651520427e+00 2.427919754581421952e+00 2.427919754581421952e+00 2.245425192806684400e+00 1.941335948554890223e+00 1.651518045641043209e+00 1.582705435934117943e+00 1.265830241959395419e+00 1.009859740392552219e+00 7.317772736333946204e-01 6.855341530500527192e-01 4.020190077407579943e-01 5.965539025697935704e-03 9.425159953672393454e-03 -2.526917738297503324e-01 -7.358645085739818903e-01 -5.616482438517802489e-01 -5.616482438517802489e-01 -7.282615095093178947e-01 -9.703146154121062850e-01 -1.319950494765628646e+00 -1.313672673764713528e+00 -1.670626971449498566e+00 -2.034170203301765678e+00 -2.338655389403774265e+00 -2.307460340557971890e+00 -2.925584591592539585e+00 -3.680758838951139644e+00 -4.176649128510110387e+00 -4.176649128510110387e+00 -4.521197919749942784e+00 -4.703707928773537716e+00 -4.658785560054742092e+00 -4.666002083707069481e+00 -4.427235883746806877e+00 -4.032104531524279167e+00 -3.854444044537606473e+00 -3.694101674787317435e+00 -3.225851799166888245e+00 -3.134340231331945503e+00 -2.889314539784878733e+00 -2.763862002255984329e+00 -2.979322731370133592e+00 -3.324726407230917058e+00 -3.896821096694126574e+00 -3.896821096694126574e+00 -4.372322918617568277e+00 -4.853545197454590010e+00 -5.289493678810502253e+00 -5.428929396202239133e+00 -5.899243025212739688e+00 -6.193524603775672155e+00 -6.230795211680815626e+00 -6.569063427226451424e+00 -6.892515100589218235e+00 -7.188004896720987524e+00 -7.222806536774514896e+00 -7.391695417168411275e+00 -7.606500494148185965e+00 -7.812529195329823040e+00 -7.812529195329823040e+00 -7.972747305707929222e+00 -8.025144672073999175e+00 -8.159002088245181028e+00 -8.184786303836485644e+00 -8.365973429180636245e+00 -8.567279308226462220e+00 -8.722063608864754514e+00 -8.679700645378789048e+00 -8.846027500654507492e+00 -8.985154390915655043e+00 -9.050898443796487669e+00 -9.050898443796487669e+00 -9.108424575337286555e+00 -9.152691661719092764e+00 -9.263203165502343239e+00 -9.178023690799832934e+00 -9.217281847220334612e+00 -9.277344478658836380e+00 -9.377227524034230655e+00 -9.335081589910435795e+00 -9.439451703150334438e+00
5.163541963232864518e+00 5.146925808857669260e+00 5.146925808857669260e+00 4.916943832227647526e+00 4.952433443520163792e+00 4.909190871497889574e+00 4.933837098522005249e+00 4.959287649109740848e+00 4.947952302549580850e+00 4.841595756142928586e+00 4.843964080735860378e+00 4.815304579809628116e+00 4.615608413049017145e+00 4.619683936655946788e+00 4.619683936655946788e+00 4.414718646370806354e+00 4.276916798582117707e+00 3.955074861165981837e+00 3.927810852623367044e+00 3.719547471672021821e+00 3.506527243351387213e+00 3.306344971624616935e+00 3.316284702198079692e+00 3.167394371909221018e+00 3.006015888522866941e+00 3.014359978913887517e+00 2.844815927962519808e+00 2.730622361016020960e+00 2.725117342293135625e+00 2.725117342293135625e+00 2.713234586332712528e+00 2.655159149747748693e+00 2.544535564547500073e+00 2.585219969162168230e+00 2.514890620928818876e+00 2.473646221464239847e+00 2.368876532398768830e+00 2.446829124449320325e+00 2.087589823714851356e+00 1.846151269030446462e+00 1.507846815650299988e+00 1.430284588310724025e+00 1.126661944124893289e+00 8.055674344024816858e-01 6.271402640306531495e-01 6.271402640306531495e-01 2.461147153360677409e-01 -1.798787654357243138e-01 -5.166060022074937530e-01 -8.077303414007018789e-01 -9.178555556363130474e-01 -6.769272872588449896e-01 -8.353186918666811733e-01 -9.760404212206496011e-01 -1.032323585181688097e+00 -1.277420663695947312e+00 -1.676770930746941168e+00 -1.676770930746941168e+00 -1.998232201004280340e+00 -2.507312366075788113e+00 -2.507312366075788113e+00 -3.429744030566408419e+00 -3.900080016059657151e+00 -4.307429797497611901e+00 -4.387140525070762465e+00 -4.690508274963015367e+00 -4.712433828347881715e+00 -4.628017095161789385e+00 -4.579492825947861334e+00 -4.316043848642929781e+00 -3.870369063914986363e+00 -3.463738206836519673e+00 -3.463738206836519673e+00 -3.018042883612803262e+00 -2.743874022522390099e+00 -2.763862002255984329e+00 -2.743308918084006898e+00 -3.234776282431440997e+00 -3.475087618640781528e+00 -4.072267397638778874e+00 -4.160261341742526042e+00 -4.473439335453917920e+00 -5.039661326648254835e+00 -5.598434304645246939e+00 -5.598434304645246939e+00 -5.924720561968655375e+00 -6.276630334121215959e+00 -6.569063427226451424e+00 -6.720602515286243417e+00 -7.064855520361084551e+00 -7.222806536774514896e+00 -7.425509347327773568e+00 -7.499273751188314741e+00 -7.695685673215922229e+00 -7.846171162132950627e+00 -7.857624051247210417e+00 -7.941384361660604796e+00 -7.996937333335276676e+00 -8.210570519427792036e+00 -8.210570519427792036e+00 -8.394269022372661482e+00 -8.553797347176193000e+00 -8.679700645378789048e+00 -8.669828225697871815e+00 -8.805587975833150338e+00 -8.927851429144846307e+00 -8.968759372468314339e+00 -8.912263665692151449e+00 -9.044345719536782013e+00 -9.135955107478890724e+00 -9.109336663913833121e+00 -9.109336663913833121e+00 -9.185652121255307279e+00 -9.291505305881749166e+00 -9.335081589910435795e+00 -9.381256115489204461e+00
5.199958755179311609e+00 5.142601962027647744e+00 5.038656337219355130e+00 4.962002966197463394e+00 4.974824782209212870e+00 4.940474377624567204e+00 4.939128739537114399e+00 4.927593777679435405e+00 4.909454407031230261e+00 4.850035209194724750e+00 4.929956943204175879e+00 4.929956943204175879e+00 4.787632441340578637e+00 4.824999413351831024e+00 4.839183430417453913e+00 4.686002445294432661e+00 4.473834113379981936e+00 4.265140289787233030e+00 3.952657979510321162e+00 3.999965216794788780e+00 3.728706608113266707e+00 3.510255714396137261e+00 3.355972318255340259e+00 3.355972318255340259e+00 3.179663290252722874e+00 3.006651426752335432e+00 2.811175785813171402e+00 2.823179223095987567e+00 2.771379329607142061e+00 2.761572255813648624e+00 2.696861657352408237e+00 2.700385018059561215e+00 2.632262704032652501e+00 2.600680123001440691e+00 2.618156270714222522e+00 2.546255282336451042e+00 2.569373043707015025e+00 2.360689763349119730e+00 2.360689763349119730e+00 2.022404527592196022e+00 1.710569221971005582e+00 1.430284588310724025e+00 1.332848550585159497e+00 9.928999819734308785e-01 8.339761166239829659e-01 5.374263893486138643e-01 3.997884652923877069e-01 2.830501944591132246e-02 -4.444175346656637493e-01 -1.218746006904642076e+00 -1.218746006904642076e+00 -1.174801701508108476e+00 -1.073709003414805130e+00 -9.760404212206496011e-01 -1.210766277894911536e+00 -1.543315244002119835e+00 -1.494783189210088903e+00 -1.771748568707550708e+00 -1.927484167160427475e+00 -2.062852808986756603e+00 -2.829012669083959430e+00 -3.389500774408233497e+00 -3.389500774408233497e+00 -3.993581202159536936e+00 -4.438648520180141333e+00 -4.690508274963015367e+00 -4.685540868921430402e+00 -4.689634144704697860e+00 -4.579492825947861334e+00 -4.133776984994905312e+00 -4.023732810595484821e+00 -3.736864047171188030e+00 -3.166071239573295060e+00 -2.868189411930258004e+00 -2.754441571335394912e+00 -2.599730847439037262e+00 -2.831686230642302071e+00 -2.831686230642302071e+00 -3.331615081784691235e+00 -3.862870310903910198e+00 -4.160261341742526042e+00 -4.274079353165541661e+00 -4.793292659114514187e+00 -5.192078076562305355e+00 -5.686780587326643044e+00 -5.816255218420361750e+00 -6.068557083675602648e+00 -6.466741965925791646e+00 -6.866199982574432426e+00 -6.866199982574432426e+00 -7.131961353052638231e+00 -7.359932680532323523e+00 -7.499273751188314741e+00 -7.587984292365738348e+00 -7.763338178262256584e+00 -7.857624051247210417e+00 -7.910021417613279482e+00 -7.878537282896087568e+00 -8.010098804282639762e+00 -8.204299924118867438e+00 -8.377816253417117665e+00 -8.377816253417117665e+00 -8.499624429366489764e+00 -8.626042035523594720e+00 -8.805587975833150338e+00 -8.745473318984407385e+00 -8.796439641967644718e+00 -8.912263665692151449e+00 -8.879281397428517408e+00 -8.983965153242568391e+00 -9.055207679109610552e+00 -9.099675238259695931e+00 -9.099729537783359135e+00 -9.167367341885491072e+00 -9.275624001143688346e+00 -9.395017596688388650e+00
5.117535168253145805e+00 5.117535168253145805e+00 5.044806941324964100e+00 4.933270870865976931e+00 4.947921631625172623e+00 4.953920667553293633e+00 4.935884114564574432e+00 4.927593777679435405e+00 4.872313896469634642e+00 4.857776526116769134e+00 4.882946062280010935e+00 4.945432795492061828e+00 4.872760007904203050e+00 4.784494317168697108e+00 4.936504695358881811e+00 4.618843283471001371e+00 4.618843283471001371e+00 4.399677985112973921e+00 4.196853653771849935e+00 3.999965216794788780e+00 4.004125981736485151e+00 3.738714244997688230e+00 3.539403608179661376e+00 3.384185181857377600e+00 3.382052374395351890e+00 3.198126306418719089e+00 2.981664457291918868e+00 2.856816901874682291e+00 2.856816901874682291e+00 2.783194285032882576e+00 2.722079909722386226e+00 2.700385018059561215e+00 2.687220717109480628e+00 2.683438699824015394e+00 2.618156270714222522e+00 2.575972858430031209e+00 2.641551811049072995e+00 2.531105257577910717e+00 2.289559150649739916e+00 1.970190372659337275e+00 1.970190372659337275e+00 1.615858850572261973e+00 1.254519529213980800e+00 9.928999819734308785e-01 9.458550765325581811e-01 7.244616489107141843e-01 3.997884652923877069e-01 2.056820104666086668e-01 -3.077393133007556014e-01 -6.850708782121668339e-01 -1.369311458683366567e+00 -1.671125683255317629e+00 -1.226608989273460626e+00 -1.336428665045079178e+00 -1.535579841208179586e+00 -1.535579841208179586e+00 -1.711777096295248102e+00 -1.857686074851762292e+00 -1.927484167160427475e+00 -2.029388591748972459e+00 -2.459327392149146974e+00 -2.900460403998240899e+00 -3.436488741046931139e+00 -3.577504713834586347e+00 -4.079295176606362539e+00 -4.584542156371655963e+00 -4.722376122575636437e+00 -4.722376122575636437e+00 -4.716871358366358180e+00 -4.307179994208268248e+00 -4.023732810595484821e+00 -3.853973247239435018e+00 -3.132866196722282837e+00 -2.868189411930258004e+00 -2.553279098772351041e+00 -2.414271885105382154e+00 -2.588036221653724045e+00 -3.069141896724202567e+00 -3.519767738097012266e+00 -3.519767738097012266e+00 -3.951796772514159173e+00 -4.414569213845304319e+00 -4.414569213845304319e+00 -4.971671290134686672e+00 -5.520125472306007808e+00 -5.816255218420361750e+00 -5.976078240921769869e+00 -6.407757810321518477e+00 -6.640627614439334359e+00 -6.977043547085607145e+00 -7.047746037121107143e+00 -7.210022751275227293e+00 -7.435165644578851207e+00 -7.643114713365307011e+00 -7.643114713365307011e+00 -7.742500796786490724e+00 -7.794898163152560677e+00 -7.878537282896087568e+00 -7.853415341024216900e+00 -8.051656797545611255e+00 -8.221258736518860744e+00 -8.374723484348550073e+00 -8.320526013748423821e+00 -8.493179462903546195e+00 -8.626021560750643857e+00 -8.718738279186872830e+00 -8.718738279186872830e+00 -8.743303715669911824e+00 -8.851810652831993309e+00 -8.983965153242568391e+00 -8.932391667419389947e+00 -8.982068629299055473e+00 -9.075654811386259624e+00 -9.205783087729267677e+00 -9.235928865239101171e+00 -9.368925552655241518e+00
5.229027953433771359e+00 5.069621926717516658e+00 4.958109106289167123e+00 4.956504849483562403e+00 4.925145399588679140e+00 4.939372033739433121e+00 4.939372033739433121e+00 4.894713843748085935e+00 4.876801779527005110e+00 4.857776526116769134e+00 4.905936342195584388e+00 4.988647188693065004e+00 4.872760007904203050e+00 4.855556749529044147e+00 4.936789017571305394e+00 4.820543036795212011e+00 4.495976246233826856e+00 4.305245906001511358e+00 4.305245906001511358e+00 4.271322276124494444e+00 3.981395153721037694e+00 3.981395153721037694e+00 3.767602530917540715e+00 3.587499770328238302e+00 3.382052374395351890e+00 3.381265744495395964e+00 3.159102021641590152e+00 2.963834850910516128e+00 2.813540749381576056e+00 2.798138854760289895e+00 2.740780247373507894e+00 2.740007254149357863e+00 2.696392472043532607e+00 2.696392472043532607e+00 2.721787415250306985e+00 2.670533871212718680e+00 2.641551811049072995e+00 2.615381390706501552e+00 2.471444695675065528e+00 2.215834106562237338e+00 1.903840439099408588e+00 1.783823428298997094e+00 1.545586464729893361e+00 1.136733302460422257e+00 9.307988053649047799e-01 9.307988053649047799e-01 5.771654563130850235e-01 8.598888159697480604e-02 -3.077393133007556014e-01 -5.288073896036582511e-01 -1.211391488087287360e+00 -1.671125683255317629e+00 -1.546072011321268702e+00 -1.696816908869508200e+00 -1.462088022435991341e+00 -1.793614603059356494e+00 -1.827604317606485340e+00 -1.827604317606485340e+00 -1.997805818427461411e+00 -2.195723686917521178e+00 -2.195723686917521178e+00 -2.390419075745023214e+00 -2.914667945478341515e+00 -3.577504713834586347e+00 -3.763129372591270894e+00 -4.417642119064746353e+00 -4.643212911717730762e+00 -4.732138122439929262e+00 -4.776709389881328427e+00 -4.590119133188756528e+00 -4.177096557275984168e+00 -3.564279755197219401e+00 -3.564279755197219401e+00 -2.737018895011683384e+00 -2.374010218296529917e+00 -2.414271885105382154e+00 -2.429688593354940362e+00 -2.899545859701322392e+00 -3.188571820257474876e+00 -3.652275782824979000e+00 -3.749886395825886787e+00 -4.219919544235886555e+00 -4.602322365767361312e+00 -5.157429314436608792e+00 -5.356160480327569751e+00 -5.706616325227141573e+00 -6.172358908870647198e+00 -6.556407035797287008e+00 -6.556407035797287008e+00 -6.883541539606732762e+00 -7.145186404778113065e+00 -7.308835874011564648e+00 -7.402128518359222475e+00 -7.517782371109947626e+00 -7.649174012210928630e+00 -7.561693034719432660e+00 -7.619664295379189767e+00 -7.763535219105235363e+00 -7.862299418994963318e+00 -7.900650730547527090e+00 -8.048248450665060005e+00 -8.192367755642285587e+00 -8.315919121667871394e+00 -8.315919121667871394e+00 -8.444288818932086826e+00 -8.552658196882065411e+00 -8.624119911466976873e+00 -8.574856266094041501e+00 -8.688856594941517741e+00 -8.812629428713933066e+00 -8.857529753115027660e+00 -8.867500624740184634e+00 -9.008757657185480383e+00 -9.120060869576786189e+00 -9.269086460187795140e+00 -9.269086460187795140e+00
5.265707533648157579e+00 4.982663355360624990e+00 4.958109106289167123e+00 4.935324383910607793e+00 4.893901287345680196e+00 4.959707318982123248e+00 4.935719603175341419e+00 4.831702373727647881e+00 4.872461845283338810e+00 4.865517843038814405e+00 4.979842237957302409e+00 4.979842237957302409e+00 4.948386897595499434e+00 4.903884753561255749e+00 4.936789017571305394e+00 4.922697861203769065e+00 4.566719061626944409e+00 4.487908082233252216e+00 4.417134686654355491e+00 4.426271838572931827e+00 4.282509467604111109e+00 3.990819076950745448e+00 3.761691031794078821e+00 3.761691031794078821e+00 3.588195658985410041e+00 3.372031128893285157e+00 3.159102021641590152e+00 3.136994312313451161e+00 2.894687236457004431e+00 2.798138854760289895e+00 2.747298162092364215e+00 2.759468164294547332e+00 2.725279590567220467e+00 2.765136871338580882e+00 2.790868183295072136e+00 2.757141659469171113e+00 2.708711696482541509e+00 2.608666819340930143e+00 2.608666819340930143e+00 2.399876612311091950e+00 2.090803237106924062e+00 1.783823428298997094e+00 1.708349690332859883e+00 1.302205958014796217e+00 1.053254181252289312e+00 9.147458734204453323e-01 8.200723846897943758e-01 4.798453395918393372e-01 -1.352589471611015115e-01 -8.142439587409804336e-01 -1.134178337366329004e+00 -1.469952748862359604e+00 -1.829986026772099317e+00 -1.693748161588346290e+00 -1.693748161588346290e+00 -1.984004322996060665e+00 -1.953988217895820778e+00 -1.969276653001124977e+00 -1.961676567193211485e+00 -1.974561056682196503e+00 -2.078193925560230859e+00 -2.200756431517177258e+00 -2.416026052375740640e+00 -3.149313309162115715e+00 -3.994792247844489275e+00 -4.596300557792032393e+00 -4.596300557792032393e+00 -4.765418096099266698e+00 -4.710550830081187357e+00 -4.710550830081187357e+00 -4.330567952851445135e+00 -3.649406114793360079e+00 -3.099661153871269725e+00 -2.698506065950513122e+00 -2.266644653933537867e+00 -2.235132281062015558e+00 -2.554031863747897368e+00 -2.757017150147468065e+00 -3.040335665980270718e+00 -3.495086645999244013e+00 -3.901372501666437120e+00 -3.901372501666437120e+00 -4.403647560850241227e+00 -4.939715544023266958e+00 -5.356160480327569751e+00 -5.539404259598248892e+00 -6.025217773447669067e+00 -6.320033313247622075e+00 -6.693326307151700405e+00 -6.712714436104930016e+00 -6.947313942601365255e+00 -7.193169436817098195e+00 -7.385048683140825077e+00 -7.385048683140825077e+00 -7.410883618412894336e+00 -7.517245817015441922e+00 -7.619664295379189767e+00 -7.594186158751144333e+00 -7.749203387207341365e+00 -7.900650730547527090e+00 -8.066701873930441025e+00 -8.084926229021080601e+00 -8.191373017872580320e+00 -8.308066238233475787e+00 -8.439763152271321900e+00 -8.439763152271321900e+00 -8.504326612120662432e+00 -8.604012146072278711e+00 -8.604012146072278711e+00 -8.723218808436472571e+00 -8.795273955120665121e+00 -8.867500624740184634e+00 -8.963236355708948722e+00 -9.038715299431441252e+00 -9.196974271698682202e+00 -9.347150293195101156e+00
5.085176666786240141e+00 5.085176666786240141e+00 4.902743767261462438e+00 4.849569403145832069e+00 4.893901287345680196e+00 4.843650831399330059e+00 4.760812054526898152e+00 4.831702373727647881e+00 4.635800125114680093e+00 4.559454300767732171e+00 4.792754577233869995e+00 4.861828353822756910e+00 4.686958862233508327e+00 4.798391291600403008e+00 4.855132224865254642e+00 4.905320656501980459e+00 4.905320656501980459e+00 4.481859094250872033e+00 4.467165182354960962e+00 4.309585090358980963e+00 4.309585090358980963e+00 4.056235756363069100e+00 3.907175793199195724e+00 3.764535555274457934e+00 3.779296085766789215e+00 3.592817553202638958e+00 3.355797224079740015e+00 3.106081534083303008e+00 3.067150804844191114e+00 2.909765375613641680e+00 2.769107485551511871e+00 2.742489297560617878e+00 2.742489297560617878e+00 2.789481138215261780e+00 2.813350614068247602e+00 2.758061595527531829e+00 2.793710605786099421e+00 2.695863904147441037e+00 2.612204686740327908e+00 2.370413999590553544e+00 2.299848871485828727e+00 1.993390711944582172e+00 1.615751304369001495e+00 1.249427540792418911e+00 1.249427540792418911e+00 1.064659037671400910e+00 7.130165794513850797e-01 7.130165794513850797e-01 1.755823071963148740e-01 -6.361812388100120952e-01 -1.134178337366329004e+00 -1.194737461708226922e+00 -1.481858007808830369e+00 -1.691004127796465806e+00 -1.794016068836609801e+00 -1.871924281847795912e+00 -1.933253526156324620e+00 -1.921616133364185020e+00 -1.886772742511049650e+00 -1.886772742511049650e+00 -1.920375078090687637e+00 -1.974941415480835794e+00 -2.416026052375740640e+00 -2.630143384107064275e+00 -3.414105845058976740e+00 -4.019810733994479079e+00 -4.463036248922347404e+00 -4.383640860904656655e+00 -4.677162456354166942e+00 -4.525209380364920264e+00 -4.118502145886965060e+00 -4.118502145886965060e+00 -3.250693010447013087e+00 -2.405658261507426676e+00 -2.266644653933537867e+00 -2.185922860737781193e+00 -2.446029818216828744e+00 -2.757017150147468065e+00 -3.155348037208236534e+00 -3.295300492087243960e+00 -3.560396276004693217e+00 -4.050140004566315177e+00 -4.187748099580534955e+00 -4.556029423586977600e+00 -5.119886952113311018e+00 -5.679443830604246735e+00 -5.679443830604246735e+00 -6.110603378961321219e+00 -6.494803567505776698e+00 -6.712714436104930016e+00 -6.769595053280317742e+00 -6.915164888516687647e+00 -7.154261697309105550e+00 -7.236185346846300881e+00 -7.166183025644516924e+00 -7.345836145867800759e+00 -7.468490297937937505e+00 -7.595330215396611351e+00 -7.595330215396611351e+00 -7.803175167149294822e+00 -8.002638515706738787e+00 -8.084926229021080601e+00 -8.147701512948739122e+00 -8.276621625966473772e+00 -8.367791432563368659e+00 -8.503308549608076916e+00 -8.466517385757763137e+00 -8.540696206235452337e+00 -8.664417567546013998e+00 -8.788653356700079300e+00 -8.788653356700079300e+00 -8.883652650945458973e+00 -8.993290681137349196e+00 -9.038715299431441252e+00 -9.199697038198879184e+00 -9.316900207063170569e+00
5.026806299379028786e+00 4.979478903160801551e+00 4.870091466805587466e+00 4.765285295309225511e+00 4.764623925090700318e+00 4.683865769729731454e+00 4.446530218975941473e+00 4.532635752163067799e+00 4.400228740396395111e+00 4.411336322097600515e+00 4.411336322097600515e+00 4.525633676724662990e+00 4.634668656693941458e+00 4.768756062469570622e+00 4.728286329592610748e+00 4.881754333445285532e+00 4.717188585339806117e+00 4.598957100459301728e+00 4.522236847074776911e+00 4.417933227586342326e+00 4.190120181681614042e+00 4.109722739169976435e+00 4.048064973748825679e+00 3.916691459580448953e+00 3.824176286331016250e+00 3.824176286331016250e+00 3.548012811388356003e+00 3.287189341012765720e+00 3.067150804844191114e+00 3.046637015619571454e+00 2.793758233046673922e+00 2.767920792307236422e+00 2.755497590093522131e+00 2.814882078313332592e+00 2.835049935608255467e+00 2.841026261017102872e+00 2.781314493042264413e+00 2.781314493042264413e+00 2.717567744060505053e+00 2.571283354179503711e+00 2.299848871485828727e+00 2.230633715365223146e+00 1.851741450510791864e+00 1.550596014560131408e+00 1.262652423666560386e+00 1.171706116567200251e+00 9.483816736530530367e-01 6.351088284020294239e-01 -7.158806351804455903e-02 -7.158806351804455903e-02 -7.683123574706887116e-01 -1.162050689295973882e+00 -1.481858007808830369e+00 -1.424500623141289557e+00 -1.726990797244578824e+00 -1.871924281847795912e+00 -1.799297150813242707e+00 -1.819246276670783979e+00 -1.810477609521021325e+00 -1.801964901967267885e+00 -1.778402364703732141e+00 -1.839236376614922008e+00 -2.093332005416536745e+00 -2.701832530881137284e+00 -2.701832530881137284e+00 -3.388992949772973606e+00 -3.924986465503564226e+00 -4.383640860904656655e+00 -4.351161043054865729e+00 -4.545523951454438993e+00 -4.477823784833461218e+00 -3.814627495550046987e+00 -3.457399033128104371e+00 -2.878545732721742301e+00 -2.225040980277475100e+00 -2.170343362279844701e+00 -2.170343362279844701e+00 -2.576080890686529568e+00 -2.973229938669410544e+00 -3.295300492087243960e+00 -3.349447717426203841e+00 -3.735905258400924023e+00 -4.187748099580534955e+00 -4.720318550739708741e+00 -4.882350719070671197e+00 -5.294376309599300612e+00 -5.789745765457687376e+00 -6.238748595282231690e+00 -6.238748595282231690e+00 -6.516583111774830073e+00 -6.720463133450061299e+00 -6.915164888516687647e+00 -6.827792575772701156e+00 -6.937609892095879083e+00 -7.166183025644516924e+00 -7.108932268542951682e+00 -7.335243679605705225e+00 -7.450490912562080403e+00 -7.661881433782083306e+00 -7.731978221634873805e+00 -7.888225059398639161e+00 -8.012431336799012982e+00 -8.204334265801801251e+00 -8.204334265801801251e+00 -8.308518240737063465e+00 -8.468364605645799514e+00 -8.466517385757763137e+00 -8.515976972562143033e+00 -8.655350814525821335e+00 -8.735786474038752303e+00 -8.810377460404701822e+00 -8.904269224535683591e+00 -8.975470452122181086e+00 -9.036200233498057344e+00 -9.246802352751547716e+00 -9.246802352751547716e+00
4.988063531927593885e+00 4.963495610765392030e+00 4.753188734410422001e+00 4.753188734410422001e+00 4.635353053199063211e+00 4.471466928836987265e+00 4.446530218975941473e+00 4.231694835194451443e+00 4.032808178734281768e+00 4.153477285516487427e+00 4.264129000008237469e+00 4.120546000684728760e+00 4.443428123617549019e+00 4.633627371377885495e+00 4.793367266039371799e+00 4.793367266039371799e+00 4.783772408128871945e+00 4.664617481166347446e+00 4.522236847074776911e+00 4.457597015553608877e+00 4.310936825576009213e+00 4.109722739169976435e+00 4.053863301508687123e+00 4.149014379708409805e+00 3.987539524596047880e+00 3.826835835438030742e+00 3.546011152287901869e+00 3.546011152287901869e+00 3.237557950017710073e+00 3.015176835653724741e+00 2.793758233046673922e+00 2.852724713062395168e+00 2.802170383584160263e+00 2.814882078313332592e+00 2.842146760926744342e+00 2.906463943631562685e+00 2.876802104855518571e+00 2.783061694014219434e+00 2.813645655957913050e+00 2.731319226738751826e+00 2.513679265347268377e+00 2.192893856339692249e+00 2.192893856339692249e+00 1.814259949180785592e+00 1.415072015928789950e+00 1.171706116567200251e+00 1.103075677677904487e+00 8.417123360460240233e-01 4.994935275566977917e-01 -2.182550847258838411e-01 -3.346676713925218483e-01 -8.130259300660852562e-01 -1.140723368202851695e+00 -1.428271607920522435e+00 -1.428271607920522435e+00 -1.552329505519525643e+00 -1.666307468311228224e+00 -1.819246276670783979e+00 -1.671037370672458167e+00 -1.616960766870309651e+00 -1.778402364703732141e+00 -1.751394036712570657e+00 -1.832113048276593714e+00 -2.138942374225214937e+00 -2.790866721606879430e+00 -3.345570107009843142e+00 -3.345570107009843142e+00 -3.904670319075036033e+00 -4.383557154849475168e+00 -4.383557154849475168e+00 -4.501629456237557392e+00 -3.942578259007214037e+00 -3.457399033128104371e+00 -3.084970713062141101e+00 -2.260176911404552236e+00 -2.009873514226912405e+00 -2.324263225674879862e+00 -2.482526148753612993e+00 -2.747033130345904794e+00 -3.049812870907844697e+00 -3.559123248287160202e+00 -3.559123248287160202e+00 -3.941097836179653591e+00 -4.462570947133293053e+00 -4.882350719070671197e+00 -5.008494952624075403e+00 -5.515468596155367109e+00 -5.910464089081298056e+00 -6.289869248924761180e+00 -6.275424897479124020e+00 -6.576747542793446755e+00 -6.649781227138633177e+00 -6.737606726597114459e+00 -6.785926673827490596e+00 -6.939710273069664481e+00 -7.135184805869886127e+00 -7.391999057105534732e+00 -7.391999057105534732e+00 -7.590684488267660512e+00 -7.828016647304986364e+00 -7.938575157483037437e+00 -7.967180778386291351e+00 -8.159323036275297980e+00 -8.234191633450379300e+00 -8.389134083780019679e+00 -8.433420661683520336e+00 -8.437543055714510132e+00 -8.568160512571498799e+00 -8.644792559786676378e+00 -8.721596588304745268e+00 -8.824791385049845616e+00 -8.955315900129923179e+00 -8.955315900129923179e+00 -9.029598089550761486e+00 -9.228037636079950090e+00 -9.337019055914717924e+00
4.929971314533791116e+00 4.718409440501075025e+00 4.758068321745946072e+00 4.560268296412820277e+00 4.332107867893929765e+00 4.332107867893929765e+00 4.051522649477605320e+00 3.878224740818404737e+00 3.878224740818404737e+00 3.653708776758433530e+00 3.696874002926066272e+00 4.120546000684728760e+00 3.943829502290800093e+00 4.281496920671523654e+00 4.601440434319965078e+00 4.845325512114220246e+00 4.833268247442711996e+00 4.820942325521341942e+00 4.658476901221395572e+00 4.493421686986912356e+00 4.493421686986912356e+00 4.430496966457968533e+00 4.381798349120879621e+00 4.149014379708409805e+00 4.256956434712595438e+00 4.107438004503623397e+00 3.787779694342920500e+00 3.484708662263947154e+00 3.399882011465226395e+00 3.203894903015433115e+00 2.993431033969545574e+00 2.849266009094031382e+00 2.849266009094031382e+00 2.816858705135385499e+00 2.858541123606539891e+00 2.906463943631562685e+00 2.915653273572903714e+00 2.869647206788471294e+00 2.813645655957913050e+00 2.732837747356041902e+00 2.671149498512248144e+00 2.458492344622507542e+00 2.084488786682196171e+00 1.736383888506286777e+00 1.736383888506286777e+00 1.371309014997904141e+00 1.018471252386653036e+00 1.018471252386653036e+00 6.509904013660742228e-01 1.058242222016537171e-01 -3.346676713925218483e-01 -4.323498530456827416e-01 -8.966044752411506114e-01 -1.086643277679851582e+00 -1.264130498397221025e+00 -1.101307447557621888e+00 -1.413985298873251750e+00 -1.409995039829971653e+00 -1.386838951989401103e+00 -1.386838951989401103e+00 -1.480809678172262167e+00 -1.564514261195212752e+00 -1.921485197944036161e+00 -1.921485197944036161e+00 -2.507098393330109865e+00 -3.114572277881918705e+00 -3.511340670379473394e+00 -3.784963639116598610e+00 -4.314930451921362931e+00 -4.403146054067883952e+00 -4.227586681903543919e+00 -4.045879202409595976e+00 -3.632073411610639457e+00 -2.843283771795675818e+00 -2.347320822466292256e+00 -2.347320822466292256e+00 -2.234029626909965316e+00 -2.537950260754507248e+00 -2.818432674516932579e+00 -2.896041742515025774e+00 -3.276110528214128514e+00 -3.587788130131492448e+00 -3.737553215727649647e+00 -4.181854052814053979e+00 -4.562715508248038176e+00 -5.135663678253102660e+00 -5.192243759036471396e+00 -5.597391854385613819e+00 -6.002073819098776575e+00 -6.279324354530269936e+00 -6.279324354530269936e+00 -6.461614704074639448e+00 -6.619123541294991142e+00 -6.785926673827490596e+00 -6.858052025769157289e+00 -7.101975346868427685e+00 -7.262397055675739566e+00 -7.466096281494838394e+00 -7.526976166168405591e+00 -7.660781276120451011e+00 -7.873027305602928294e+00 -8.057820324232860543e+00 -8.057820324232860543e+00 -8.191761640934284827e+00 -8.366751960363538743e+00 -8.433420661683520336e+00 -8.426707745335612287e+00 -8.595613216417831381e+00 -8.644792559786676378e+00 -8.777369364268947649e+00 -8.838967531124179544e+00 -8.924885798125908209e+00 -9.027454346447081335e+00 -9.158887388186611744e+00 -9.158887388186611744e+00 -9.350241100361198932e+00
4.793973418654760010e+00 4.718409440501075025e+00 4.431635677375580507e+00 4.053069153031228389e+00 4.189217750692707298e+00 3.894500984192390547e+00 3.323154865228377997e+00 3.579731354859059689e+00 3.388249297712461860e+00 3.368497151435199122e+00 3.368497151435199122e+00 3.467685152448931163e+00 3.801974225159848064e+00 4.281496920671523654e+00 4.150512114590925172e+00 4.695695352996087202e+00 4.833268247442711996e+00 4.780803027023761587e+00 4.867573386957140258e+00 4.711228866210287691e+00 4.609329097760110017e+00 4.765689473990475378e+00 4.576146174030026437e+00 4.432521552513732921e+00 4.315954729918695776e+00 4.315954729918695776e+00 4.051371999754126207e+00 3.662715757122622318e+00 3.399882011465226395e+00 3.377479574386278216e+00 3.216764859489208206e+00 3.010468417608104907e+00 2.896154274464882938e+00 2.818835331957438406e+00 2.855715339777171735e+00 2.927573243023812388e+00 2.925933733391958391e+00 2.956669237366321923e+00 2.902043880696749234e+00 2.836142276692433128e+00 2.673237454303000860e+00 2.673237454303000860e+00 2.338490112086377248e+00 1.961598268183664784e+00 1.667262703296157333e+00 1.622548897405560631e+00 1.164847738301663993e+00 8.817195271680998703e-01 4.817246478972965207e-01 3.720313475733143527e-01 1.477015265069734490e-02 -4.982298774001551744e-01 -8.302816206058624138e-01 -8.302816206058624138e-01 -9.204192881470150134e-01 -9.204513501688126320e-01 -9.204513501688126320e-01 -1.014260548975152609e+00 -1.081117912540140891e+00 -1.290316077903120640e+00 -1.115966296575255923e+00 -1.400327644459773646e+00 -1.679051932927281054e+00 -2.081882207207665481e+00 -2.245921435769884233e+00 -2.727911793911428351e+00 -3.505987236707682086e+00 -3.999236318303111215e+00 -3.999236318303111215e+00 -4.275751920116086957e+00 -4.207394495898309827e+00 -4.045879202409595976e+00 -3.791000145564980883e+00 -3.186776473137590493e+00 -2.643307150879321998e+00 -2.237614491881404710e+00 -2.147627792038479644e+00 -2.329986702232083484e+00 -2.624585778300981609e+00 -2.976422359461466272e+00 -2.976422359461466272e+00 -3.364681578645816629e+00 -3.805028528745636240e+00 -4.181854052814053979e+00 -4.221011121559279822e+00 -4.762951650732791364e+00 -5.192243759036471396e+00 -5.669050365054313367e+00 -5.709784480081374625e+00 -6.002859805995706566e+00 -6.227723997287442970e+00 -6.458496649849916338e+00 -6.458496649849916338e+00 -6.717889880715219419e+00 -6.943900082595128254e+00 -6.943900082595128254e+00 -7.208174650649601389e+00 -7.404210735578743652e+00 -7.526976166168405591e+00 -7.611597183944636136e+00 -7.807059884410985973e+00 -7.960567815411857318e+00 -8.114311806748792932e+00 -8.166684406721959277e+00 -8.220713311459441286e+00 -8.400734392958881358e+00 -8.502378757775240103e+00 -8.502378757775240103e+00 -8.624748882698693109e+00 -8.812454272024048407e+00 -8.838967531124179544e+00 -8.943202606115985276e+00 -9.000204847780738149e+00 -9.022995945603467405e+00 -9.208347527576608016e+00 -9.311722831673751699e+00
4.627501544716088766e+00 4.526539672017737992e+00 4.041521146245258933e+00 3.640484136369092294e+00 3.623171945280541983e+00 3.113654870063963020e+00 2.795134268385786491e+00 2.795134268385786491e+00 2.676624932238312660e+00 2.721354232253033967e+00 3.019166477038193630e+00 2.833809832291754205e+00 3.183462669684776980e+00 3.734405236561220587e+00 4.176204475164841945e+00 4.164010423854038301e+00 4.785671125963830264e+00 4.763972100374996188e+00 4.896467590866346420e+00 4.896467590866346420e+00 4.892843860829279024e+00 4.829913362108760211e+00 4.705820496769933747e+00 4.646207800189563031e+00 4.472975051596707274e+00 4.388040173569216051e+00 4.014383637145801487e+00 3.859804526440678618e+00 3.581393468338800012e+00 3.365693742155081214e+00 3.249099838909880855e+00 3.249099838909880855e+00 3.010433896696007139e+00 2.820666634364295433e+00 2.820666634364295433e+00 2.923881868847596266e+00 2.949597225532347267e+00 2.956669237366321923e+00 2.953471290818318717e+00 2.919978580167983395e+00 2.812463575839224461e+00 2.704484498374321699e+00 2.595822271635466194e+00 2.276883970280931813e+00 1.864321513109169270e+00 1.547547315616932373e+00 1.547547315616932373e+00 1.033826166554350445e+00 6.739791744072415325e-01 3.720313475733143527e-01 3.216604416804162980e-01 -9.814813106341156723e-02 -4.339489528511050742e-01 -7.220345886842310934e-01 -6.374561764635203742e-01 -7.899907521461657645e-01 -7.916652825678578420e-01 -9.047247452146455204e-01 -9.047247452146455204e-01 -1.011302516390856887e+00 -1.134818736548843132e+00 -1.400327644459773646e+00 -1.464307658585199956e+00 -1.858235031223843814e+00 -2.245921435769884233e+00 -2.984982250411086557e+00 -3.211916394408686148e+00 -3.671330709312457863e+00 -4.087883280532989438e+00 -3.721417446302062615e+00 -3.967917371005778904e+00 -3.993304525343710054e+00 -3.630971345607892253e+00 -3.630971345607892253e+00 -2.969470073586433223e+00 -2.358935770542529564e+00 -2.147627792038479644e+00 -2.357540639271213045e+00 -2.547094876732484359e+00 -2.689730483374384917e+00 -3.116290943924642232e+00 -3.160045175295023601e+00 -3.478343872487025479e+00 -3.920698027023506782e+00 -4.351671994808723909e+00 -4.351671994808723909e+00 -4.880034390870001459e+00 -5.379960770876893505e+00 -5.709784480081374625e+00 -5.732268206643806430e+00 -6.002553314433603404e+00 -6.276082233726580917e+00 -6.505409033103730643e+00 -6.585610082885766658e+00 -6.768081709001896762e+00 -7.066764080259165581e+00 -7.323804358529673486e+00 -7.323804358529673486e+00 -7.512759777627927349e+00 -7.721443741129844440e+00 -7.807059884410985973e+00 -7.946199099954590395e+00 -8.105537777827404256e+00 -8.166684406721959277e+00 -8.245287569029738250e+00 -8.408769921969074801e+00 -8.434656568435514146e+00 -8.577205074527462614e+00 -8.568159421825612299e+00 -8.675177667518012115e+00 -8.814735516689930606e+00 -8.914898807669429104e+00 -8.914898807669429104e+00 -8.991696491970847305e+00 -9.158424879142149422e+00 -9.311722831673751699e+00
4.627501544716088766e+00 4.168886056204747170e+00 3.624416017819890978e+00 3.640484136369092294e+00 3.191231143229336542e+00 2.766770392838940662e+00 2.759135661192665179e+00 2.525924620216170258e+00 2.418597563967249897e+00 2.521283625143349028e+00 2.581894632364942765e+00 2.787588465920818770e+00 2.787588465920818770e+00 3.185101110448031125e+00 3.623084153575267585e+00 4.164010423854038301e+00 4.233485949974003404e+00 4.393749166287826746e+00 4.702539024369134957e+00 4.880356371466657350e+00 4.920261977222356364e+00 4.859492781604146217e+00 4.760152056249733477e+00 4.596195162922718680e+00 4.596195162922718680e+00 4.440510010495833271e+00 4.135588487646936429e+00 3.859804526440678618e+00 3.824656374886355792e+00 3.538566858720773478e+00 3.376498176373674553e+00 3.168718927091901172e+00 3.181237645842966089e+00 2.957628089953993289e+00 2.900543251705273828e+00 2.913273403656439609e+00 2.913273403656439609e+00 2.953260118780294707e+00 2.961614155088382994e+00 2.919978580167983395e+00 2.906073016926964847e+00 2.854716591766368161e+00 2.595822271635466194e+00 2.532823268310440135e+00 2.136585325931187107e+00 1.828386419219648396e+00 1.389603806227968974e+00 1.330909660345163559e+00 1.005547971398828677e+00 6.022950186678560636e-01 2.549147515756711169e-01 2.549147515756711169e-01 -9.691564017450896018e-02 -3.244278257922967867e-01 -6.374561764635203742e-01 -4.809417714469336746e-01 -5.592411458483873554e-01 -8.366648712429913815e-01 -8.752248413000536242e-01 -8.338804525352984109e-01 -9.099193498140195624e-01 -1.219835202946023545e+00 -1.602262913777479092e+00 -1.602262913777479092e+00 -2.046907423988132191e+00 -2.686305556776633630e+00 -3.211916394408686148e+00 -3.144995735404385151e+00 -3.446029497959682164e+00 -3.721417446302062615e+00 -3.923079343354812565e+00 -3.866555478875648877e+00 -3.806397708419527515e+00 -3.441464434262808680e+00 -2.794180001670122593e+00 -2.794180001670122593e+00 -2.462105680266029495e+00 -2.508020868545489002e+00 -2.547094876732484359e+00 -2.646008746266966583e+00 -2.947952684855752903e+00 -3.160045175295023601e+00 -3.239260166967690147e+00 -3.680983355924241529e+00 -3.971589316717131002e+00 -4.473359948573570222e+00 -4.581147798251421932e+00 -5.023054998121366133e+00 -5.448857098563086865e+00 -5.787176197444663828e+00 -5.787176197444663828e+00 -6.092155746219024337e+00 -6.353171186148176552e+00 -6.585610082885766658e+00 -6.658742928605624556e+00 -6.978580976573248051e+00 -7.157975505950019190e+00 -7.367443408213793177e+00 -7.493233161060588898e+00 -7.588091685970461242e+00 -7.839207182093867132e+00 -8.013960269931063252e+00 -8.013960269931063252e+00 -8.195353507280875860e+00 -8.384610213598278960e+00 -8.470962633293083854e+00 -8.470962633293083854e+00 -8.487038107978259305e+00 -8.612229763069585431e+00 -8.757587514748323088e+00 -8.743724197703839351e+00 -8.822718288728353286e+00 -8.912926615829807275e+00 -9.053929623190542841e+00 -9.069371120583193502e+00 -9.189237437434027100e+00
4.244339562107275476e+00 3.673347540026647984e+00 3.673347540026647984e+00 3.241061857975277682e+00 2.904344185911704734e+00 2.766770392838940662e+00 2.535627774176048455e+00 2.348915168338153059e+00 2.418597563967249897e+00 2.459346432659294202e+00 2.343062442978951054e+00 2.557888174662676484e+00 2.720213717792224095e+00 3.095930679874343117e+00 3.095930679874343117e+00 3.593410578267050237e+00 4.137426722542155488e+00 4.393749166287826746e+00 4.408922913715895398e+00 4.837263389057380181e+00 4.920261977222356364e+00 4.857271946297817777e+00 4.797906660577199389e+00 4.736224304887361569e+00 4.532079719316438826e+00 4.472090052621442879e+00 4.449687992632624045e+00 4.083129857622987302e+00 3.793692765845098513e+00 3.793692765845098513e+00 3.504575628702755186e+00 3.322815898299383175e+00 3.181237645842966089e+00 3.124098077861788614e+00 2.988076440279730406e+00 2.899474205804394966e+00 2.935995920984435514e+00 2.951469830239747960e+00 2.957478943454951548e+00 2.987775011192870700e+00 2.956250881642542350e+00 2.956250881642542350e+00 2.829619606652618025e+00 2.487675566774190550e+00 2.136585325931187107e+00 2.100316658664069802e+00 1.668242779176507762e+00 1.330909660345163559e+00 9.365585476203190929e-01 8.431925668248345662e-01 5.598733772849839863e-01 2.165918312909703713e-01 -4.489849280585514468e-02 -4.489849280585514468e-02 -2.076896702849405918e-01 -4.463571503555344155e-01 -4.463571503555344155e-01 -6.020742317377196784e-01 -7.527124191954857046e-01 -8.338804525352984109e-01 -7.885509491499536061e-01 -1.047132149445912042e+00 -1.268676512599221651e+00 -1.686353151615070711e+00 -1.902603155869072360e+00 -2.294454356322852995e+00 -2.752812146216470524e+00 -3.168492089866074224e+00 -3.168492089866074224e+00 -3.511782637765885617e+00 -3.778621587663854697e+00 -3.866555478875648877e+00 -3.823014606011708505e+00 -3.690848089150422506e+00 -3.225100059613831505e+00 -2.810259470701680584e+00 -2.878992491696113376e+00 -2.677506378967377643e+00 -2.593268447324668990e+00 -2.722869570084517576e+00 -2.800523204314458336e+00 -3.003192468133264015e+00 -3.339241091351381918e+00 -3.741074369021058832e+00 -3.741074369021058832e+00 -4.191481540203803924e+00 -4.692987304929748582e+00 -5.098892457207737650e+00 -5.178223088811472863e+00 -5.641572516283739347e+00 -5.836065662593594716e+00 -5.909295933901821840e+00 -6.204304404972986298e+00 -6.450165233704559853e+00 -6.758972497675207691e+00 -6.890955738557500432e+00 -7.066550833795036013e+00 -7.340775353553153693e+00 -7.586483388769203806e+00 -7.586483388769203806e+00 -7.838455685620804303e+00 -8.032912044358802461e+00 -8.136320371964067988e+00 -8.210110301024826640e+00 -8.478548822725132439e+00 -8.441593634973056481e+00 -8.484441003589942909e+00 -8.466182226041375714e+00 -8.503431838927868469e+00 -8.694281569267264587e+00 -8.770103648658968964e+00 -8.770103648658968964e+00 -8.825648383878876402e+00 -8.972678817772553828e+00 -9.069371120583193502e+00 -9.085599037376395515e+00
3.861159272060125325e+00 3.743638849960507109e+00 3.202172634789686612e+00 2.818769023731397816e+00 2.983718568459980958e+00 2.507011134399835584e+00 2.343171476689894561e+00 2.343171476689894561e+00 2.230500213948290789e+00 2.227811645054591061e+00 2.343062442978951054e+00 2.267893794085124703e+00 2.325348200239834462e+00 2.678071023844831533e+00 3.045751726643649349e+00 3.042538821821330508e+00 3.638466554443351875e+00 4.026435493552736666e+00 4.467581959084932386e+00 4.467581959084932386e+00 4.955958387426623091e+00 4.865622314062957976e+00 4.797906660577199389e+00 4.789966632577931094e+00 4.597091932160021877e+00 4.472090052621442879e+00 4.234070056022873452e+00 4.265462123513517945e+00 4.065844808983483105e+00 3.765281023359955626e+00 3.641657933615223719e+00 3.525655265425508222e+00 3.352041394989925482e+00 3.057498335408379564e+00 3.057498335408379564e+00 2.910633874296468360e+00 2.922394616436523762e+00 2.951469830239747960e+00 2.961486596091584822e+00 3.043757046700830138e+00 2.998524225447732228e+00 2.991995304465362882e+00 3.005163288464943960e+00 2.768369231463408742e+00 2.446433630680644900e+00 2.023971841122954807e+00 1.913268314221663324e+00 1.628512616904540522e+00 1.199137920833395876e+00 7.980863128895516745e-01 7.980863128895516745e-01 5.313317936453524348e-01 3.188600211862331335e-01 4.269096227868793281e-02 1.842159358957590198e-01 -1.061003890379043774e-01 -4.644864179780410218e-01 -5.983241306097056844e-01 -5.945740294816916904e-01 -6.982808527323439707e-01 -8.372907408690313247e-01 -1.213367133862621738e+00 -1.213367133862621738e+00 -1.510751955415291725e+00 -2.126003386757826075e+00 -2.433860117117710775e+00 -2.516513451013326907e+00 -3.029765286293030879e+00 -3.340450529962252890e+00 -3.392224356897699522e+00 -3.634163831972897274e+00 -3.739806432407588588e+00 -3.748601267417422722e+00 -3.929968506661059013e+00 -3.690010159068001006e+00 -3.254223368233292391e+00 -2.880134559038921349e+00 -2.880134559038921349e+00 -2.623120566236838869e+00 -2.636361674597379690e+00 -2.800523204314458336e+00 -2.810069352961565237e+00 -3.141102156898516462e+00 -3.437634458186726860e+00 -3.888864805967679139e+00 -3.961549649505899939e+00 -4.298755710467572655e+00 -4.814980935349790769e+00 -5.270632333344658527e+00 -5.270632333344658527e+00 -5.670050983479772100e+00 -5.963263507221667759e+00 -6.204304404972986298e+00 -6.318786216614872941e+00 -6.638104267575931416e+00 -6.890955738557500432e+00 -7.159618760151234440e+00 -7.255707636653083270e+00 -7.445009957684954216e+00 -7.689910682350719284e+00 -7.920152402797358882e+00 -7.920152402797358882e+00 -8.168692540260401813e+00 -8.443051419292594062e+00 -8.443051419292594062e+00 -8.466949085849982737e+00 -8.465971718623867659e+00 -8.466182226041375714e+00 -8.462811814871031402e+00 -8.624319396052886333e+00 -8.672712878717746321e+00 -8.733226450901367954e+00 -8.738370151927945528e+00 -8.876772194014179718e+00 -8.980979832395197704e+00 -9.140857563345800685e+00
3.861159272060125325e+00 3.330968573615926687e+00 2.749138421849452563e+00 2.818769023731397816e+00 2.602847571858169839e+00 2.250004970608276089e+00 2.298163540445463227e+00 2.162915291294034148e+00 2.097529133585540162e+00 2.113978133367946377e+00 2.106209773261910279e+00 2.117984389275996637e+00 2.053364110851562341e+00 2.185896508367226154e+00 2.458928064887910825e+00 3.045224665799641794e+00 3.045224665799641794e+00 3.659121820817647475e+00 4.210479786953452930e+00 4.718130430885086213e+00 4.842170670803860766e+00 4.786177639066313994e+00 4.832383024004254679e+00 4.744558662036122421e+00 4.711232082763263662e+00 4.532592044691775790e+00 4.305748914110180792e+00 4.297613245905502311e+00 4.297613245905502311e+00 4.005724045553670898e+00 3.686335572344630496e+00 3.473132901377713466e+00 3.521289185168764213e+00 3.252935917848650327e+00 3.061852095128529960e+00 2.867431394705468151e+00 2.996040566929510263e+00 2.952216298834644981e+00 3.002795317400857922e+00 3.083881860834901012e+00 3.083881860834901012e+00 3.115264397241034544e+00 3.005027150608401865e+00 3.005027150608401865e+00 2.750383874701970655e+00 2.276032573399010772e+00 1.913268314221663324e+00 1.853955535553484246e+00 1.438192655229650230e+00 1.086034298094635142e+00 7.878434663380146086e-01 7.660437274275347930e-01 5.751060463801367373e-01 3.740750298127838991e-01 2.105034586915599526e-01 2.105034586915599526e-01 -1.454684829151513259e-01 -4.741342769611081587e-01 -5.945740294816916904e-01 -4.981162649276972831e-01 -7.042640734500332789e-01 -9.214116379892633990e-01 -1.313844209158721021e+00 -1.501298514482693136e+00 -1.755733395405065345e+00 -2.161997365920442782e+00 -2.752525092220110547e+00 -2.752525092220110547e+00 -3.166595910078512155e+00 -3.431772489467529219e+00 -3.634163831972897274e+00 -3.609184743485263525e+00 -3.783101721834692288e+00 -3.929968506661059013e+00 -3.595576275551416234e+00 -3.518278550241809910e+00 -3.273913597424482180e+00 -2.882802713960863628e+00 -2.959067515740235965e+00 -2.700662830557629235e+00 -2.759786094488399399e+00 -2.965471369023838566e+00 -2.965471369023838566e+00 -3.246335883720428583e+00 -3.671903765597764213e+00 -3.961549649505899939e+00 -4.053627927304418677e+00 -4.548572981137798621e+00 -4.923906964112644502e+00 -5.456499028755912306e+00 -5.489921260344699405e+00 -5.732540893270384075e+00 -6.073775898863992495e+00 -6.411716542815615760e+00 -6.411716542815615760e+00 -6.810705778770212326e+00 -7.122191769936119243e+00 -7.255707636653083270e+00 -7.418323139214553663e+00 -7.697164546129830143e+00 -7.848353392069259193e+00 -8.044313829448892506e+00 -8.177146515564043483e+00 -8.295040897462163443e+00 -8.441316288094149911e+00 -8.465761211206357828e+00 -8.465761211206357828e+00 -8.447712941075300463e+00 -8.501262537028766886e+00 -8.624319396052886333e+00 -8.606177114602068912e+00 -8.644520623774933910e+00 -8.738370151927945528e+00 -8.883093516340395013e+00 -8.892588544207203682e+00 -8.984825419085552767e+00
3.476417082924609492e+00 2.821806954780004428e+00 2.716574425477555899e+00 2.535461385479932162e+00 2.444003966563775609e+00 2.207822932632112600e+00 2.207822932632112600e+00 2.128589510205961322e+00 2.073665318660035339e+00 2.054447814850175469e+00 2.045880982954264571e+00 2.036861093348968588e+00 2.053364110851562341e+00 2.193892714633293384e+00 2.268374214546515777e+00 2.593082604151785375e+00 3.101513147792666736e+00 3.175511329302559638e+00 3.692204015949499762e+00 4.276580986427088504e+00 4.568514914039282004e+00 4.568514914039282004e+00 4.652000063007154296e+00 4.791266393751204333e+00 4.711232082763263662e+00 4.620622124503670491e+00 4.490436574356346355e+00 4.328832486324787787e+00 4.197870584135145577e+00 4.268743702484528058e+00 3.916868909158432999e+00 3.604265158587682372e+00 3.499335092630366795e+00 3.499335092630366795e+00 3.252071676617844354e+00 3.063598435756564875e+00 2.996040566929510263e+00 2.995142943649217404e+00 2.972667272406800176e+00 3.032410078229535788e+00 3.125224562399017803e+00 3.117748368645319790e+00 3.092409259690521495e+00 2.953295736928848836e+00 2.638973776561082119e+00 2.638973776561082119e+00 2.210048805123460358e+00 1.790147954681157394e+00 1.438192655229650230e+00 1.391345728838974338e+00 1.052380907320447090e+00 7.660437274275347930e-01 5.258111220022874122e-01 4.945708611847919878e-01 3.815174511264354806e-01 1.114691531349353698e-01 2.355778938314189580e-02 -2.560618689388586278e-01 -4.635932400382756224e-01 -5.471169141455698437e-01 -5.471169141455698437e-01 -7.264136120374569128e-01 -1.173621916558175826e+00 -1.501298514482693136e+00 -1.569020061236640062e+00 -1.914973323514738812e+00 -2.402867433269880504e+00 -2.964697493203365397e+00 -3.000910641261429479e+00 -3.200793408511167115e+00 -3.449912681319383001e+00 -3.602283121676909339e+00 -3.602283121676909339e+00 -3.810363208639273580e+00 -3.711066586679997226e+00 -3.518278550241809910e+00 -3.543491537426378901e+00 -3.230076959655606483e+00 -2.959067515740235965e+00 -2.861266074056274089e+00 -2.945133917975525595e+00 -2.874189079938778590e+00 -3.013809624620937377e+00 -3.333995859140981288e+00 -3.333995859140981288e+00 -3.750561443560098240e+00 -4.166218433639592433e+00 -4.548572981137798621e+00 -4.688581058420998815e+00 -5.195219288848826444e+00 -5.489921260344699405e+00 -5.576058541856382611e+00 -5.996074844505544732e+00 -6.234492557037350835e+00 -6.574222973029856476e+00 -6.741031755578381635e+00 -6.940936442748246726e+00 -7.248614401337087898e+00 -7.603529436103691808e+00 -7.603529436103691808e+00 -7.864929116417681776e+00 -8.041901196578562505e+00 -8.177146515564043483e+00 -8.276282874109982757e+00 -8.480904409976274039e+00 -8.465550703788849773e+00 -8.447502433657792409e+00 -8.429243656109226990e+00 -8.449626389864828724e+00 -8.541520514898964578e+00 -8.591556216138732438e+00 -8.591556216138732438e+00 -8.651091919977014655e+00 -8.798092304607928682e+00 -8.902382591049244454e+00 -8.902382591049244454e+00
