-7.546190387182305503e-01 -8.979743205925899696e-01 -1.063993660981335632e+00 -1.353210899486444019e+00 -1.182573556360601019e+00 -9.174701746365478972e-01 -1.072975933912278190e+00 -5.456623214421663093e-01 3.279298751451493188e-01 3.279298751451493188e-01 1.925792920467792602e+00 2.319928872313629320e+00 2.835762520961093269e+00 3.627473631388824504e+00 4.817619371748762092e+00 5.189681059149085840e+00 5.680114459305929842e+00 5.940764791519451471e+00 5.986090702985516820e+00 6.074440428363043765e+00 6.071586714347807501e+00 6.071586714347807501e+00 5.841865095137375619e+00 5.541308840811211667e+00 5.368834642524506151e+00 5.294643231984552223e+00 5.024556547147559726e+00 4.879296447673294068e+00 4.618021768796928050e+00 4.510901192893702394e+00 4.357453269095899806e+00 4.113077420081474145e+00 3.835662438524413798e+00 3.835662438524413798e+00 3.589334388417280586e+00 3.399417458189038399e+00 3.401936274084926382e+00 3.383186369846387542e+00 3.301825143522986394e+00 3.273770977991150577e+00 3.282074290719102727e+00 3.282649664293002978e+00 3.286337251746633825e+00 3.362162684071337004e+00 3.374843327912239843e+00 3.279037589525572116e+00 3.240517577562573415e+00 3.210743171368947824e+00 3.210743171368947824e+00 3.224890688408005524e+00 3.220852054371003970e+00 3.268468571936762768e+00 3.269574563299978198e+00 3.206190925552852011e+00 3.144602159095901239e+00 3.134756828380754978e+00 3.105210157132265891e+00 2.972525201323724442e+00 2.839182532254886038e+00 2.821014940413960836e+00 2.821014940413960836e+00 2.786293717256556945e+00 2.632839725424593880e+00 2.522021113943192283e+00 2.310914626872666133e+00 1.490226583723206488e+00 1.025792599786879311e+00 4.870327512785989632e-01 5.070202791439969436e-01 4.220817090623270040e-01 2.926087281529460848e-01 -6.273053385719875585e-01 -6.273053385719875585e-01 -1.309154028084656085e+00 -1.700084638530369396e+00 -1.980815041127432341e+00 -2.053886805999954657e+00 -2.370752959033306961e+00 -2.515395759292192945e+00 -2.108141227988367117e+00 -1.662568624260127415e+00 -1.668295932550902361e+00 -1.713714832926436227e+00 -1.516661186220456425e+00 -1.661618060565000832e+00 -2.091196833736030936e+00 -2.449909405615578351e+00 -2.449909405615578351e+00 -2.896710110199707700e+00 -3.315594667247880878e+00 -3.611599740070688735e+00 -3.649262439301181438e+00 -3.979632936814123223e+00 -4.301345357269448222e+00 -4.666853833229455795e+00 -4.780486750634612925e+00 -5.074531155398064541e+00 -5.439388550520331655e+00 -5.780457658171831881e+00 -5.780457658171831881e+00 -6.112449088993726853e+00 -6.493662534157870425e+00 -6.785572631807466948e+00 -6.944226509509024758e+00 -7.341640193842788875e+00 -7.512068110967693890e+00 -7.802290786818703694e+00 -7.948765129792004558e+00 -8.123592604318298882e+00 -8.439146839564671154e+00 -8.775067670599678848e+00 -8.775067670599678848e+00 -9.013895705356558707e+00 -9.290818167580662035e+00 -9.461105269269536322e+00 -9.538016176268055091e+00
-6.433795783143791969e-01 -8.994074664491917837e-01 -1.063993660981335632e+00 -9.732110212743501076e-01 -8.896152609040862691e-01 -9.174701746365478972e-01 -7.203992964234795515e-01 -2.540856610429812479e-01 -2.268576140880319558e-01 1.289571082764965126e+00 2.060769852842861294e+00 2.060769852842861294e+00 3.118487532925741768e+00 4.378022507735484403e+00 4.817619371748762092e+00 5.358112304652928870e+00 5.856853731298537369e+00 5.940764791519451471e+00 6.238529154697399548e+00 6.394482739489259160e+00 6.201930449485496766e+00 6.186137158192357433e+00 6.059854757228666955e+00 5.743431250988857428e+00 5.441561834651726492e+00 5.197446649478893121e+00 5.197446649478893121e+00 4.982656197003174192e+00 4.691433311772739145e+00 4.510901192893702394e+00 4.443065593860559659e+00 4.226670430266922018e+00 4.006714516544386484e+00 3.728913349236728791e+00 3.605049729175688888e+00 3.445148594586643576e+00 3.387264834738107133e+00 3.334369088095581191e+00 3.334369088095581191e+00 3.268104206921249144e+00 3.288235370188552054e+00 3.282649664293002978e+00 3.307726237357153654e+00 3.415187359749768170e+00 3.374843327912239843e+00 3.253424260316126304e+00 3.264161151011085060e+00 3.242566780596850329e+00 3.275643651689222224e+00 3.202973670848120236e+00 3.202973670848120236e+00 3.170492877810165755e+00 3.250592274330476705e+00 3.206190925552852011e+00 3.251147025498098753e+00 3.223786397980915375e+00 3.105210157132265891e+00 3.146710219901081906e+00 2.904054484994200269e+00 2.847524007378313904e+00 2.850054150837589173e+00 2.908992695852029353e+00 2.822634182337721676e+00 2.576071235195235509e+00 2.146213248985443744e+00 2.146213248985443744e+00 1.325115912259168027e+00 6.367819777170375950e-01 5.070202791439969436e-01 3.867094223208021320e-01 4.266069915142947089e-01 1.556016416333905750e-01 -8.376082213026151413e-01 -9.105561456934549991e-01 -1.409959474860855266e+00 -1.742892689615435975e+00 -2.096275289901729622e+00 -2.096275289901729622e+00 -2.287488516024199114e+00 -1.775972370522793220e+00 -1.662568624260127415e+00 -1.592411387400422873e+00 -1.579766599623178447e+00 -1.516661186220456425e+00 -1.623030840890405280e+00 -1.761343954474877904e+00 -2.138043796947833197e+00 -2.540643165779326029e+00 -3.050407460577066576e+00 -3.050407460577066576e+00 -3.335555492007144629e+00 -3.685729973005764659e+00 -3.685729973005764659e+00 -4.108331278675821707e+00 -4.474866509615750054e+00 -4.780486750634612925e+00 -4.879289216556765396e+00 -5.241518696758279638e+00 -5.508453059837380650e+00 -5.856235460320347030e+00 -5.959822289597683564e+00 -6.430975784150847474e+00 -6.731463180267946100e+00 -7.213869838831873160e+00 -7.459049966150081978e+00 -7.552769693323613254e+00 -7.861054038935634480e+00 -8.104798720766373421e+00 -8.104798720766373421e+00 -8.396752516417492984e+00 -8.731765428836837373e+00 -8.867413951092670388e+00 -8.933300793891261193e+00 -9.291385766055860529e+00 -9.421948851270249392e+00 -9.676785123225132068e+00
-4.668649566074696278e-01 -6.583063238115275384e-01 -8.015070404959286909e-01 -8.559590229216437196e-01 -8.559590229216437196e-01 -6.150015328075073562e-01 -3.050332882076824959e-01 -2.540856610429812479e-01 8.967112331559672078e-02 1.899536844634801991e+00 1.979514788396576908e+00 2.595868953182447036e+00 3.434773630391972254e+00 3.954759758907337996e+00 5.024967200650683807e+00 5.727108571489795352e+00 5.727108571489795352e+00 6.161097924208783105e+00 6.510591061551174619e+00 6.394482739489259160e+00 6.503263065891685457e+00 6.430192852594461606e+00 6.059854757228666955e+00 5.636657281027313005e+00 5.544972608791418622e+00 5.392411642185383158e+00 5.104182259711752323e+00 4.951174688233996868e+00 4.951174688233996868e+00 4.545758381409832793e+00 4.391919706030018133e+00 4.391919706030018133e+00 4.101279919312317723e+00 3.763518462979943635e+00 3.605049729175688888e+00 3.449034383505266366e+00 3.378078283972379303e+00 3.367045702477948321e+00 3.283548968703396742e+00 3.248340442044858278e+00 3.298893070152890239e+00 3.292261228387080241e+00 3.340700810492669426e+00 3.340700810492669426e+00 3.349253632280232651e+00 3.248033180728620462e+00 3.264161151011085060e+00 3.260290975735627317e+00 3.298052182403029775e+00 3.200783901765994699e+00 3.136960652773910674e+00 3.153079490024984555e+00 3.196525073265381600e+00 3.189780227054948902e+00 3.218105021268073962e+00 3.218105021268073962e+00 3.240011218367516044e+00 3.134341468533984987e+00 2.904054484994200269e+00 2.938718557286951416e+00 2.952188068047392644e+00 2.908992695852029353e+00 2.639290315817524046e+00 2.691803658045347269e+00 2.589851981968999350e+00 1.920954992120541771e+00 1.749091866071071033e+00 1.099901729818274720e+00 7.560576596995489673e-01 3.731996215852854126e-01 5.079954895314717778e-01 4.096099695410610475e-01 -5.759713526127172717e-02 -9.515205939413451386e-01 -9.515205939413451386e-01 -1.387819269993414206e+00 -1.722179044722317309e+00 -2.073557096167151226e+00 -2.021229844589531588e+00 -1.749857441904253630e+00 -1.717097497573180531e+00 -1.555901507565733422e+00 -1.547135229418038715e+00 -1.478072144454448678e+00 -1.501786554506349347e+00 -1.888831334202806911e+00 -1.888831334202806911e+00 -2.167998979631384326e+00 -2.653116959942959596e+00 -3.030779816184497655e+00 -3.103636036208565763e+00 -3.522372867741775604e+00 -3.807610382333703747e+00 -4.213549767606627583e+00 -4.317966032696997303e+00 -4.590870613717166648e+00 -4.973872858911228434e+00 -5.330089241100026243e+00 -5.330089241100026243e+00 -5.699389437037402750e+00 -6.159499248826332263e+00 -6.430975784150847474e+00 -6.745165118759768319e+00 -7.290379619478205342e+00 -7.459049966150081978e+00 -7.657181618780230181e+00 -7.923059220813162717e+00 -8.003317047437915832e+00 -8.258251781788498391e+00 -8.367244183347612108e+00 -8.557420188353209056e+00 -8.764369800853877734e+00 -9.103738480572935998e+00 -9.103738480572935998e+00 -9.442164238018632361e+00 -9.696116664537393959e+00
-4.668649566074696278e-01 -6.174816951030532852e-01 -4.961138787776837034e-01 -6.998130224825614976e-01 -5.813452948250649177e-01 -2.679151887761311301e-01 -3.232831938953671380e-01 -1.181929967915567453e-01 1.226637341465224962e+00 1.226637341465224962e+00 2.148660538291385702e+00 2.980666122543157659e+00 3.434773630391972254e+00 4.323891851666191499e+00 5.265386465835993235e+00 5.527161770495117921e+00 6.048184762974250006e+00 6.421657297634332906e+00 6.451341396349174140e+00 6.645639169337579588e+00 6.508490323767814445e+00 6.508490323767814445e+00 6.249426238840761982e+00 5.784354132499183621e+00 5.544972608791418622e+00 5.498157595209640647e+00 5.191332343711201780e+00 5.066015184646206038e+00 4.808449332391425024e+00 4.666776375467158289e+00 4.531624010049124962e+00 4.293437570331485098e+00 3.937917294424400971e+00 3.937917294424400971e+00 3.635814989996939861e+00 3.410809484057098828e+00 3.378078283972379303e+00 3.334616700783748389e+00 3.261849028392179495e+00 3.243500653701653746e+00 3.276195675848754263e+00 3.287994310260133002e+00 3.300323352911009867e+00 3.350314241973574525e+00 3.284332222306299176e+00 3.225609989474536476e+00 3.253784381203806308e+00 3.266080071384312333e+00 3.296727983646023930e+00 3.251513560673044534e+00 3.192006507183747566e+00 3.198393827880890772e+00 3.198393827880890772e+00 3.174831953257258199e+00 3.191109761371506259e+00 3.276236741364896510e+00 3.307716614535681110e+00 3.337917734764195288e+00 3.137236057160115443e+00 2.989270886729896048e+00 2.950491037356970381e+00 2.883543073327856643e+00 2.703760026206406764e+00 2.733901987241686982e+00 2.733901987241686982e+00 2.449986971575737194e+00 1.545655890650370567e+00 1.150420070428962882e+00 1.024388777269447770e+00 5.346291925981510040e-01 5.079954895314717778e-01 3.879093090912510977e-01 2.596325610795655603e-01 -1.696673673014140182e-01 -1.013742223393957254e+00 -1.368423053427769265e+00 -1.368423053427769265e+00 -1.698031345050965202e+00 -1.842555706840860008e+00 -1.842555706840860008e+00 -1.778603314904251498e+00 -1.596425554123743096e+00 -1.547135229418038715e+00 -1.455102346544156156e+00 -1.445844991406813662e+00 -1.639190581942867375e+00 -1.928050126668431785e+00 -1.862178410876023760e+00 -2.213307162764069247e+00 -2.689985376359743441e+00 -3.230145426831009026e+00 -3.230145426831009026e+00 -3.646662048355724828e+00 -4.061149274254249875e+00 -4.317966032696997303e+00 -4.409460532867700344e+00 -4.786578612691563706e+00 -5.053441850548768599e+00 -5.397339044675126374e+00 -5.510999239602111466e+00 -5.811867561819351380e+00 -6.389176944278297299e+00 -7.057589692840899431e+00 -7.057589692840899431e+00 -7.576459738457373305e+00 -7.868556490119545721e+00 -7.923059220813162717e+00 -8.059416235048267652e+00 -8.226716766859059504e+00 -8.367244183347612108e+00 -8.610124029168719773e+00 -8.761246691337486681e+00 -8.932492585955211339e+00 -9.294606640071490844e+00 -9.462379624767017106e+00 -9.603800127616201721e+00
-3.353601393625891824e-01 -3.929503155018262417e-01 -4.961138787776837034e-01 -2.848787613643146699e-01 -1.881974311052574400e-01 -2.679151887761311301e-01 2.004872782964101097e-03 3.216435400287702140e-01 1.856083687301067320e+00 2.083040289441224324e+00 2.711990351981147462e+00 3.487861775114974972e+00 3.886398979237742690e+00 4.987124187794488961e+00 5.713257024808008566e+00 5.713257024808008566e+00 6.303947098101447821e+00 6.695703514498793751e+00 6.695703514498793751e+00 6.826883581147403568e+00 6.672247216112983104e+00 6.555842955982810416e+00 6.379264035764439456e+00 5.930845935811254854e+00 5.696637747229554627e+00 5.382778767979539580e+00 5.291218675599173693e+00 5.132102384746259460e+00 4.935080602791019899e+00 4.624209903649802555e+00 4.624209903649802555e+00 4.302050747263315600e+00 4.010514279937648752e+00 3.816070211921663180e+00 3.668364752196444201e+00 3.441939556330897876e+00 3.376278338561269354e+00 3.279204117087080483e+00 3.236857264216608243e+00 3.227040339355916831e+00 3.262605873837135739e+00 3.252611515582908730e+00 3.252611515582908730e+00 3.285397725955522930e+00 3.199726245338474051e+00 3.225609989474536476e+00 3.243407611396527113e+00 3.286695827528756109e+00 3.296727983646023930e+00 3.233233448257383458e+00 3.260547629223646826e+00 3.187322897833659407e+00 3.186705941986966995e+00 3.135930367297263821e+00 3.128750541547182351e+00 3.285224170747414352e+00 3.359392896525529970e+00 3.359392896525529970e+00 3.362782415356595944e+00 3.094890230460249025e+00 2.950491037356970381e+00 2.871983867872429652e+00 2.768229736595290369e+00 2.757977296207463791e+00 2.640876881643593244e+00 2.612328583541433602e+00 2.202837212197876315e+00 1.436746053373908927e+00 8.697041375217029469e-01 8.697041375217029469e-01 5.840219698815178884e-01 4.578142880999118702e-01 2.596325610795655603e-01 2.468732342332719265e-01 -3.064124964319125954e-01 -1.015534287907174926e+00 -1.348977645078685672e+00 -1.319442319639428707e+00 -1.674267738012340523e+00 -1.770762351116733413e+00 -1.718231008301068563e+00 -1.718231008301068563e+00 -1.515952820084566000e+00 -1.383487904591661044e+00 -1.445844991406813662e+00 -1.538665781118910170e+00 -1.702222452615593351e+00 -1.862178410876023760e+00 -2.252418566499222674e+00 -2.393967679209433985e+00 -2.886186273405656699e+00 -3.366776287123093514e+00 -3.478649778253201319e+00 -3.793248395344097190e+00 -4.158836548351961149e+00 -4.507228294551982373e+00 -4.507228294551982373e+00 -4.858347866831421946e+00 -5.229086542707939600e+00 -5.510999239602111466e+00 -5.685170264558578879e+00 -6.350939119485170536e+00 -6.679892127036440641e+00 -7.354347553925150827e+00 -7.559270790413839869e+00 -7.773380280179937429e+00 -7.979994694732340577e+00 -8.140962616101866445e+00 -8.140962616101866445e+00 -8.301632485798403849e+00 -8.590000796719760245e+00 -8.761246691337486681e+00 -8.931684378019161485e+00 -9.297827514087119383e+00 -9.462379624767017106e+00 -9.734560250239869816e+00
-2.049060811579858643e-01 -1.835598889067894535e-01 -2.525228111034192313e-01 -5.266372562688975689e-02 1.480696375139594900e-01 1.018219044273928897e-01 3.942952898895323299e-01 1.306386826541370283e+00 1.306386826541370283e+00 2.154656798825288710e+00 3.204773404605755882e+00 3.487861775114974972e+00 4.338024328083514014e+00 5.265547808552086373e+00 5.457730843628719519e+00 6.148147238839369422e+00 6.559967830287943613e+00 6.699074602150079549e+00 6.947379509775472251e+00 6.860518033797349702e+00 6.860518033797349702e+00 6.653812266786598428e+00 6.205551871467198666e+00 5.930845935811254854e+00 5.843358216535068372e+00 5.470858893440049719e+00 5.291218675599173693e+00 5.067406561163783074e+00 5.033473065452719553e+00 4.815115904620716591e+00 4.489971088276066169e+00 4.352284056832408154e+00 4.119339724199162944e+00 3.871956449351356078e+00 3.546554152636886226e+00 3.546554152636886226e+00 3.390218988774191811e+00 3.249420734817635381e+00 3.236857264216608243e+00 3.199222023767005041e+00 3.250806950151145625e+00 3.270549996180856844e+00 3.259945895329350751e+00 3.219057434762230496e+00 3.215624322329915241e+00 3.205137402563309923e+00 3.241615500189917842e+00 3.241615500189917842e+00 3.307316080833910821e+00 3.286539383372222733e+00 3.260547629223646826e+00 3.230985504948948872e+00 3.195997488175077006e+00 3.135930367297263821e+00 3.157225204829307241e+00 3.249612278990556824e+00 3.372288660224150636e+00 3.525610269678085107e+00 3.365755690457604477e+00 3.365755690457604477e+00 2.995209992275781996e+00 2.807699737372520321e+00 2.768229736595290369e+00 2.824585295955717612e+00 2.593798965264192624e+00 2.612328583541433602e+00 2.503425479687583444e+00 1.854562134236968696e+00 1.317656043516230557e+00 7.280685782643770976e-01 8.763406558494641896e-01 6.162406421726689398e-01 4.109694107510997174e-01 2.719148175937231571e-01 2.719148175937231571e-01 -3.847510561140776164e-01 -9.392364943850379788e-01 -1.319442319639428707e+00 -1.337489019132888313e+00 -1.688229635705052800e+00 -1.832130697874018832e+00 -1.633265101165756850e+00 -1.532825409560839347e+00 -1.442191627746894467e+00 -1.405270738629240679e+00 -1.542288632897594658e+00 -1.542288632897594658e+00 -1.662751639368340584e+00 -2.068323844506144038e+00 -2.393967679209433985e+00 -2.572525190259625116e+00 -3.117977096914175128e+00 -3.478649778253201319e+00 -3.901617422178217609e+00 -3.958843102353462484e+00 -4.228367740626103988e+00 -4.606935386498812512e+00 -4.971119008287903540e+00 -4.971119008287903540e+00 -5.400977774417583532e+00 -6.010530636782021041e+00 -6.010530636782021041e+00 -6.609061398398463183e+00 -7.180603486247652434e+00 -7.559270790413839869e+00 -7.569572552147310063e+00 -7.773731134169768353e+00 -8.002784079984275323e+00 -8.199207833265703016e+00 -8.251198880853850781e+00 -8.589192588783710391e+00 -8.760438483401436827e+00 -9.102122064700836290e+00 -9.301048388102747921e+00 -9.482595011515403627e+00 -9.778686187566989929e+00
-1.514946647335332630e-01 -1.835598889067894535e-01 -1.316090848851079499e-02 1.308062547101959683e-01 1.480696375139594900e-01 4.019383194247293511e-01 8.864997462297283803e-01 9.481614515439176216e-01 1.967585197953034548e+00 2.301902456367629135e+00 2.712457969275322789e+00 3.981037762104974398e+00 5.115629376221408897e+00 5.115629376221408897e+00 5.666885217128934116e+00 6.355608138663247253e+00 6.559967830287943613e+00 6.953975498467700689e+00 7.132850087622970570e+00 7.020196755623761220e+00 6.827571819652555440e+00 6.784370436972281482e+00 6.498326864228014976e+00 6.070875827124231350e+00 5.745188793005937988e+00 5.745188793005937988e+00 5.390897972045104680e+00 5.110214033653530663e+00 5.033473065452719553e+00 4.898574237648588792e+00 4.564205722312447477e+00 4.352284056832408154e+00 4.090511486971842636e+00 3.974952159033052546e+00 3.715831527761358277e+00 3.477390731954548286e+00 3.284570701926054603e+00 3.284570701926054603e+00 3.214727583836552327e+00 3.161152386302677808e+00 3.161152386302677808e+00 3.254250405371645449e+00 3.204406653972861285e+00 3.219057434762230496e+00 3.161008398250645612e+00 3.186789704515002875e+00 3.225822757569454247e+00 3.307311583673200328e+00 3.294177364246600792e+00 3.304110017725794712e+00 3.283186469589958634e+00 3.263171360193284798e+00 3.263171360193284798e+00 3.165518788212618340e+00 3.134606225183681261e+00 3.249612278990556824e+00 3.319777018885943676e+00 3.468250764768871175e+00 3.488629098218937852e+00 3.211251209843736021e+00 3.052479414620067111e+00 2.885823663654299320e+00 2.881918499078354401e+00 2.738055498815547217e+00 2.738055498815547217e+00 2.584824880918735968e+00 2.482162064698200776e+00 1.854562134236968696e+00 1.717184541816237253e+00 1.191914856582867666e+00 8.763406558494641896e-01 5.362464897977056166e-01 5.541095953084766990e-01 4.704398302490285788e-01 2.234992430427756860e-01 -5.445614853210568596e-01 -5.445614853210568596e-01 -9.937509222551849097e-01 -1.480244975779834160e+00 -1.532939168458890444e+00 -1.719769335416292844e+00 -1.635448177255867552e+00 -1.524873087165412588e+00 -1.524873087165412588e+00 -1.397334657861512452e+00 -1.485705727464640802e+00 -1.591346987131128543e+00 -1.617666220896702312e+00 -1.952346575254279237e+00 -2.159472317703630129e+00 -2.549167483061518080e+00 -2.747280052110291138e+00 -3.182125761125809582e+00 -3.657435493874511057e+00 -4.039514882238623983e+00 -4.039514882238623983e+00 -4.425896393656785222e+00 -4.861833593777376450e+00 -5.171232792353696262e+00 -5.366262134637810099e+00 -6.001596760753275639e+00 -6.323118150654115865e+00 -6.852453569766831620e+00 -7.026542144500867337e+00 -7.343095691077513365e+00 -7.597862867568464296e+00 -7.759400115658133146e+00 -7.759400115658133146e+00 -7.974238488506850686e+00 -8.340138642888556220e+00 -8.589192588783710391e+00 -8.756763286300149218e+00 -9.101313856764784660e+00 -9.301048388102747921e+00 -9.502810398263786595e+00 -9.823328762458023888e+00
-1.240366114644128881e-01 3.979990795154321470e-02 2.387087980645666019e-01 2.387087980645666019e-01 3.646445131426800379e-01 8.180224944022991274e-01 8.864997462297283803e-01 1.666420355886327531e+00 2.317105259721055077e+00 2.301902456367629135e+00 3.613825115058281412e+00 4.376089946282323950e+00 4.767029002339394417e+00 5.526847295162156115e+00 6.082190694146307308e+00 6.082190694146307308e+00 6.746477065952730001e+00 7.075781135408306000e+00 7.075781135408306000e+00 7.113945459447558406e+00 6.935522563197130452e+00 6.784370436972281482e+00 6.631636177781821573e+00 6.255589594802032138e+00 6.011914603434401982e+00 5.634541061385940353e+00 5.507390514788848002e+00 5.264333044566473774e+00 5.030540301559079275e+00 4.761732673412084615e+00 4.761732673412084615e+00 4.454260930084156911e+00 4.223824348711517906e+00 3.974952159033052546e+00 3.847481278712726827e+00 3.563780844090077338e+00 3.432140718353022812e+00 3.282010282102576948e+00 3.267688269640589116e+00 3.199346503824998855e+00 3.237604264744374571e+00 3.274225837195728239e+00 3.274225837195728239e+00 3.209659934290493233e+00 3.150755397866507934e+00 3.186789704515002875e+00 3.185887236874529460e+00 3.255518198605287239e+00 3.287623700447885877e+00 3.309071548242871863e+00 3.314169183375932803e+00 3.319799163346676796e+00 3.244086988466994725e+00 3.195559091157171849e+00 3.121719446719453117e+00 3.196675013382314745e+00 3.356243667519087204e+00 3.362492093088871314e+00 3.403852721754850208e+00 3.206010379052476544e+00 2.968898521987528571e+00 2.968898521987528571e+00 2.809698486930497285e+00 2.855240555290816662e+00 2.678012443098350737e+00 2.620167921472162043e+00 2.478723612182357705e+00 2.276542953030352479e+00 1.638791281931223143e+00 1.489712439517142606e+00 1.170258120519906742e+00 6.433071679173397728e-01 6.135800148064054493e-01 6.135800148064054493e-01 6.488344447143654659e-01 -6.523982298448383066e-02 -6.500128253774812848e-01 -7.317238073994747349e-01 -1.269427389404441886e+00 -1.532939168458890444e+00 -1.711863418522676650e+00 -1.637631253345978699e+00 -1.580073818348293413e+00 -1.490612122854877875e+00 -1.477687853944159579e+00 -1.477687853944159579e+00 -1.499257896047977212e+00 -1.663390631979603684e+00 -1.663390631979603684e+00 -1.950159897858938063e+00 -2.176446248783508786e+00 -2.747280052110291138e+00 -2.886173413038380708e+00 -3.404332451227032319e+00 -3.736302008330040447e+00 -4.121303119705883589e+00 -4.241630268891995570e+00 -4.547244868991771938e+00 -5.064768730537430486e+00 -5.691245655486057764e+00 -5.691245655486057764e+00 -6.295297181823061194e+00 -6.765409034233780261e+00 -7.026542144500867337e+00 -7.115022152030299196e+00 -7.361653994336828433e+00 -7.548664206810071775e+00 -7.745127319919419051e+00 -7.836175280683472799e+00 -8.032248218985316157e+00 -8.462457575629763085e+00 -8.888235326928345614e+00 -8.888235326928345614e+00 -9.304269262118378236e+00 -9.714793828994425340e+00 -9.823328762458023888e+00
2.430480751414263452e-01 3.013508523973642550e-01 3.378558900098478923e-01 3.300267195191696201e-01 6.993885853860171142e-01 7.587055398941581208e-01 1.510894510499392940e+00 2.286770908530574964e+00 2.286770908530574964e+00 3.013830761045150020e+00 4.008030946431334840e+00 4.376089946282323950e+00 5.123305003039245520e+00 5.753388792015503128e+00 5.899013551835060376e+00 6.568032571533467312e+00 6.865502815885141885e+00 7.093837035875465880e+00 7.144242879464306029e+00 7.097176554868685372e+00 7.031092563943454721e+00 6.889767664947439307e+00 6.535566512395882377e+00 6.189100086591798444e+00 6.189100086591798444e+00 5.825826011709144048e+00 5.341092312208555626e+00 5.341092312208555626e+00 5.037742004972107779e+00 4.809218154669135714e+00 4.658820541570815266e+00 4.556237803335905667e+00 4.344889695892681480e+00 4.101570785480537218e+00 3.746465382977698155e+00 3.650170956225605945e+00 3.494289443882316881e+00 3.372276350553944368e+00 3.228989297969141692e+00 3.228989297969141692e+00 3.242859887955810372e+00 3.267400255863084801e+00 3.228409785506672236e+00 3.238609211699921442e+00 3.152428355955623207e+00 3.179134478215201121e+00 3.193251672869677371e+00 3.191787842070747949e+00 3.231008609369902196e+00 3.313473420073938414e+00 3.345434486471803748e+00 3.345434486471803748e+00 3.287237462853219494e+00 3.159846531461675490e+00 3.121719446719453117e+00 3.146362187825573642e+00 3.260371121877186695e+00 3.362492093088871314e+00 3.359087732839565632e+00 3.200769548261217068e+00 3.083575567739459622e+00 2.924571648017745051e+00 2.872302669493356664e+00 2.872302669493356664e+00 2.804000063233397455e+00 2.571179378430234141e+00 2.571179378430234141e+00 2.401986847851218521e+00 1.957293799504487897e+00 1.489712439517142606e+00 1.350641479856044880e+00 7.317053605857877230e-01 6.972497798658535695e-01 6.711148455033384419e-01 6.354290446479589072e-01 5.696661170189852852e-01 -2.302582325356008486e-01 -8.951668052142619514e-01 -8.951668052142619514e-01 -1.377648701212728088e+00 -1.586479435222389434e+00 -1.637631253345978699e+00 -1.634087002401232391e+00 -1.561849636556698950e+00 -1.439381855853466119e+00 -1.434637378992265511e+00 -1.404481435825189362e+00 -1.539754416515275226e+00 -1.766540380910317065e+00 -1.959310060105520890e+00 -1.959310060105520890e+00 -2.332739400548359487e+00 -3.023460551350050096e+00 -3.404332451227032319e+00 -3.507390579949768217e+00 -3.920367049000752058e+00 -4.241630268891995570e+00 -4.729837896259008190e+00 -4.963098583369068173e+00 -5.339955702776174817e+00 -5.993949277485405958e+00 -6.224908938918842338e+00 -6.517541069652869723e+00 -6.872359586415085708e+00 -7.093421260407709816e+00 -7.093421260407709816e+00 -7.375862911259097210e+00 -7.545941606889049247e+00 -7.836175280683472799e+00 -7.873124602937474847e+00 -8.344062097222870733e+00 -8.592681230693987260e+00 -9.053604496308418348e+00 -9.270241229331555033e+00 -9.501496615063395268e+00 -9.835936448555644418e+00
2.999369067631319496e-01 4.138873082524684444e-01 4.138873082524684444e-01 6.351270610655513904e-01 1.339383110137573940e+00 1.339383110137573940e+00 2.014710088558929080e+00 2.788132831102658749e+00 2.972067413391290991e+00 3.755454009473050192e+00 4.687610999381892185e+00 4.729300299290772003e+00 5.624195584864727593e+00 5.975279949255285494e+00 6.132420847316238266e+00 6.771159607365623501e+00 7.066065606036024960e+00 7.066065606036024960e+00 7.155798979523923187e+00 7.133908529050517977e+00 7.031092563943454721e+00 6.991150642155847805e+00 6.680816868651847429e+00 6.420557697037347467e+00 6.119536608932121702e+00 6.014226620480426000e+00 5.643131519663679541e+00 5.187549993133650617e+00 4.935735525110088062e+00 4.935735525110088062e+00 4.753435360829183942e+00 4.514338989131663205e+00 4.344889695892681480e+00 4.234984693325137606e+00 3.865184705572687562e+00 3.650170956225605945e+00 3.458194315579700806e+00 3.462542419005312233e+00 3.341629990481877144e+00 3.222852036204175263e+00 3.248115511167245728e+00 3.266470262402208391e+00 3.245443202505652103e+00 3.252437118679066597e+00 3.252437118679066597e+00 3.167835465805385997e+00 3.159351057454911071e+00 3.191787842070747949e+00 3.167476873752839150e+00 3.298442138950517410e+00 3.333178104286128374e+00 3.368862048470912196e+00 3.312410318714469781e+00 3.223221598501435192e+00 3.133046454500868272e+00 3.175281732206157503e+00 3.175281732206157503e+00 3.254030258741769543e+00 3.296649131555372758e+00 3.200769548261217068e+00 3.217106933686366688e+00 2.988318085717736494e+00 2.824978813714638548e+00 2.972425611766085662e+00 2.846919170734906412e+00 2.655510962025588118e+00 2.491107677471535720e+00 2.337009085222462090e+00 2.337009085222462090e+00 1.777128057815800632e+00 1.215585831841098363e+00 7.317053605857877230e-01 8.879272691265434059e-01 5.790553010336408901e-01 6.354290446479589072e-01 6.256143637457027840e-01 1.773906429310457833e-01 -4.589148890760713639e-01 -1.121746852282422324e+00 -1.280216433923544894e+00 -1.499582622061343296e+00 -1.598495871993288020e+00 -1.665881586262794700e+00 -1.665881586262794700e+00 -1.500703164248491595e+00 -1.404072449930189537e+00 -1.404481435825189362e+00 -1.465255267374564241e+00 -1.723536240076131376e+00 -1.782939351653535898e+00 -1.827372326309168349e+00 -1.988081609816003015e+00 -2.432150655685071605e+00 -3.122290310455916984e+00 -3.598902895275710279e+00 -3.598902895275710279e+00 -4.067854563110075539e+00 -4.643971398944350071e+00 -4.963098583369068173e+00 -5.249838110211131337e+00 -5.834361073397117181e+00 -6.224908938918842338e+00 -6.608632438832768408e+00 -6.602522378189816799e+00 -6.865235839653605510e+00 -7.097330806313006057e+00 -7.368376922257031225e+00 -7.368376922257031225e+00 -7.598896130942227600e+00 -8.076949183729507098e+00 -8.344062097222870733e+00 -8.563966852219747850e+00 -9.016638135370676821e+00 -9.270241229331555033e+00 -9.400895057348046535e+00 -9.794607552183869359e+00
5.443407103115567303e-01 2.607188908567171781e-01 5.784347780858802857e-01 1.230864657593612188e+00 1.282126982298912976e+00 1.903390457281054715e+00 2.352390258205924400e+00 2.352390258205924400e+00 3.516099702001118210e+00 4.685023443838913337e+00 4.687610999381892185e+00 5.345940764155771241e+00 5.853630630971377258e+00 5.975279949255285494e+00 6.367399495423801348e+00 6.952989539682169706e+00 6.998194983756488519e+00 7.111892936342626648e+00 7.167355079583540345e+00 7.167131373078553302e+00 7.129776326734474701e+00 6.886062660016936121e+00 6.886062660016936121e+00 6.579294795809766505e+00 6.300059356039700020e+00 6.014226620480426000e+00 5.772766776142710832e+00 5.269081646925901197e+00 5.048515362336535972e+00 4.850838525468009088e+00 4.833620895899294112e+00 4.671168867267248004e+00 4.465955043073845943e+00 4.115388184684927175e+00 4.115388184684927175e+00 3.741673937144252449e+00 3.549607233424965536e+00 3.462542419005312233e+00 3.418682864503503449e+00 3.253661248068129286e+00 3.248115511167245728e+00 3.260574674530441364e+00 3.260020527000913049e+00 3.267478391698238394e+00 3.210508000122927807e+00 3.128028205944810125e+00 3.128028205944810125e+00 3.146738030158401589e+00 3.191912433232886315e+00 3.298442138950517410e+00 3.300444548814978063e+00 3.319359007358478220e+00 3.312410318714469781e+00 3.211181965305253350e+00 3.131695070587451113e+00 3.124448552595237238e+00 3.176712265294208137e+00 3.165147766803344975e+00 3.204223776010878488e+00 3.229835573996452602e+00 3.259924238109732642e+00 3.259924238109732642e+00 3.029192905770314859e+00 3.001030974503161808e+00 2.846919170734906412e+00 2.769679218131423593e+00 2.563298571926963643e+00 2.398722904038502524e+00 2.292315343398992233e+00 2.200664165243567894e+00 1.659639284404152759e+00 1.226781559119555665e+00 7.735022272199766347e-01 7.735022272199766347e-01 5.719988476260091659e-01 6.748233571516740747e-01 1.773906429310457833e-01 -8.107758429385852894e-02 -1.070645639007044680e+00 -1.280216433923544894e+00 -1.504413522668108572e+00 -1.551101750004932889e+00 -1.624869131574291359e+00 -1.596315858218928074e+00 -1.418849699574472822e+00 -1.418849699574472822e+00 -1.365324173367450156e+00 -1.557391792025082156e+00 -1.557391792025082156e+00 -1.762142663580140489e+00 -1.934952835756801770e+00 -2.215650034700290760e+00 -2.215650034700290760e+00 -2.805440910195887483e+00 -3.358429054289507221e+00 -3.709885034841866158e+00 -4.023514205822021239e+00 -4.641674148415133594e+00 -4.943569151956888952e+00 -5.509508272320215561e+00 -5.667581613670613194e+00 -6.022173847937466462e+00 -6.310360049577550257e+00 -6.580182969383164604e+00 -6.580182969383164604e+00 -6.823493256141820673e+00 -7.095280817986211019e+00 -7.362514414405827878e+00 -7.512446571697521946e+00 -8.061034454549442785e+00 -8.328147368042806420e+00 -8.779653748564310689e+00 -8.964592137325070098e+00 -9.192296290728151575e+00 -9.577298883910058791e+00 -9.925783942894835121e+00
8.805761403319252167e-01 7.009167210020524896e-01 1.190730592245260677e+00 1.230864657593612188e+00 1.886534239131910873e+00 2.388700959362896281e+00 2.446141759633647439e+00 3.269869743293848163e+00 4.058783586996730364e+00 4.343510685330343790e+00 5.201909697984110181e+00 5.706002367571641365e+00 5.706002367571641365e+00 6.116822712351599023e+00 6.577863777172465731e+00 6.952989539682169706e+00 6.970603576083292729e+00 7.037314732727065092e+00 7.167355079583540345e+00 7.172570120998860155e+00 7.039867350582629690e+00 7.033533522139955529e+00 6.738849625173460645e+00 6.422873371434306478e+00 6.422873371434306478e+00 6.080360391030650291e+00 5.551174382108744254e+00 5.551174382108744254e+00 5.148707413885209583e+00 4.922831122593435360e+00 4.833620895899294112e+00 4.742087255683542502e+00 4.548518288644708640e+00 4.353027339681407426e+00 3.972765825216951541e+00 3.853110515732743213e+00 3.644464393894224052e+00 3.541864345512676593e+00 3.323684850016407566e+00 3.323684850016407566e+00 3.282811422100227805e+00 3.266127627223209373e+00 3.260020527000913049e+00 3.278818601089303453e+00 3.220909953987396879e+00 3.167337255404255369e+00 3.151864275843695662e+00 3.139835390242879054e+00 3.146960051612049725e+00 3.239024685761297206e+00 3.290462081036792164e+00 3.290462081036792164e+00 3.255045973982118035e+00 3.167954713322906457e+00 3.131695070587451113e+00 3.107261598626455346e+00 3.118831263822032795e+00 3.165147766803344975e+00 3.193407471780058238e+00 3.167393514934417897e+00 3.298322549104365287e+00 3.111724877760247310e+00 3.136814764106752751e+00 3.074079484965544840e+00 2.947467926258451332e+00 2.757428548857542516e+00 2.650923985994619869e+00 2.529718313802026053e+00 2.365150543850008891e+00 2.064532389399567514e+00 2.064532389399567514e+00 1.487500731592352521e+00 9.971705876543257574e-01 6.931049192928195879e-01 7.534676788414944593e-01 7.680750717256599192e-01 4.526637064864941773e-01 -3.411787456256060169e-01 -7.971341648600721586e-01 -1.176449154518921958e+00 -1.423046676243473030e+00 -1.578579959883168016e+00 -1.578579959883168016e+00 -1.624250523659217516e+00 -1.495954645728824195e+00 -1.402329849184542843e+00 -1.345192051257995125e+00 -1.482296642067026937e+00 -1.627279726936908144e+00 -1.831640821529842977e+00 -1.883194620655404883e+00 -1.924585285793130263e+00 -2.322395677982893591e+00 -2.992970435448131905e+00 -2.992970435448131905e+00 -3.665544677553811415e+00 -4.378496498867416875e+00 -4.641674148415133594e+00 -4.940200529307204214e+00 -5.431573363929840248e+00 -5.667581613670613194e+00 -5.817196081568027033e+00 -6.058874015356129128e+00 -6.327349020831460891e+00 -6.555892115271394260e+00 -6.560286053694683872e+00 -6.828047221566595049e+00 -7.192588929564600164e+00 -7.751131087251698304e+00 -7.751131087251698304e+00 -8.312232638862742107e+00 -8.725958520884596226e+00 -8.964592137325070098e+00 -9.142681547362441208e+00 -9.535969987538283732e+00 -9.753278655812092524e+00
1.229795362678193005e+00 1.489179752896976350e+00 1.238182000462552335e+00 1.863164277534718138e+00 2.441388434435292965e+00 2.441388434435292965e+00 3.319894284582039390e+00 4.011207990603224083e+00 4.058783586996730364e+00 4.709181960160611524e+00 5.346709583411363376e+00 5.516954393873152895e+00 5.951654584299676642e+00 6.162475635243859884e+00 6.336572451731417033e+00 6.804312398072513979e+00 6.923767472816652280e+00 6.923767472816652280e+00 7.014931711739372133e+00 6.985972213902450711e+00 7.039867350582629690e+00 6.900564511396508394e+00 6.642509620407967219e+00 6.539968083138199439e+00 6.257431302714644872e+00 6.054406532899473170e+00 5.805294218222217140e+00 5.402499102238694562e+00 5.083073994161797060e+00 5.018029756611210424e+00 4.871681067229701512e+00 4.695340776673041283e+00 4.434530155724427658e+00 4.434530155724427658e+00 4.067597684842629846e+00 3.768910148541362304e+00 3.648370887446227950e+00 3.646165552664580645e+00 3.371651547826621353e+00 3.316159113859052709e+00 3.323316341751076930e+00 3.277576705796180434e+00 3.272233779180771407e+00 3.261761816434032735e+00 3.219932536864618555e+00 3.168167249492013227e+00 3.163005169511837078e+00 3.135281101721567154e+00 3.135281101721567154e+00 3.189455402982962706e+00 3.225929225582482296e+00 3.230682085646326751e+00 3.197681629249767177e+00 3.173599451187468112e+00 3.127399684778328748e+00 3.110907537025838998e+00 3.065884926932364696e+00 3.076890249440521696e+00 3.082888442441848120e+00 3.242346297929996624e+00 3.242346297929996624e+00 3.219346736096685202e+00 3.144624353281096241e+00 3.074079484965544840e+00 2.956026463535222248e+00 2.772129658187213241e+00 2.650923985994619869e+00 2.521317724030283536e+00 2.594398848700248283e+00 2.380594264769252177e+00 1.847253451855863204e+00 1.341651216926681212e+00 1.341651216926681212e+00 9.355034141828235672e-01 7.992060886195633262e-01 7.992060886195633262e-01 7.245169703614855461e-01 -2.124509218092116014e-02 -7.971341648600721586e-01 -1.016904010755805832e+00 -1.327992899110965075e+00 -1.501417649883269867e+00 -1.601130168315905600e+00 -1.595665111167529959e+00 -1.601386511476774466e+00 -1.392424561985228237e+00 -1.338447439673723594e+00 -1.338447439673723594e+00 -1.543796909162870046e+00 -1.769334127445583604e+00 -1.883194620655404883e+00 -1.866308624040760034e+00 -2.078802264726713922e+00 -2.460321633844403166e+00 -3.290175208578351551e+00 -3.620052872415470357e+00 -3.979482572151097131e+00 -4.707511473363953591e+00 -5.202939350566278875e+00 -5.202939350566278875e+00 -5.579001833008662814e+00 -5.818571222880098759e+00 -6.058874015356129128e+00 -6.060887894889345873e+00 -6.293120502895726887e+00 -6.560286053694683872e+00 -6.916717307579986596e+00 -7.095759116920111964e+00 -7.393932605290803650e+00 -7.986588264370277024e+00 -8.531137948898214418e+00 -8.531137948898214418e+00 -8.925372879088632416e+00 -9.318661319264473164e+00 -9.318661319264473164e+00 -9.711949759440315688e+00
1.578893900675035322e+00 2.009364327335945166e+00 1.890712234715494322e+00 2.559105914735864129e+00 3.106377194333499681e+00 3.213135739457769535e+00 4.083851581211834336e+00 4.747547899826696671e+00 4.613578896713391941e+00 5.167401088539172349e+00 5.633882758889539488e+00 5.633882758889539488e+00 6.048501548509598535e+00 6.328022895645704082e+00 6.328022895645704082e+00 6.659367675326525848e+00 6.740669298952597366e+00 6.868460029564571023e+00 6.836374119209952305e+00 6.827566705107867229e+00 6.857914083391526638e+00 6.706335306508279359e+00 6.538088859389499241e+00 6.485144433010141540e+00 6.201356829453724018e+00 5.848026271460383896e+00 5.848026271460383896e+00 5.493681067724153877e+00 5.209467985811835788e+00 5.018029756611210424e+00 4.924808199493688754e+00 4.736084504836580500e+00 4.622971770451593798e+00 4.283712098168699356e+00 4.166488426910677667e+00 3.969370419090660462e+00 3.743263834492817743e+00 3.560384396276300656e+00 3.560384396276300656e+00 3.357510279129185093e+00 3.331124301240885099e+00 3.277576705796180434e+00 3.287477120699002775e+00 3.272681073502953453e+00 3.219932536864618555e+00 3.166138144279953437e+00 3.211523309256073766e+00 3.151920995437428985e+00 3.124038301032516340e+00 3.109041341335064601e+00 3.177040206551739132e+00 3.156156487671373689e+00 3.159893264940663471e+00 3.159893264940663471e+00 3.125683949269756567e+00 3.083279956536023381e+00 3.065884926932364696e+00 3.031365763246672174e+00 3.024824624440777932e+00 3.117356537570239894e+00 3.309142151392381326e+00 3.331950766093021432e+00 3.254996000912483201e+00 3.086253012626760661e+00 2.873766546487351192e+00 2.873766546487351192e+00 2.778554673569352040e+00 2.690850909819650916e+00 2.594398848700248283e+00 2.462471070421051067e+00 2.003204331951623285e+00 1.579002473396676542e+00 1.157204776083556652e+00 1.110890371280967459e+00 9.006683825485051198e-01 7.637416932854459439e-01 4.955036202383336086e-01 4.955036202383336086e-01 -3.119266160476207306e-01 -1.112290358377132860e+00 -1.327992899110965075e+00 -1.381249625223048838e+00 -1.498190831711947446e+00 -1.595665111167529959e+00 -1.534171381419796365e+00 -1.375776178894377200e+00 -1.326498625662571484e+00 -1.413322139878520733e+00 -1.525264759260850811e+00 -1.661351369391871113e+00 -1.866249797782168818e+00 -1.956358969725293218e+00 -1.956358969725293218e+00 -2.321608019231254261e+00 -3.087366108488688088e+00 -3.620052872415470357e+00 -3.899500929853925157e+00 -4.641519933382326712e+00 -4.928623100564347048e+00 -5.340877052468330000e+00 -5.402348316963031749e+00 -5.601621039854651762e+00 -5.847098208401257047e+00 -6.083623662966859413e+00 -6.083623662966859413e+00 -6.349090462559327186e+00 -6.753962345522397825e+00 -7.095759116920111964e+00 -7.267217364211306929e+00 -7.803724351088170863e+00 -8.177649036836758256e+00 -8.708064210814821848e+00 -8.891878306341018501e+00 -9.101352650990666149e+00 -9.494641091166506897e+00 -9.887929531342349421e+00
2.043764107987594336e+00 1.955250481073504965e+00 2.669226005587432837e+00 3.212630461296081208e+00 3.212630461296081208e+00 4.043787510353239689e+00 4.968080188325903812e+00 4.747547899826696671e+00 5.168374206430051743e+00 5.391564233770324677e+00 5.491509468838616570e+00 5.935053477240870734e+00 6.153208082936561851e+00 6.223677887818299226e+00 6.461009920019968433e+00 6.640371888163906888e+00 6.640371888163906888e+00 6.699737222144492854e+00 6.754026924509245688e+00 6.827566705107867229e+00 6.677757122447281368e+00 6.580032827177865862e+00 6.538088859389499241e+00 6.340027480668386062e+00 6.144647987037503256e+00 6.013328059970659112e+00 5.666905256466761465e+00 5.566852203085658424e+00 5.440939841872306282e+00 5.084894240940059262e+00 4.799606036382661145e+00 4.799606036382661145e+00 4.649564149489132880e+00 4.315573370157114397e+00 4.166488426910677667e+00 4.035753253184560130e+00 3.830371267266651003e+00 3.757222676582599341e+00 3.461283112227332204e+00 3.387925856925964929e+00 3.351340880831979341e+00 3.278470266308908698e+00 3.265987583676725592e+00 3.265987583676725592e+00 3.192637722812794454e+00 3.164953202177530400e+00 3.211523309256073766e+00 3.202763169658203957e+00 3.131237687798184233e+00 3.109041341335064601e+00 3.121883409424985878e+00 3.082042884791977855e+00 3.070411735301434852e+00 3.130927790576393033e+00 3.150802096012778719e+00 3.150802096012778719e+00 3.098869908426741038e+00 2.961386205094566293e+00 3.024824624440777932e+00 3.034511661901185597e+00 3.282042839951964552e+00 3.331950766093021432e+00 3.251572174963660355e+00 3.100171437637300631e+00 3.010343604467054845e+00 2.809242279201846770e+00 2.795668793120730022e+00 2.758591904264251049e+00 2.583468621953231015e+00 2.293279535642741784e+00 2.293279535642741784e+00 1.771662353104946019e+00 1.322034019469190858e+00 1.110890371280967459e+00 1.107213203345716712e+00 8.633018081870986737e-01 6.754917234344743893e-01 1.492138314874966176e-01 -6.502655838038305658e-02 -5.588978886056092943e-01 -1.221643187278808274e+00 -1.370412124598976433e+00 -1.370412124598976433e+00 -1.462777647121193958e+00 -1.451059454348087252e+00 -1.375776178894377200e+00 -1.310969573092248819e+00 -1.384859747165249733e+00 -1.525264759260850811e+00 -1.820852289475022312e+00 -1.959975921702294510e+00 -1.998441526825516901e+00 -2.124720850851589127e+00 -2.635678614467126035e+00 -2.635678614467126035e+00 -3.413453750395127884e+00 -4.194482020479181728e+00 -4.641519933382326712e+00 -4.738100045271949057e+00 -5.154921608225054186e+00 -5.402348316963031749e+00 -5.410228936596855220e+00 -5.660547826484158662e+00 -5.896862591115507257e+00 -6.120185489278787472e+00 -6.184941525561868048e+00 -6.570586908992716246e+00 -6.884414957910779620e+00 -7.442248411342291092e+00 -7.607235668185806432e+00 -7.983372483426273369e+00 -8.566723169561647921e+00 -9.102568451663906046e+00 -9.102568451663906046e+00 -9.453312194794730061e+00 -9.846600634970572585e+00
2.043764107987594336e+00 2.764997851131284268e+00 3.467273967720454486e+00 3.427403641806398227e+00 4.039263895080714484e+00 4.516919637313986158e+00 4.799146121318464076e+00 5.259971702356484258e+00 5.315039327913742895e+00 5.315039327913742895e+00 5.554176282509722284e+00 5.856697292991301040e+00 6.153208082936561851e+00 6.049441439118369956e+00 6.130103156183933422e+00 6.429998884657258884e+00 6.459109437339566107e+00 6.242150557555817159e+00 6.528383160973805666e+00 6.521834164868568706e+00 6.447957464118618809e+00 6.447957464118618809e+00 6.297784945260525902e+00 6.198531077758230090e+00 6.144647987037503256e+00 5.959627610910441575e+00 5.680922729883800315e+00 5.566852203085658424e+00 5.242410372066256485e+00 5.087096961180341381e+00 4.897126999572074979e+00 4.714531490380989176e+00 4.492678788310841220e+00 4.492678788310841220e+00 4.191445909619832655e+00 3.973188783374988819e+00 3.830371267266651003e+00 3.816267124650657649e+00 3.551273082435241868e+00 3.387925856925964929e+00 3.391583833291542227e+00 3.295923728946955400e+00 3.284504398111838253e+00 3.233117476890609243e+00 3.217177670148649860e+00 3.167571384557542835e+00 3.195120999999007783e+00 3.134531707434380365e+00 3.134531707434380365e+00 3.088515079157965637e+00 3.090258150213319510e+00 3.082042884791977855e+00 3.096196364821490299e+00 3.118345759496534253e+00 3.159255164401868043e+00 3.146229397175665188e+00 3.107478216586392783e+00 3.002032538573189857e+00 2.929488158466655001e+00 3.101496414622829434e+00 3.101496414622829434e+00 3.286298097957563336e+00 3.233367930711774196e+00 3.100171437637300631e+00 3.121887229119941765e+00 2.886487481454700799e+00 2.795668793120730022e+00 2.638629137826425275e+00 2.590087030816559999e+00 2.482705672101244154e+00 2.192706804279684007e+00 1.631662274854865480e+00 1.534323449510899717e+00 1.275588938387938409e+00 1.048178084510795305e+00 9.616180041607238493e-01 7.878832574339096340e-01 4.131707883977154272e-01 -2.705453436860671967e-01 -2.705453436860671967e-01 -1.116517143498181763e+00 -1.234316994839384840e+00 -1.362095701952355853e+00 -1.337109103807590849e+00 -1.367947527276377917e+00 -1.358636685522831122e+00 -1.338149786304217326e+00 -1.364698528019146373e+00 -1.512294926836057707e+00 -1.881136542507356957e+00 -2.094053990115120278e+00 -2.094053990115120278e+00 -2.189060651843799832e+00 -2.478584118520398061e+00 -2.892984165931292040e+00 -3.195770562493915001e+00 -4.027414171289504630e+00 -4.418629142584155289e+00 -4.858589605259957089e+00 -4.963188098940700677e+00 -5.198971303563860502e+00 -5.441657618793645845e+00 -5.689609695017021629e+00 -5.689609695017021629e+00 -5.950352431007619458e+00 -6.288049213850308128e+00 -6.570586908992716246e+00 -6.687405674135037614e+00 -7.211901664778046950e+00 -7.607235668185806432e+00 -7.757943427947795456e+00 -8.424164359400599267e+00 -8.801331658275511671e+00 -9.313258596986790039e+00 -9.509578080097330854e+00 -9.629291966696763794e+00
3.078897218931296642e+00 3.549737287271959474e+00 3.467273967720454486e+00 4.088800590311983285e+00 4.450522011440935621e+00 4.516919637313986158e+00 5.177899332968166846e+00 5.192187877066196222e+00 5.231454428551820968e+00 5.379102747376256488e+00 5.611946803604857870e+00 5.611946803604857870e+00 5.771821961273767343e+00 5.866742950388311506e+00 5.866742950388311506e+00 5.952821686021222192e+00 5.988981503125429207e+00 6.242150557555817159e+00 6.023370665977061833e+00 6.062899239432459453e+00 6.250022679963691985e+00 6.191591703070011832e+00 5.960049339983354955e+00 6.105217033100705848e+00 5.956896523129591614e+00 5.774607234783380783e+00 5.774607234783380783e+00 5.496233275315978162e+00 5.256442314653387626e+00 5.087096961180341381e+00 4.894677936566775855e+00 4.699950520632893536e+00 4.587269619746015437e+00 4.310461541428291632e+00 4.206963616456990351e+00 4.095436606305002947e+00 3.934652233870179927e+00 3.734181381763385321e+00 3.734181381763385321e+00 3.452010511662104264e+00 3.341077464249828655e+00 3.301904084099346104e+00 3.301904084099346104e+00 3.226653687565419482e+00 3.198230866301721154e+00 3.179029542238157813e+00 3.176197634564311478e+00 3.105049702227616670e+00 3.082984436613792845e+00 3.067988816980866673e+00 3.059558808765696636e+00 3.088148940150061250e+00 3.124654289130581297e+00 3.104706199826799740e+00 3.160366668954008862e+00 3.169578073533677376e+00 2.973782932956440028e+00 2.973782932956440028e+00 2.834151692492532071e+00 2.969110001398332699e+00 3.163316444927863902e+00 3.213528828696535555e+00 3.278113701530150248e+00 3.206404433899432860e+00 3.076505111394248537e+00 3.002980194066089847e+00 2.780825943207859918e+00 2.642221962301085192e+00 2.498284415185256790e+00 2.498284415185256790e+00 2.292655246549555770e+00 1.984711572749800146e+00 1.534323449510899717e+00 1.445795312500888663e+00 1.135352750887537843e+00 9.616180041607238493e-01 7.399328628342540792e-01 6.932593268815612220e-01 2.141926173138970768e-01 -4.649644986397841184e-01 -1.110525611562273030e+00 -1.110525611562273030e+00 -1.226000572192764038e+00 -1.321882388328310398e+00 -1.367947527276377917e+00 -1.333071686424363467e+00 -1.363906860426937095e+00 -1.364698528019146373e+00 -1.499325094411264825e+00 -1.903064962572733387e+00 -2.041844304906982988e+00 -2.221035928757885802e+00 -2.300232218669044482e+00 -2.250216731533376535e+00 -2.690415249767783568e+00 -3.549543111532889039e+00 -3.549543111532889039e+00 -4.234791285861553511e+00 -4.668651319752873619e+00 -4.963188098940700677e+00 -5.013926268488654969e+00 -5.249534968443888339e+00 -5.473997444567060278e+00 -5.710409999911886025e+00 -5.789401168782688067e+00 -6.020792588564409797e+00 -6.387687352691624021e+00 -6.873745447113069673e+00 -6.873745447113069673e+00 -7.399815652711050795e+00 -8.047471154731839604e+00 -8.424164359400599267e+00 -8.727269706770401925e+00 -9.341463895760739433e+00 -9.509578080097330854e+00 -9.807017803301839365e+00
4.132486518068699155e+00 3.767551735129262447e+00 4.287968598026397515e+00 4.497787813181457039e+00 4.497787813181457039e+00 4.717288574985937899e+00 5.160236463109953320e+00 5.192187877066196222e+00 5.163986650881914109e+00 5.305735995856426079e+00 5.437339498141064986e+00 5.598719803020070884e+00 5.446431328453384957e+00 5.468238754357733100e+00 5.660247364674370729e+00 5.749581211152761995e+00 5.518773428508586321e+00 5.748774368908476262e+00 5.788268454269648089e+00 5.819934096405458668e+00 5.819934096405458668e+00 5.803150578962158690e+00 5.795629497471285418e+00 5.937053602376586525e+00 5.754119990731944689e+00 5.641237189802095209e+00 5.585924112615746395e+00 5.439845873067904236e+00 5.255557640635567296e+00 5.089733448508642510e+00 4.784214665969461322e+00 4.702939032428100852e+00 4.535207924552262959e+00 4.305349712699467979e+00 4.162480605827971303e+00 4.162480605827971303e+00 4.047806270018297070e+00 3.799437957409561140e+00 3.607758455205405390e+00 3.539865409430240639e+00 3.393444461278020352e+00 3.313495914163493872e+00 3.285455107820628662e+00 3.224355671991644634e+00 3.224367281950305308e+00 3.171629698167238942e+00 3.200728353176620189e+00 3.200728353176620189e+00 3.063095344539616960e+00 3.087825386106799463e+00 3.059558808765696636e+00 3.096737877170719244e+00 3.146502349194993275e+00 3.104706199826799740e+00 3.201887844387665716e+00 3.171519004430686461e+00 3.116086524746044972e+00 2.871786447108782170e+00 2.753670601727692180e+00 2.753670601727692180e+00 3.044590049903762807e+00 3.260570215086478374e+00 3.260570215086478374e+00 3.290927604799669393e+00 3.177083163475021621e+00 3.002980194066089847e+00 2.897127934376962255e+00 2.678508226525322833e+00 2.596705439679888983e+00 2.440554621803306734e+00 2.368862034173633280e+00 2.317576393700153226e+00 1.909541405332261688e+00 1.344651866318266276e+00 1.344651866318266276e+00 1.127797133393234841e+00 1.035578524537514866e+00 6.932593268815612220e-01 5.344241241183872448e-01 -1.800157320152143137e-01 -8.387665261638632686e-01 -1.090350758298657796e+00 -1.111373753926278241e+00 -1.211440560493987295e+00 -1.302000452605226677e+00 -1.366873443231459095e+00 -1.366873443231459095e+00 -1.440380133818955688e+00 -1.694661510472356358e+00 -1.903064962572733387e+00 -2.135733822363755863e+00 -2.263998216072238279e+00 -2.300232218669044482e+00 -2.387859381235659662e+00 -2.745767814955925701e+00 -3.058844215951721957e+00 -3.849663028210036142e+00 -3.995447940142528687e+00 -4.388092729953851467e+00 -4.759924792131554838e+00 -5.059465761636857017e+00 -5.059465761636857017e+00 -5.300607237267108474e+00 -5.556068688366727848e+00 -5.789401168782688067e+00 -5.875313835082003777e+00 -6.256510336065599809e+00 -6.533635930736651609e+00 -7.051957935752049877e+00 -7.251003197007269918e+00 -7.553838728113969836e+00 -8.255855055037224943e+00 -8.924059299928472910e+00 -8.924059299928472910e+00 -9.362390179685599279e+00 -9.612217322482681681e+00
4.822707216750172776e+00 4.822707216750172776e+00 5.078933232966737599e+00 4.996831419826039955e+00 4.872166811517503859e+00 5.062133842354703539e+00 5.131691669243443776e+00 5.124404051775908187e+00 5.170869257164042665e+00 5.234859351924664672e+00 5.315847217416056480e+00 5.342242264300313792e+00 5.264996090303082354e+00 5.264996090303082354e+00 5.241829154787160938e+00 5.273129431776171216e+00 5.518773428508586321e+00 5.260440901650678569e+00 5.316678891255387285e+00 5.583730685943402605e+00 5.615426984945775857e+00 5.450167209958550529e+00 5.629341353455206587e+00 5.675576126994943849e+00 5.610635517154610064e+00 5.610635517154610064e+00 5.507596518800776053e+00 5.272900044495359317e+00 5.255557640635567296e+00 5.086150678125747504e+00 4.746890731070886105e+00 4.702939032428100852e+00 4.426536815459673591e+00 4.348118294549696117e+00 4.234399406991451897e+00 4.173218482445523847e+00 4.136697157791950907e+00 3.986622495285697454e+00 3.668997549511849421e+00 3.487805431709081638e+00 3.487805431709081638e+00 3.339703191692155571e+00 3.294781319728438351e+00 3.224355671991644634e+00 3.227187214085168065e+00 3.216582381703851468e+00 3.164451023536867247e+00 3.111103451781866980e+00 3.146776357289351012e+00 3.117779585604516512e+00 3.108051018173302982e+00 3.150801690979735614e+00 3.150801690979735614e+00 3.155437987138660194e+00 3.230545358704207004e+00 3.171519004430686461e+00 3.137978262025087339e+00 2.914189248877052663e+00 2.780372967561443698e+00 2.889344980668077767e+00 2.994352853173507079e+00 3.137946123174399471e+00 3.234565487635838732e+00 3.239547570183691327e+00 3.239547570183691327e+00 3.019296410277644505e+00 2.767029729253185355e+00 2.678508226525322833e+00 2.581023478538597704e+00 2.442058267832102558e+00 2.368862034173633280e+00 2.156265882464934336e+00 1.915360403405794942e+00 1.726647486414514487e+00 1.266700096870208014e+00 1.193761978117446443e+00 1.050621664049674386e+00 8.864845000891194982e-01 2.884242419122160506e-01 2.884242419122160506e-01 -4.522614059388500585e-01 -1.027101352158380498e+00 -1.111373753926278241e+00 -1.298649642465371290e+00 -1.431471258601989316e+00 -1.405973139890206225e+00 -1.492871165314919368e+00 -1.670471101490997423e+00 -1.637430983760970404e+00 -1.959168462506334585e+00 -2.201360712815596532e+00 -2.201360712815596532e+00 -2.247221544433312790e+00 -2.425184408324473129e+00 -2.745767814955925701e+00 -2.900324821297337152e+00 -3.577432542616020505e+00 -3.995447940142528687e+00 -4.472422640826703599e+00 -4.553978736670991623e+00 -4.841352071921730449e+00 -5.087554906453082282e+00 -5.372950141506867894e+00 -5.372950141506867894e+00 -5.652532194785007569e+00 -5.984633233185878254e+00 -6.256510336065599809e+00 -6.412889114528055323e+00 -6.930164085350643433e+00 -7.251003197007269918e+00 -7.389384899834542608e+00 -8.017324166831826915e+00 -8.625425890116940053e+00 -9.024352908659102113e+00 -9.055444398948941043e+00 -9.320820016922642282e+00
4.980784623427594759e+00 5.129916655363071953e+00 5.233402659070235607e+00 5.233402659070235607e+00 5.151744816539889804e+00 5.056385201369733906e+00 5.131691669243443776e+00 5.008239363642021935e+00 5.025842044416384269e+00 5.234859351924664672e+00 5.266051453016187267e+00 5.092052712334204756e+00 5.133345012639469296e+00 5.097147536459277539e+00 4.925499092746287388e+00 5.068429519273241368e+00 5.128443638403666682e+00 5.142137721690936303e+00 5.142137721690936303e+00 5.219083264611601436e+00 5.284210023317709393e+00 5.450167209958550529e+00 5.294174253439912547e+00 5.350294621864888356e+00 5.462037424920870521e+00 5.391289992835778477e+00 5.251872499370600522e+00 5.343917946937724928e+00 5.073625057409719474e+00 4.917344388969088875e+00 4.917344388969088875e+00 4.611812098798873549e+00 4.415578135982013208e+00 4.348118294549696117e+00 4.241503795383753328e+00 4.173760839424996760e+00 4.136697157791950907e+00 3.880597273931403191e+00 3.793763479019722773e+00 3.641708336764742260e+00 3.441304042701835986e+00 3.372098901498518320e+00 3.372098901498518320e+00 3.273455859096987552e+00 3.293847504286910421e+00 3.216582381703851468e+00 3.242992347923219665e+00 3.260072976331960248e+00 3.146776357289351012e+00 3.240915880563765228e+00 3.212858535438698482e+00 3.160322949280194749e+00 3.234655772664744688e+00 3.250012350265593319e+00 3.240126932727696918e+00 3.260101506414079697e+00 3.086055457949214098e+00 3.086055457949214098e+00 2.896460578119679941e+00 2.939474144147260937e+00 2.994352853173507079e+00 3.051747205000683749e+00 3.152203513821170144e+00 3.242447320493071494e+00 3.143296320273767819e+00 2.975067601436127696e+00 2.821532073400829788e+00 2.633476501023368499e+00 2.501556577404071557e+00 2.501556577404071557e+00 2.390813894291754949e+00 2.027824956422070279e+00 1.915360403405794942e+00 1.770135155932584192e+00 1.403955340514356331e+00 1.193761978117446443e+00 1.019103566511780246e+00 9.564833602540379065e-01 7.564914625178058571e-01 -7.869297789041385105e-03 -8.752852637349488596e-01 -1.006394316431803437e+00 -1.152521979448587475e+00 -1.429246403747519878e+00 -1.560942064598751955e+00 -1.539670983550678329e+00 -1.674875766808078037e+00 -1.845238781982743159e+00 -1.845238781982743159e+00 -2.050759005762528009e+00 -2.206133502418841541e+00 -2.224954406495934567e+00 -2.250405221596233574e+00 -2.334518071545780060e+00 -2.575716930344872591e+00 -3.129564277882009193e+00 -3.308201800479468879e+00 -3.723500707003000620e+00 -4.266912698796556214e+00 -4.643294244350359534e+00 -4.643294244350359534e+00 -4.932585308663441026e+00 -5.229621300817452578e+00 -5.410868181790878140e+00 -5.514781234056315817e+00 -5.862477436915042972e+00 -6.138620916604544675e+00 -6.605234961464491406e+00 -6.806589505667949069e+00 -7.102190741303489929e+00 -7.651278288812705775e+00 -8.198430200856524408e+00 -8.198430200856524408e+00 -8.707241921557464792e+00 -9.058244038398443720e+00 -9.320820016922642282e+00
4.875723169979213623e+00 4.942293198734207138e+00 5.203894743956524849e+00 5.041187267581058506e+00 4.934474817410139380e+00 4.969325772593131241e+00 4.941159924419694427e+00 4.942801643692880553e+00 4.942801643692880553e+00 4.991799930791976259e+00 4.931358235329241779e+00 5.092052712334204756e+00 4.820199002083323414e+00 4.790795826941176117e+00 4.925499092746287388e+00 4.941813702084143500e+00 4.837724059037137536e+00 4.995203419007760104e+00 5.044584808476352045e+00 5.106464386755869000e+00 5.106464386755869000e+00 5.128516751563900300e+00 5.145175522413824254e+00 5.145175522413824254e+00 5.151245857219263868e+00 5.123553266005196782e+00 5.251872499370600522e+00 5.130916553418310322e+00 4.909265447406292893e+00 4.916434317761188666e+00 4.666187581522477146e+00 4.533004845042908570e+00 4.490054063331273326e+00 4.327158526630070057e+00 4.198107861909737615e+00 4.198107861909737615e+00 4.158787467280429695e+00 4.007224338811543163e+00 3.793763479019722773e+00 3.743898230535946503e+00 3.521400790353093502e+00 3.402781826699551093e+00 3.354378441178003101e+00 3.335822902703683646e+00 3.307330559706791462e+00 3.306464064213275211e+00 3.278956571914699136e+00 3.278956571914699136e+00 3.266917099896639698e+00 3.285058528293298252e+00 3.272290692616766083e+00 3.272290692616766083e+00 3.316095339211142079e+00 3.334140795689050307e+00 3.307332287763371959e+00 3.348684008397472489e+00 3.198526388334535397e+00 3.047279301349240299e+00 2.919296415219135632e+00 2.989603307626444106e+00 2.992492345388849895e+00 3.067717898219349593e+00 3.071625352720539937e+00 3.173657939040210429e+00 3.109466046505708015e+00 2.745936212424696876e+00 2.745936212424696876e+00 2.528059285768826658e+00 2.259288227323875020e+00 2.365854944052347086e+00 2.143440919708406778e+00 2.027673609796426746e+00 1.928031865005991996e+00 1.678725729304219705e+00 1.529066273113534713e+00 1.285093424087657255e+00 1.082830326121142051e+00 8.798991637147843825e-01 8.798991637147843825e-01 1.035290025020303983e-01 -8.131279997789847558e-01 -1.006394316431803437e+00 -1.247785816925029101e+00 -1.530111046796993612e+00 -1.560942064598751955e+00 -1.688394800873653789e+00 -1.856880368301236928e+00 -1.856387436230530152e+00 -2.041266499634078357e+00 -2.204984130272176213e+00 -2.204984130272176213e+00 -2.296214989342661550e+00 -2.383131893555828551e+00 -2.334518071545780060e+00 -2.470246462957078393e+00 -2.906254612873994780e+00 -3.308201800479468879e+00 -3.468513311801434185e+00 -4.033872339842113242e+00 -4.347762852467885963e+00 -4.714848703187100476e+00 -4.769032661817596441e+00 -4.965918954750112135e+00 -5.265667675215027543e+00 -5.596283133336652504e+00 -5.596283133336652504e+00 -6.020903937144385765e+00 -6.478296622809862626e+00 -6.806589505667949069e+00 -6.953378285599708164e+00 -7.453181855853138416e+00 -7.804649951624508475e+00 -8.336337445346195807e+00 -8.399319011458269202e+00 -8.745479086636771981e+00 -9.009470602532914540e+00
4.878944559274268400e+00 4.878944559274268400e+00 4.972702262305222831e+00 4.843953966349600293e+00 4.934474817410139380e+00 4.765051920550115838e+00 4.712058277857037680e+00 4.810753077272408973e+00 4.808315939800889005e+00 4.739218466474032887e+00 4.819840862342554821e+00 4.738919227743581430e+00 4.644358334491921703e+00 4.644358334491921703e+00 4.626017000287396819e+00 4.637028805592251501e+00 4.837724059037137536e+00 4.729875269056239340e+00 4.768716334062305329e+00 4.796172560985643152e+00 4.985239128089355987e+00 4.806866293169248294e+00 4.809430256384397140e+00 4.991929084107242787e+00 4.963650160439031289e+00 4.838319212613078513e+00 5.013184562456302729e+00 4.973328653348642270e+00 4.757305494406300461e+00 4.757305494406300461e+00 4.627365597895881422e+00 4.445830518580922153e+00 4.367323391297468937e+00 4.291039320280209068e+00 4.209077646298135633e+00 4.176770848262194136e+00 4.180886234045719796e+00 4.130666251445999748e+00 3.937746591171804145e+00 3.678785341977821588e+00 3.608779195172121312e+00 3.465860461706946172e+00 3.410887878486099645e+00 3.387473905328414858e+00 3.387473905328414858e+00 3.404490636408669779e+00 3.341151271523907340e+00 3.357840717242319251e+00 3.387057842503928384e+00 3.426602344732570415e+00 3.321715275637288745e+00 3.298708580845429506e+00 3.391568131706268030e+00 3.344586713392527777e+00 3.383107834748748211e+00 3.317086950110936350e+00 3.317086950110936350e+00 3.164895478843046561e+00 3.024865990345737110e+00 2.989603307626444106e+00 2.990631837604192267e+00 2.972483302506792491e+00 3.071625352720539937e+00 3.144065226589451978e+00 3.075612776875041199e+00 2.935065042731951124e+00 2.586422017721281108e+00 2.285036586586893126e+00 2.285036586586893126e+00 2.121119011391989329e+00 1.947725877358549074e+00 1.947725877358549074e+00 2.006529272123861674e+00 1.780005401309036506e+00 1.529066273113534713e+00 1.427963403362598749e+00 1.260071239074031846e+00 1.039912838356706448e+00 6.227517900070289603e-01 2.496992241404432655e-01 -3.381808733608502315e-01 -1.257741757796081439e+00 -1.494007128989748523e+00 -1.494007128989748523e+00 -1.673449158287589000e+00 -1.844752928844786366e+00 -1.856880368301236928e+00 -2.025839878491733526e+00 -2.223925102313377700e+00 -2.222492313548815712e+00 -2.378996973615192800e+00 -2.536109718488598119e+00 -2.474131258755619012e+00 -2.387623953793047704e+00 -2.601301751227578229e+00 -2.601301751227578229e+00 -3.055978866411075412e+00 -3.654261658060141027e+00 -4.033872339842113242e+00 -4.140396563493450088e+00 -4.516790875615729561e+00 -4.769032661817596441e+00 -5.074935153709524194e+00 -5.161250515019571772e+00 -5.376983115032997418e+00 -5.740321640644207690e+00 -6.173943955940927708e+00 -6.173943955940927708e+00 -6.680703989309027868e+00 -7.110751898271443494e+00 -7.110751898271443494e+00 -7.592343294062130710e+00 -8.039124819364761976e+00 -8.399319011458269202e+00 -8.432882647278351129e+00 -8.695882340940848110e+00
4.731482095430266099e+00 4.814121736661846285e+00 4.835455252361066769e+00 4.661824448668001608e+00 4.717204818280389844e+00 4.627933329853790134e+00 4.616542776064389564e+00 4.616542776064389564e+00 4.629575296899417047e+00 4.528009419036446381e+00 4.528009419036446381e+00 4.352755280719254216e+00 4.362765240762620067e+00 4.489281110567809208e+00 4.322553595592815157e+00 4.332243909100359502e+00 4.519208659504463377e+00 4.593354403471318292e+00 4.497568226280380443e+00 4.602144543252061126e+00 4.686268232861003469e+00 4.620906812980466682e+00 4.620906812980466682e+00 4.659597543502124850e+00 4.677020032885625511e+00 4.838319212613078513e+00 4.746524513120279565e+00 4.770128611306395428e+00 4.738759227624599113e+00 4.605882339708927020e+00 4.461801393213089106e+00 4.464534402470055063e+00 4.319068646612924667e+00 4.227698073766504194e+00 4.227698073766504194e+00 4.179780857099392399e+00 4.160716447981313237e+00 4.130666251445999748e+00 4.081729703323885516e+00 3.787610837839735289e+00 3.608779195172121312e+00 3.478681505798586482e+00 3.466557914752442127e+00 3.387736740393935353e+00 3.489111815398556971e+00 3.390151483243738273e+00 3.390151483243738273e+00 3.427901613104396006e+00 3.486777640849805238e+00 3.486777640849805238e+00 3.435802560393578009e+00 3.403548190599973822e+00 3.391568131706268030e+00 3.431812258989741071e+00 3.458707671564780650e+00 3.429203832750101544e+00 3.310997318719856697e+00 3.276101860449448733e+00 3.161666752718561124e+00 3.039732471105627720e+00 2.935787036262734517e+00 2.935787036262734517e+00 2.991047191619908840e+00 3.099779363435396284e+00 3.075612776875041199e+00 2.897242897345322366e+00 2.457735941452941830e+00 2.336159631914827450e+00 2.107837870850293172e+00 1.881808011316639773e+00 1.920819437717395051e+00 1.953982384186891297e+00 1.955923015119525932e+00 1.955923015119525932e+00 1.682749072493896048e+00 1.407913119125261847e+00 1.260071239074031846e+00 1.102046269843506954e+00 7.840363738423618001e-01 2.496992241404432655e-01 -8.316481757873231961e-01 -1.248645562300449319e+00 -1.406663855867507973e+00 -1.567284666288795369e+00 -1.680026119456362599e+00 -1.784623839818236579e+00 -1.945396433425941485e+00 -2.018508746462356118e+00 -2.018508746462356118e+00 -2.231643191006474680e+00 -2.519059703946969098e+00 -2.536109718488598119e+00 -2.541184856541725434e+00 -2.415427555900427237e+00 -2.416043090004217575e+00 -2.780087008660327985e+00 -2.997702054374736580e+00 -3.312059080911696540e+00 -3.825994290917587470e+00 -4.277853016494149507e+00 -4.277853016494149507e+00 -4.656048580590941732e+00 -5.005731507792010149e+00 -5.161250515019571772e+00 -5.322205200003384817e+00 -5.679421768212999488e+00 -5.924888052659600390e+00 -6.361405220815630202e+00 -6.545859760768651725e+00 -6.814942347507189524e+00 -7.254094524727657145e+00 -7.679797369523408079e+00 -7.679797369523408079e+00 -8.088612109157354624e+00 -8.474122088163854372e+00 -8.695882340940848110e+00
4.660853869835285934e+00 4.587805112912481498e+00 4.630079445652057757e+00 4.661824448668001608e+00 4.484681997412626409e+00 4.420587387653760025e+00 4.483670376027145466e+00 4.591602819675088654e+00 4.429501965424562648e+00 4.492235438177283768e+00 4.292058474243727773e+00 4.217277195081525321e+00 4.217277195081525321e+00 4.225952201386494522e+00 4.228222944195569433e+00 4.332243909100359502e+00 4.258867891102904757e+00 4.362924780705010441e+00 4.497568226280380443e+00 4.492196848903770245e+00 4.405662922707184848e+00 4.492743759592674024e+00 4.485239642235727686e+00 4.377802588800842720e+00 4.534843916625282745e+00 4.553615937946365655e+00 4.639386606026160820e+00 4.639386606026160820e+00 4.562078653616871371e+00 4.442086867837859110e+00 4.461801393213089106e+00 4.362100576315593337e+00 4.246047691085911069e+00 4.243028159929341570e+00 4.195536382742230508e+00 4.141847811828490045e+00 4.185488326319694252e+00 4.199998267981878364e+00 3.940955997982262815e+00 3.940955997982262815e+00 3.684187654868328554e+00 3.537406202933116361e+00 3.466557914752442127e+00 3.465954903406991860e+00 3.567971685767827417e+00 3.501628166750221816e+00 3.422650685111238822e+00 3.500934095351311282e+00 3.489234819158186340e+00 3.539867846081554692e+00 3.468572581758858853e+00 3.468572581758858853e+00 3.454760452778208091e+00 3.507399032252910498e+00 3.458707671564780650e+00 3.501137515367985564e+00 3.410627844108999884e+00 3.276101860449448733e+00 3.277401303636269247e+00 3.147942869881902972e+00 3.032460657508364577e+00 2.937443867382222074e+00 2.958534466012126440e+00 3.031595054622052032e+00 3.012030310605216421e+00 2.687924542613026713e+00 2.687924542613026713e+00 2.348857583718671371e+00 2.078642392092105329e+00 1.881808011316639773e+00 1.898558982225121206e+00 1.912679738680321151e+00 1.939294942201350791e+00 1.861336641196005948e+00 1.766750267272485964e+00 1.604873098554505439e+00 1.383847040374948767e+00 9.964799436223106266e-01 9.964799436223106266e-01 3.323385223641224240e-01 -7.190797827806858500e-01 -1.248645562300449319e+00 -1.354564580975691213e+00 -1.565072341586979388e+00 -1.680026119456362599e+00 -1.879598094450897205e+00 -1.956870001000453829e+00 -1.850196858898889962e+00 -1.977325073280729706e+00 -2.206383223067852839e+00 -2.206383223067852839e+00 -2.344377596363463212e+00 -2.447458746959403353e+00 -2.357651962051741101e+00 -2.357651962051741101e+00 -2.687549588185194072e+00 -3.191221959376985495e+00 -3.191221959376985495e+00 -3.694361314119911199e+00 -4.186257904784899786e+00 -4.430109247220187285e+00 -4.577010409575318128e+00 -4.960029737293141672e+00 -5.135006500568328747e+00 -5.459264242005605006e+00 -5.630193587229722851e+00 -5.856644542636123774e+00 -6.261443088912695742e+00 -6.659305854589290696e+00 -6.659305854589290696e+00 -7.052004354927716712e+00 -7.458046627469756551e+00 -7.778244585338767614e+00 -7.846331562215190125e+00 -8.214949601621587050e+00 -8.531558212017976928e+00
4.482744080029931411e+00 4.315593295618459280e+00 4.467294491701321313e+00 4.394961757888110832e+00 4.278245046550460451e+00 4.278245046550460451e+00 4.227401676828686838e+00 4.274787388522721443e+00 4.429501965424562648e+00 4.251029898282343567e+00 4.100072582392889409e+00 4.122099236865777172e+00 4.151517887351441338e+00 4.031248525760741330e+00 4.115576625938586197e+00 4.143943103111833892e+00 4.255615665514537405e+00 4.255615665514537405e+00 4.298710237006659440e+00 4.264748271156880932e+00 4.405662922707184848e+00 4.229555660837038822e+00 4.233396922488038783e+00 4.377802588800842720e+00 4.389389273217568110e+00 4.270704415117519304e+00 4.450596216011199147e+00 4.488370932391293699e+00 4.402318507856000096e+00 4.402318507856000096e+00 4.327058655278639421e+00 4.279568769258666805e+00 4.246047691085911069e+00 4.147951734945495517e+00 4.114458480980755617e+00 4.141847811828490045e+00 4.137699505488187768e+00 4.121151022237322437e+00 4.067348393217636193e+00 3.818899978577434684e+00 3.725194059597050078e+00 3.602801178226343382e+00 3.554761639909367332e+00 3.551820845421920225e+00 3.551820845421920225e+00 3.593423356579838135e+00 3.539167972986933641e+00 3.500934095351311282e+00 3.559782280286276634e+00 3.599527049233807841e+00 3.514001774097998521e+00 3.467470367640651752e+00 3.507018959611415632e+00 3.520853404606426373e+00 3.541202379265684375e+00 3.501589404118779392e+00 3.501589404118779392e+00 3.378377949296142990e+00 3.271515158336448792e+00 3.147942869881902972e+00 3.157167916634725735e+00 2.980814321592709870e+00 2.973563860226335898e+00 3.027323909410843061e+00 2.925202261550130967e+00 2.751461265195552119e+00 2.551279689037963205e+00 2.253748986964464684e+00 2.148729842733891893e+00 1.973623247861532981e+00 1.886064535159291733e+00 1.899531482017979389e+00 1.926146685539008807e+00 1.848690855818471590e+00 1.741716663061883441e+00 1.741716663061883441e+00 1.544307054037275195e+00 1.101612090239669994e+00 7.934175531562355221e-01 4.549653328217876380e-01 -6.184122913991765280e-01 -1.110085139438705459e+00 -1.450118563717596620e+00 -1.607458794157864856e+00 -1.722412572027248068e+00 -1.918160627176713540e+00 -1.674553839306045955e+00 -1.674553839306045955e+00 -1.703952138629059476e+00 -1.914991710450174578e+00 -2.168113142841239238e+00 -1.984596593773504392e+00 -2.097800566441470949e+00 -2.336597450514667607e+00 -2.437493627989939071e+00 -2.601766612401542389e+00 -2.877164644010458794e+00 -3.362907032860661616e+00 -3.887421346602416339e+00 -3.887421346602416339e+00 -4.346840503336667716e+00 -4.732788608451667933e+00 -4.960029737293141672e+00 -5.116626137846352229e+00 -5.418377036925721590e+00 -5.630193587229722851e+00 -5.785778983181086410e+00 -6.161480957009761283e+00 -6.409186378168840292e+00 -6.749595200200318779e+00 -6.868248054636071132e+00 -7.173357144874386471e+00 -7.547325754151412269e+00 -7.914418539091612637e+00 -7.914418539091612637e+00 -8.280130394770989000e+00
4.201169794710681415e+00 4.315593295618459280e+00 4.322172492590464543e+00 4.087460485153098233e+00 4.198648894533077325e+00 4.133763821794561366e+00 4.125171576463080747e+00 4.125171576463080747e+00 4.161823191375182418e+00 4.092221388055253151e+00 4.092221388055253151e+00 3.946617617083167495e+00 3.953128583299961640e+00 4.031248525760741330e+00 3.919589064685873758e+00 3.954049735170260149e+00 4.069607460144544220e+00 4.168749170960506234e+00 4.086315651175105756e+00 4.123264792396378553e+00 4.144085257974417402e+00 4.102108203888496618e+00 4.102108203888496618e+00 4.118860146428005464e+00 4.102617888134753699e+00 4.270704415117519304e+00 4.152516087637899922e+00 4.200141214971708337e+00 4.343454927149476674e+00 4.287885393223811903e+00 4.179198926037047457e+00 4.163868925867666881e+00 4.158074965836487280e+00 4.065640899762509974e+00 4.040930924804764679e+00 4.091719623353112567e+00 4.087883319382706659e+00 4.004829388504141718e+00 4.004829388504141718e+00 3.787200539565346524e+00 3.651409539945285054e+00 3.604356128390417524e+00 3.644623854967165677e+00 3.640966455376378086e+00 3.632213708311591294e+00 3.661244830563806119e+00 3.650905419927261697e+00 3.580984501978591528e+00 3.649832785275415326e+00 3.659302125979039921e+00 3.582996558722476799e+00 3.525593994585640711e+00 3.610347242522377265e+00 3.610347242522377265e+00 3.621821803734317946e+00 3.588198742901941074e+00 3.507299581304606395e+00 3.485585996729933189e+00 3.388974409542864219e+00 3.265820146467484086e+00 3.122560984046573118e+00 3.043472737583273080e+00 2.930247227966466639e+00 2.956439838633705186e+00 2.797882415685164492e+00 2.797882415685164492e+00 2.649926391691099337e+00 2.323836437606251693e+00 2.148729842733891893e+00 2.020614451965340841e+00 1.898360148091021493e+00 1.899531482017979389e+00 1.925230853720216739e+00 1.836045070440937232e+00 1.784538308455531741e+00 1.764372255891105912e+00 1.440453407273585951e+00 1.440453407273585951e+00 8.272140861847419036e-01 -6.849326179106579593e-03 -6.184122913991765280e-01 -9.097426394123071525e-01 -1.438445646015112933e+00 -1.607458794157864856e+00 -1.764799024598133537e+00 -1.956723159902529652e+00 -1.968343568574965730e+00 -1.546084816372066850e+00 -1.432687755856874245e+00 -1.678227797364777896e+00 -1.785013949127336907e+00 -1.859003682368273402e+00 -1.859003682368273402e+00 -2.018263208871063696e+00 -2.352383802512452604e+00 -2.601766612401542389e+00 -2.775950851195334579e+00 -3.220534790977811035e+00 -3.556176271849473380e+00 -4.087063257337880451e+00 -4.258504698995828619e+00 -4.496141759952203998e+00 -4.912122580678269124e+00 -5.229906554934821372e+00 -5.229906554934821372e+00 -5.580965406246444438e+00 -5.917421648712894999e+00 -6.161480957009761283e+00 -6.260373913068312035e+00 -6.566572531393651602e+00 -6.868248054636071132e+00 -7.246167919157359805e+00 -7.318978693440332250e+00 -7.615412731027835669e+00 -7.997232816400859257e+00 -8.347803496857114425e+00
3.915774822132274124e+00 4.043381478324437062e+00 4.016063007958956987e+00 3.912615791653529129e+00 3.912615791653529129e+00 3.841234525019368462e+00 3.859996839073281283e+00 4.016002134042134131e+00 3.886575425113518722e+00 3.836258153346771671e+00 3.903367169287314198e+00 3.851426427353811022e+00 3.759291195812792363e+00 3.837911682437048722e+00 3.814263963449219474e+00 3.886873607558160693e+00 3.886873607558160693e+00 3.974573561216003359e+00 3.928375451305507138e+00 4.037299693409992507e+00 3.882507593241650401e+00 3.864807274734189502e+00 3.982165884584549786e+00 3.869910650734874391e+00 3.815905254435678629e+00 3.987792892288672064e+00 4.053490075263397330e+00 3.915530455921737207e+00 4.051385869504480652e+00 4.106174430742838055e+00 4.103984769849323477e+00 4.103984769849323477e+00 4.070102240587063491e+00 3.975558281967551011e+00 4.040930924804764679e+00 4.041591434877735090e+00 4.051029849987875409e+00 4.030751986324428771e+00 3.847194798356483147e+00 3.747422954796439942e+00 3.723593968971163015e+00 3.658861308355585429e+00 3.680033739851435559e+00 3.680033739851435559e+00 3.695811160688381669e+00 3.671053038659846113e+00 3.650905419927261697e+00 3.672025654109494219e+00 3.729057656545520238e+00 3.659302125979039921e+00 3.600863553197459765e+00 3.583717621530629227e+00 3.562394483888299490e+00 3.632761129076667928e+00 3.660264664572464355e+00 3.660264664572464355e+00 3.603966095778328604e+00 3.477091786429448383e+00 3.477091786429448383e+00 3.385387926065681619e+00 3.245841995916115330e+00 3.043472737583273080e+00 2.926567085006230418e+00 2.887428212904122216e+00 2.838374212495045512e+00 2.704367238636465220e+00 2.676299691447916906e+00 2.527844826222667152e+00 2.188619695908478491e+00 2.013498121977591371e+00 2.013498121977591371e+00 1.952864761831658580e+00 1.902355854552326031e+00 1.836045070440937232e+00 1.950461881688766885e+00 2.015714144259816543e+00 1.739116512698880790e+00 1.239160415047562580e+00 1.250009202849452494e+00 6.844855108428816726e-01 -4.323501527665456479e-01 -1.218306260710353639e+00 -1.218306260710353639e+00 -1.559704571728639300e+00 -1.926270608082570224e+00 -1.956723159902529652e+00 -1.921679021718700309e+00 -1.295848453064016637e+00 -1.432687755856874245e+00 -1.575465404819364146e+00 -1.405739834598805915e+00 -1.632493434064933524e+00 -1.782698315748186602e+00 -1.949517141608906323e+00 -2.128504437585737818e+00 -2.509238389964630667e+00 -2.942915408583015591e+00 -2.942915408583015591e+00 -3.410194151605022483e+00 -3.956317722178021690e+00 -4.258504698995828619e+00 -4.415273110329090755e+00 -4.843631237132518308e+00 -5.085501511712371858e+00 -5.378563048594673823e+00 -5.527905274206410979e+00 -5.732389212154344271e+00 -6.028220034136657191e+00 -6.348032868753489488e+00 -6.348032868753489488e+00 -6.684491754344425551e+00 -7.072132006072695987e+00 -7.318978693440332250e+00 -7.430272314703710634e+00 -7.822982092838826951e+00 -8.121969456099463969e+00
3.915774822132274124e+00 3.771169661030414844e+00 3.709953523327448988e+00 3.793295654455178134e+00 3.726223350167351178e+00 3.575165638436120119e+00 3.677973677917608430e+00 3.755650281283301251e+00 3.736286802959277509e+00 3.736286802959277509e+00 3.706302376830362455e+00 3.672650553182389643e+00 3.759291195812792363e+00 3.645877270821237026e+00 3.626432890870292525e+00 3.764417287911062004e+00 3.864504204294446854e+00 3.788222014514477820e+00 3.873921065343552073e+00 3.814247348981111507e+00 3.704218864962345759e+00 3.704218864962345759e+00 3.735353169679858976e+00 3.727880312497254600e+00 3.815905254435678629e+00 3.737910268277230053e+00 3.816661716707976382e+00 3.915530455921737207e+00 3.938412748140573072e+00 3.995922690484929873e+00 4.029863888467170696e+00 4.047188666081128261e+00 4.088969065333547981e+00 3.964753082913784699e+00 3.976942258293853172e+00 4.048226981999141216e+00 4.048226981999141216e+00 3.951480256418802739e+00 3.820208704000966904e+00 3.747422954796439942e+00 3.747974021784546750e+00 3.728371969055519042e+00 3.718137233068722125e+00 3.730389612953523670e+00 3.767075358271778196e+00 3.730190183035226426e+00 3.741920656979192739e+00 3.704566681429554365e+00 3.704566681429554365e+00 3.739297105634494578e+00 3.661870775763583552e+00 3.583717621530629227e+00 3.615557678184792678e+00 3.705811152827187982e+00 3.702441228202951962e+00 3.655912689804946325e+00 3.662224492529964515e+00 3.592794044163723388e+00 3.490622139994318474e+00 3.400716606691717825e+00 3.400716606691717825e+00 3.130104861679054995e+00 2.891760154567494912e+00 2.887428212904122216e+00 2.778244486625171206e+00 2.678278358966578399e+00 2.676299691447916906e+00 2.387480093539795512e+00 2.312637762471207559e+00 2.201323125486451815e+00 2.030487661790098208e+00 2.084727211155619209e+00 1.972971416706874592e+00 1.981796768210064563e+00 2.041082589166227645e+00 2.041082589166227645e+00 1.895820438310798606e+00 1.384315299684234946e+00 1.250009202849452494e+00 6.966814998937341796e-01 -1.933067534424246781e-01 -8.218133321465344032e-01 -1.360272156705077506e+00 -1.472091580830177993e+00 -1.687421192008700555e+00 -1.897501132199381324e+00 -1.326418621709128720e+00 -1.326418621709128720e+00 -1.213749811707939052e+00 -1.326902387295458841e+00 -1.405739834598805915e+00 -1.378127227015405465e+00 -1.644735232453671259e+00 -1.949517141608906323e+00 -2.290093134245659634e+00 -2.514093849329928076e+00 -2.693757322862825987e+00 -3.141641969524907374e+00 -3.663848045983554069e+00 -3.663848045983554069e+00 -4.188137855021999201e+00 -4.614829116624177274e+00 -4.843631237132518308e+00 -5.051160290054597546e+00 -5.333725061312857285e+00 -5.672172054357812243e+00 -5.672172054357812243e+00 -5.935216516541715670e+00 -6.246874128411908700e+00 -6.443148460910923525e+00 -6.619686342959139935e+00 -7.006045349569046010e+00 -7.178356084890845423e+00 -7.575684771667055450e+00 -7.724810324134075756e+00 -8.005633227785356354e+00
3.730326767595508741e+00 3.719092029501366081e+00 3.709953523327448988e+00 3.608165922292251082e+00 3.555548880790444954e+00 3.575165638436120119e+00 3.623458670845505214e+00 3.645902266235009126e+00 3.687383201762984619e+00 3.674250989430404069e+00 3.757068949210424780e+00 3.668826748237036028e+00 3.686075770945027585e+00 3.639908935412985436e+00 3.639908935412985436e+00 3.688243319315070767e+00 3.725906206274205879e+00 3.788222014514477820e+00 3.692915570858731567e+00 3.689434233602766788e+00 3.701068118395827611e+00 3.691925066288164636e+00 3.628463550433754570e+00 3.709127757192938191e+00 3.702743197480341308e+00 3.768812564780483321e+00 3.768812564780483321e+00 3.851405735842443168e+00 3.927087274957468566e+00 3.995922690484929873e+00 4.059539707479467907e+00 4.131290698328893285e+00 4.088969065333547981e+00 4.015467218227648516e+00 4.078666058324706079e+00 4.079636484111695438e+00 4.068344350054944769e+00 3.954294372781507416e+00 3.954294372781507416e+00 3.832804830791564754e+00 3.788002573308146381e+00 3.728371969055519042e+00 3.820324937778203367e+00 3.832167024387955756e+00 3.767075358271778196e+00 3.810280412893197521e+00 3.798992047117601967e+00 3.744910998435686977e+00 3.780394103138604578e+00 3.844004385780714905e+00 3.768372822073388750e+00 3.638590892154651701e+00 3.702607393131232882e+00 3.702607393131232882e+00 3.741427526817025395e+00 3.688089001746661211e+00 3.662224492529964515e+00 3.618473943354931777e+00 3.462014558281954812e+00 3.429469719693372998e+00 3.286736297984110156e+00 3.145699917028347059e+00 2.971198346091740383e+00 2.842444082696468310e+00 2.680397626516581422e+00 2.680397626516581422e+00 2.566348425035477554e+00 2.404733550041541434e+00 2.312637762471207559e+00 2.327052731633084459e+00 2.190004683081494097e+00 2.084727211155619209e+00 2.059208395530640168e+00 2.167359030177744117e+00 2.083852290401664309e+00 1.957559077996636976e+00 1.729855486311887569e+00 1.554024741179510283e+00 1.152137039415091824e+00 4.647071934551362249e-01 9.122877395804784850e-02 -5.220302418028002212e-01 -1.274858642793903041e+00 -1.577480562171043044e+00 -1.577480562171043044e+00 -1.528510786180830916e+00 -1.171119507753614064e+00 -1.144056585693581596e+00 -1.162637449122924327e+00 -1.315053472947274482e+00 -1.319892607158386744e+00 -1.445964414610567683e+00 -1.582165262024966434e+00 -1.831236728336799624e+00 -2.257893413920952774e+00 -2.729781710724831445e+00 -2.729781710724831445e+00 -3.147452198325423556e+00 -3.646629786627895164e+00 -3.910530699709021007e+00 -4.146773179048503621e+00 -4.595261219616112669e+00 -4.824063340124454591e+00 -5.171083448416654349e+00 -5.288092663125743442e+00 -5.464946913142814111e+00 -5.729946156871408292e+00 -6.047786062891219672e+00 -6.047786062891219672e+00 -6.407872851647222312e+00 -6.813747304924127945e+00 -7.006045349569046010e+00 -7.123106366727261829e+00 -7.543864839205494555e+00 -7.724810324134075756e+00 -8.081545213619087065e+00
3.689159354771155197e+00 3.670347135372181491e+00 3.603180634391672577e+00 3.591598969329993007e+00 3.591598969329993007e+00 3.461897813991785533e+00 3.502247915203606787e+00 3.645902266235009126e+00 3.659709962212602363e+00 3.682970383114183122e+00 3.757068949210424780e+00 3.707761817061870246e+00 3.739451439387836196e+00 3.700297477355221965e+00 3.640717095837243011e+00 3.644447940259499141e+00 3.644447940259499141e+00 3.624404936160146917e+00 3.654117560234906747e+00 3.654117560234906747e+00 3.582200584665431897e+00 3.574127736598162297e+00 3.628463550433754570e+00 3.608470104653953570e+00 3.707805083945329816e+00 3.735326173612329992e+00 3.801419201798562852e+00 3.850083115750699392e+00 3.895982537612528329e+00 4.018206918605293332e+00 4.107862468382919019e+00 4.107862468382919019e+00 4.188583183082097428e+00 4.156859876830655942e+00 4.078666058324706079e+00 4.182050142795457504e+00 4.131998313232565501e+00 3.998004639374169056e+00 3.976908817145232256e+00 3.979745057046181422e+00 3.853914417157352279e+00 3.837487135147402029e+00 3.883461627768070468e+00 3.933191538807291554e+00 3.861291445139591438e+00 3.829126945754248723e+00 3.798265153018310691e+00 3.798265153018310691e+00 3.795293147697826441e+00 3.890453541992937581e+00 3.698084152598505536e+00 3.691722597000698602e+00 3.733594242711830269e+00 3.754004147207099074e+00 3.739982277434643176e+00 3.712759604102821687e+00 3.670992749991489390e+00 3.538066395318510082e+00 3.464499565497014100e+00 3.411367745417930752e+00 3.280527029977751585e+00 2.999104913955986440e+00 2.999104913955986440e+00 2.809852072717663685e+00 2.643787308096789079e+00 2.672914502145147253e+00 2.510265440385194946e+00 2.397319819162864185e+00 2.408246782393268504e+00 2.310631444106913346e+00 2.430753329225437742e+00 2.258054134610177677e+00 2.320835834535866837e+00 2.209776695194821450e+00 2.209776695194821450e+00 2.099617923146052334e+00 1.925232969014317064e+00 1.554024741179510283e+00 1.431530430831992051e+00 8.862218676567866771e-01 9.122877395804784850e-02 -8.206211208370524091e-01 -1.065185584002668051e+00 -1.339465998004304437e+00 -1.502310985242899521e+00 -1.217152399912928118e+00 -1.217152399912928118e+00 -1.041104083284115633e+00 -1.183795302342616429e+00 -1.315053472947274482e+00 -1.307009126147919309e+00 -1.392029549678461819e+00 -1.582165262024966434e+00 -1.743867750401391303e+00 -2.264815333452202761e+00 -2.480430335499991035e+00 -2.938127359613283751e+00 -3.139442462166939229e+00 -3.386510143480670809e+00 -3.877133498627895136e+00 -4.397477153323558596e+00 -4.397477153323558596e+00 -4.812263422913519939e+00 -5.144671495200837441e+00 -5.288092663125743442e+00 -5.403288234782579913e+00 -5.655051420416499219e+00 -5.863473769776133437e+00 -6.163383080308178386e+00 -6.366385507559549239e+00 -6.591507189883992091e+00 -6.966050449765386787e+00 -7.327966744066425342e+00 -7.327966744066425342e+00 -7.720359722535661717e+00 -7.982455053400177469e+00
3.689159354771155197e+00 3.558591312196112799e+00 3.435871611182424790e+00 3.517592005963457780e+00 3.460721405223504021e+00 3.320661789368744898e+00 3.401763563932067580e+00 3.581069292555049355e+00 3.676553048897473808e+00 3.676553048897473808e+00 3.766946237792452745e+00 3.698340522714302026e+00 3.617162097672279586e+00 3.617162097672279586e+00 3.496235306274495525e+00 3.432275586149677427e+00 3.623763189465345924e+00 3.389080280254522126e+00 3.361524851252677415e+00 3.609499831065189124e+00 3.466503860286188843e+00 3.288911541791869730e+00 3.475256781374376658e+00 3.581485043268235913e+00 3.652453115595370114e+00 3.652453115595370114e+00 3.726039598103819905e+00 3.869460584986771146e+00 3.959990796425378434e+00 3.978110440508050516e+00 4.096672905712356538e+00 4.218221178044691655e+00 4.234052351420636739e+00 4.250679466766785985e+00 4.180389858355558985e+00 4.189792889621543281e+00 4.196695644003170855e+00 4.056183411746048684e+00 4.046528515491916167e+00 3.982252392586004053e+00 3.982252392586004053e+00 3.945743000299530845e+00 3.989803278275469101e+00 3.933191538807291554e+00 3.934386804511864177e+00 3.852667516122693314e+00 3.867915384729151640e+00 3.856361963254727243e+00 3.761604383560628317e+00 3.887421659541255181e+00 3.697292774390923853e+00 3.679626981136018493e+00 3.679626981136018493e+00 3.717544252083446743e+00 3.678235319132442616e+00 3.712759604102821687e+00 3.616190855470048149e+00 3.505251995361231998e+00 3.464499565497014100e+00 3.346401702903571973e+00 3.267560207525246785e+00 3.150618463870922703e+00 2.887777699566602685e+00 2.730438479793024342e+00 2.730438479793024342e+00 2.667550645323715663e+00 2.410559411278915043e+00 2.397319819162864185e+00 2.476830216530732987e+00 2.460907418925070367e+00 2.430753329225437742e+00 2.392172289111516470e+00 2.375214058110280302e+00 2.285389874140677513e+00 2.096588271526510283e+00 2.127687653996799710e+00 2.139613108542704367e+00 1.595690744686556251e+00 1.334390825271061898e+00 1.334390825271061898e+00 3.849435273606706676e-01 -5.007720730330604830e-01 -1.065185584002668051e+00 -1.251847128999059811e+00 -1.168714348179807239e+00 -1.167754958016454125e+00 -9.997931931746476542e-01 -9.838301317220370379e-01 -1.095308660892119423e+00 -1.254562998015090525e+00 -1.311881707040616130e+00 -1.311881707040616130e+00 -1.527272059599681819e+00 -1.908046501772543868e+00 -2.264815333452202761e+00 -2.444037705532435378e+00 -2.882067744732942582e+00 -3.139442462166939229e+00 -3.652673197924666049e+00 -3.855111368319584564e+00 -4.097826832105509354e+00 -4.565865705061213475e+00 -4.962705618277039044e+00 -4.962705618277039044e+00 -5.248258281627120603e+00 -5.496830332408452868e+00 -5.496830332408452868e+00 -5.847788512718414822e+00 -6.182333592626579666e+00 -6.366385507559549239e+00 -6.584129985210307012e+00 -6.959989543405458612e+00 -7.155790671468590602e+00 -7.534785164865783536e+00 -7.624799375938771107e+00 -7.793277688339903975e+00
3.503687836639493014e+00 3.320479546151052119e+00 3.254823817780712503e+00 3.254823817780712503e+00 3.227978132537728584e+00 3.154951774673813159e+00 3.154951774673813159e+00 3.264484863634771639e+00 3.276663994195737395e+00 3.510754925356447842e+00 3.263404474147381773e+00 3.176908008661913474e+00 3.399382190341147414e+00 3.283141327412691268e+00 2.993495373914298874e+00 3.258226885835896702e+00 3.222984007347535318e+00 3.136779259365874317e+00 3.136779259365874317e+00 3.198715348481472542e+00 3.074213530135293304e+00 3.288911541791869730e+00 3.142432130021123982e+00 3.244793235323157887e+00 3.455193513169587227e+00 3.573473851192350281e+00 3.489945822089746130e+00 3.686491849634339957e+00 3.830379475748904472e+00 3.975676950510545815e+00 3.975676950510545815e+00 4.122760210862395525e+00 4.169739844112505089e+00 4.250679466766785985e+00 4.220898376470040070e+00 4.217993757537010779e+00 4.196695644003170855e+00 4.112008140924104715e+00 4.189186491387667743e+00 4.123084035742685671e+00 4.013273810734550473e+00 4.009486373888335287e+00 4.009486373888335287e+00 3.990421046483350942e+00 3.852971925095750372e+00 3.852971925095750372e+00 3.759855273789947994e+00 3.726670180503333984e+00 3.761604383560628317e+00 3.711256957275310242e+00 3.592423702655501483e+00 3.604456511970927757e+00 3.648966486748997262e+00 3.605953524735902693e+00 3.662122125377331727e+00 3.578446867105844920e+00 3.533792244007283756e+00 3.533792244007283756e+00 3.402399450757251920e+00 3.317671863691165512e+00 3.267560207525246785e+00 3.163873470367799534e+00 2.892420599933354985e+00 2.786371505838648233e+00 2.583203799902506148e+00 2.504105167947817012e+00 2.459813902265215013e+00 2.423803708701648851e+00 2.464559959964820024e+00 2.464559959964820024e+00 2.489532128707494962e+00 2.372908182579260838e+00 2.375214058110280302e+00 2.317468834998207772e+00 2.169736483098513524e+00 2.127687653996799710e+00 1.886120268046457937e+00 1.686799357304501701e+00 1.563648247698328442e+00 9.352740870650975147e-01 6.830062167609178836e-01 9.420349418139238595e-02 -6.936311212572376927e-01 -1.195968080999094241e+00 -1.195968080999094241e+00 -1.151068632864045815e+00 -9.342209215781394072e-01 -9.838301317220370379e-01 -1.011425286706507887e+00 -1.192547895101421451e+00 -1.289163925856428028e+00 -1.378894268340697060e+00 -1.463094609848920147e+00 -1.720664507120405640e+00 -2.141792595577044267e+00 -2.667714442090216131e+00 -2.667714442090216131e+00 -3.106127638686891235e+00 -3.662947905470936405e+00 -3.855111368319584564e+00 -4.054316298103312732e+00 -4.474582139978990014e+00 -4.732571898304575697e+00 -5.069132164139627861e+00 -5.197069533725476198e+00 -5.366798973193882105e+00 -5.655597656212700386e+00 -6.039337601861124227e+00 -6.039337601861124227e+00 -6.407490481226785661e+00 -6.817604667128772888e+00 -6.959989543405458612e+00 -7.133604764150127231e+00 -7.440379105654619352e+00 -7.624799375938771107e+00 -7.799568583741976369e+00
