1.769451256078555135e+00 1.964170642185438798e+00 2.150977079029384953e+00 2.169812753543780559e+00 2.212698027399154999e+00 2.165828971430766359e+00 2.138022246903723556e+00 2.003048297887207063e+00 9.727531116015410984e-01 4.975824850290425649e-01 5.122649092363418255e-01 5.382330817229338260e-01 5.234540506319033115e-01 5.597002409815819979e-01 3.880189045146676396e-01 3.880189045146676396e-01 7.672248226829943285e-02 -1.718282372571844907e-01 -2.231660058325942997e-01 -2.580891222213827496e-01 -3.568117223756111511e-01 -3.804087443012564851e-01 -3.494743292898946363e-01 -5.121143862313288775e-01 -7.258345561363184206e-01 -1.146974114807441048e+00 -1.572862502274270158e+00 -1.572862502274270158e+00 -2.171517750807478997e+00 -2.811812384555826494e+00 -3.115612390018930533e+00 -3.150603270235016851e+00 -3.030144203652590740e+00 -2.874758773623209862e+00 -2.333542695735964401e+00 -2.046810964478920969e+00 -2.090376110450965275e+00 -1.952811176909474034e+00 -2.107628235415285545e+00 -2.107628235415285545e+00 -2.319008913245780512e+00 -2.599425774188497851e+00 -2.759822274358918914e+00 -2.813849549500294422e+00 -3.050345202467549033e+00 -3.250005948599224315e+00 -3.337702703006591776e+00 -3.592316742943529650e+00 -3.755894068961978860e+00 -3.977325224154241834e+00 -4.087410000810614896e+00 -4.304413813929407695e+00 -4.715706364720031907e+00 -5.267328965240564820e+00 -5.267328965240564820e+00 -5.759699773306729220e+00 -6.271143789076926822e+00 -6.534846602820355344e+00 -6.671274039410125312e+00 -7.036094035151712056e+00 -7.251643372306935120e+00 -7.560106913194815093e+00 -7.664231475357798473e+00 -7.823390834431774188e+00 -8.068965981729077086e+00 -8.237869556889986455e+00 -8.237869556889986455e+00 -8.428946851256400308e+00 -8.585601458992860202e+00 -8.681245788296063637e+00 -8.754360685900531180e+00 -8.861407759471170209e+00 -8.928554956173920587e+00 -9.043456817987241436e+00 -9.119045013629602181e+00 -9.146195678421884523e+00 -9.233059800832947417e+00 -9.320307753369501569e+00 -9.320307753369501569e+00 -9.387470842704306762e+00 -9.443490086321986610e+00 -9.443490086321986610e+00 -9.508830679018993592e+00 -9.515232735058734903e+00 -9.506815880102653438e+00 -9.504276176243395824e+00 -9.452292767932162221e+00 -9.446278581524460094e+00 -9.404921677963690385e+00 -9.414944714330312436e+00 -9.427280804312946572e+00 -9.452051925247264563e+00 -9.482237192314460827e+00 -9.482237192314460827e+00 -9.476531320751213627e+00 -9.372357895956195506e+00 -9.445451047983816295e+00 -9.332539810322252549e+00 -9.489578483894241856e+00 -9.595984121337552963e+00 -9.645498196984904737e+00 -9.564080732857101808e+00 -9.619905051221676828e+00 -9.710293840568343882e+00 -9.774116285589443009e+00 -9.866335498465055309e+00 -9.913038831460630362e+00 -9.970248809178329452e+00 -1.005759745337500810e+01 -1.005759745337500810e+01 -1.016071571785989036e+01 -1.021364643245953374e+01 -1.017650478396631542e+01 -1.024039031365024499e+01 -1.026950110452738585e+01 -1.029147111195173814e+01
1.810654098217169938e+00 1.901016917234999770e+00 2.088462650097559603e+00 2.178075929657289578e+00 2.191671379100894157e+00 2.191671379100894157e+00 2.145472580853864830e+00 1.666406200417331895e+00 9.727531116015410984e-01 5.156093379501167639e-01 4.963872520185941273e-01 5.382330817229338260e-01 5.928591228771294963e-01 5.971122944561529922e-01 5.360308556848378814e-01 2.620354751692556272e-01 -2.521456428049644732e-02 -2.521456428049644732e-02 -1.798679943778606349e-01 -2.896626641011902370e-01 -2.896626641011902370e-01 -2.865872162908021936e-01 -3.798723927511651888e-01 -5.121143862313288775e-01 -6.068958712459691096e-01 -1.048908131604281646e+00 -1.279572220753208089e+00 -1.783631981406257117e+00 -1.992424588591641621e+00 -2.425114053549342952e+00 -2.942203459353673889e+00 -3.080645263365751063e+00 -3.080645263365751063e+00 -2.800800087089682311e+00 -2.143847368231481809e+00 -2.046810964478920969e+00 -1.903090453601565812e+00 -1.897247668873603965e+00 -1.930449082399657845e+00 -2.140646215101559058e+00 -2.273736146565338068e+00 -2.372522008758649825e+00 -2.711421816941220975e+00 -2.885817325467101124e+00 -2.885817325467101124e+00 -3.224932446611433523e+00 -3.437287793861977026e+00 -3.592316742943529650e+00 -3.676125400537641141e+00 -3.857495282631120848e+00 -4.087410000810614896e+00 -4.431741428673857897e+00 -4.488232447884831444e+00 -4.855515373685692637e+00 -5.427745313448399500e+00 -5.612286606935704469e+00 -5.953949425007857954e+00 -6.423747031539901009e+00 -6.814268154530209287e+00 -6.814268154530209287e+00 -7.178780314941279883e+00 -7.514677388406526326e+00 -7.664231475357798473e+00 -7.786602174275321531e+00 -8.048712686811489547e+00 -8.118641820139256282e+00 -8.318042234852152106e+00 -8.420755018690281091e+00 -8.573041105193329514e+00 -8.661660907847982926e+00 -8.819564411849238894e+00 -8.876929918651072171e+00 -8.935680628946940374e+00 -9.063162335041237583e+00 -9.159690942871797859e+00 -9.159690942871797859e+00 -9.243035142503678969e+00 -9.315763435746575283e+00 -9.361206454688014489e+00 -9.405212064735170685e+00 -9.440374299186780505e+00 -9.486714497064921758e+00 -9.527098048483614079e+00 -9.496441780917216136e+00 -9.510206264465264070e+00 -9.458694763218545631e+00 -9.413194238401530356e+00 -9.413194238401530356e+00 -9.351156504649519974e+00 -9.358461678137976136e+00 -9.401570032277286160e+00 -9.382888521616109756e+00 -9.371749626038537784e+00 -9.377764030125238293e+00 -9.398363918354649016e+00 -9.317068659227988547e+00 -9.330176978808026433e+00 -9.378752087996058862e+00 -9.473442669340721878e+00 -9.474658000224417620e+00 -9.608805201417130348e+00 -9.523306492345447793e+00 -9.523306492345447793e+00 -9.686317060614280550e+00 -9.766473711696518123e+00 -9.866335498465055309e+00 -9.914912211777528128e+00 -9.979467225963457366e+00 -1.002098674784732779e+01 -1.016275544774535788e+01 -1.014471286377373360e+01 -1.018125614397736811e+01 -1.022928957922205129e+01 -1.024816276718748220e+01 -1.024816276718748220e+01 -1.031408204150677399e+01
1.747458259026440253e+00 1.901016917234999770e+00 2.021065822264101364e+00 2.183009017977973087e+00 2.183651712791134347e+00 2.219666192935676463e+00 2.189615430680788677e+00 2.218672041319309063e+00 1.188803657466081853e+00 2.482079312171913688e-01 2.482079312171913688e-01 5.299860882187218403e-01 6.034923763689330478e-01 5.971122944561529922e-01 6.104794830636492975e-01 3.470931169524035798e-01 1.276471585366653339e-01 -1.433018782777931988e-01 -1.943072343290468962e-01 -2.202134448381563858e-01 -2.578288900337737943e-01 -3.772148144895390298e-01 -3.772148144895390298e-01 -5.335090080460122008e-01 -4.820183607214537092e-01 -1.048908131604281646e+00 -1.166280992522243709e+00 -1.680576920721392531e+00 -1.992424588591641621e+00 -2.598887324393877041e+00 -2.698166414093997822e+00 -3.034101116145559551e+00 -2.970706350721277200e+00 -2.783790747746068384e+00 -2.399072798585478061e+00 -1.847748760445737437e+00 -1.801426501361120813e+00 -1.901376487632359558e+00 -1.904520694920144308e+00 -2.078936937160746012e+00 -2.375939447173799124e+00 -2.375939447173799124e+00 -2.628019711421945015e+00 -2.858313886103032164e+00 -3.012921556618221253e+00 -3.169569355022011869e+00 -3.443867905521182049e+00 -3.571817357525990833e+00 -3.785559917240179484e+00 -3.858507502512414256e+00 -3.971464304250473809e+00 -4.261822603978393076e+00 -4.646799143943744603e+00 -4.646799143943744603e+00 -5.208719214880231263e+00 -5.748266275253210544e+00 -6.144511636975890312e+00 -6.268950105822331587e+00 -6.669041204146345159e+00 -6.946642138720290127e+00 -7.315436713951767089e+00 -7.468889199749872532e+00 -7.611332738308655976e+00 -7.893254248142323348e+00 -8.094279043389615680e+00 -8.094279043389615680e+00 -8.304246108428753104e+00 -8.501574676906052730e+00 -8.501574676906052730e+00 -8.648919745077250809e+00 -8.821364015652683577e+00 -8.876929918651072171e+00 -8.950285093365065947e+00 -9.055389929255943215e+00 -9.110850492451568527e+00 -9.155298256887625996e+00 -9.178685703213322000e+00 -9.258048683336763673e+00 -9.330755466613760873e+00 -9.366955298826498577e+00 -9.366955298826498577e+00 -9.408772312353232081e+00 -9.444252567360940986e+00 -9.496441780917216136e+00 -9.433185922132963697e+00 -9.373290015104601025e+00 -9.407826834208988132e+00 -9.378209492043220408e+00 -9.291042222032874776e+00 -9.369204666328597497e+00 -9.344946909313035732e+00 -9.386572896139549371e+00 -9.386572896139549371e+00 -9.390773857719331374e+00 -9.409270634559067759e+00 -9.317068659227988547e+00 -9.362106161713086294e+00 -9.408233627372077024e+00 -9.473442669340721878e+00 -9.585383043024776839e+00 -9.661370716220478272e+00 -9.601662734954631517e+00 -9.640353286018802592e+00 -9.732360709812837740e+00 -9.732360709812837740e+00 -9.840949938997928470e+00 -9.904212816786314377e+00 -9.904212816786314377e+00 -9.964533117248880245e+00 -1.009095581434150013e+01 -1.014471286377373360e+01 -1.012346795988120363e+01 -1.018081839978089143e+01 -1.021848035867534854e+01 -1.026476354436875305e+01 -1.027283782423026892e+01
1.693430131367789970e+00 1.840864273795377315e+00 2.106022920301204415e+00 2.183009017977973087e+00 2.164305501501841533e+00 2.191429269761242971e+00 2.157081224394576946e+00 2.157081224394576946e+00 1.477457161326653612e+00 4.649317682061639978e-01 9.110283318406417474e-02 4.244419477672714547e-01 6.967851838596382796e-01 6.615530305611602158e-01 5.621369363497834559e-01 4.958391621593545295e-01 2.495651023289487680e-01 -1.422356021678169435e-01 -2.790227523144043209e-01 -2.790227523144043209e-01 -3.159386841558006198e-01 -3.964586051819611323e-01 -5.989353870481430864e-01 -5.824613056015838231e-01 -5.180134776668798846e-01 -7.316386649773081174e-01 -1.359686560868242244e+00 -1.489300669521492093e+00 -1.804209754923283171e+00 -2.295338147755192626e+00 -2.743282496447881247e+00 -2.743282496447881247e+00 -2.900361011942009348e+00 -2.605609079619712443e+00 -2.199784306000414524e+00 -2.037171670677103474e+00 -1.842078327483259947e+00 -1.901376487632359558e+00 -1.943677560203188381e+00 -2.053769297403880145e+00 -2.140762124536152999e+00 -2.469745918501433657e+00 -2.563552389829068190e+00 -2.721834216930205219e+00 -2.992775566910532703e+00 -3.317222943585623529e+00 -3.317222943585623529e+00 -3.528822555848329934e+00 -3.775235879313870946e+00 -3.858507502512414256e+00 -3.916321860120087983e+00 -4.132460013497641249e+00 -4.340948748731288553e+00 -4.772797885043115862e+00 -4.928053072759709607e+00 -5.331056644954914603e+00 -5.883536874933755101e+00 -6.379620291569956692e+00 -6.379620291569956692e+00 -6.752979026135752072e+00 -7.210695095283311318e+00 -7.468889199749872532e+00 -7.552742926290620495e+00 -7.854153788405185743e+00 -7.992762371056643111e+00 -8.207599986493374189e+00 -8.301533330175695724e+00 -8.404089006176667098e+00 -8.566614742799609772e+00 -8.736636616119348275e+00 -8.736636616119348275e+00 -8.902913592653501240e+00 -9.008371804493712887e+00 -9.055389929255943215e+00 -9.076092812549250155e+00 -9.080056759044644821e+00 -9.178685703213322000e+00 -9.232241416266194989e+00 -9.229084468667434038e+00 -9.306433879513665630e+00 -9.323545018811774554e+00 -9.277940309068050340e+00 -9.369195964067916549e+00 -9.374026944789346061e+00 -9.360064087567659286e+00 -9.360064087567659286e+00 -9.306475907598754205e+00 -9.296229153329775841e+00 -9.291042222032874776e+00 -9.300237211396627401e+00 -9.293281265763285504e+00 -9.349178404203076553e+00 -9.345180263186843916e+00 -9.420522415311587849e+00 -9.384831708701346642e+00 -9.361825577596810888e+00 -9.360499119446057392e+00 -9.360499119446057392e+00 -9.512847695389055502e+00 -9.607462302078028316e+00 -9.661370716220478272e+00 -9.665902579146328222e+00 -9.688638050395361745e+00 -9.712002803251339245e+00 -9.755479298158199697e+00 -9.805183916367926855e+00 -9.864482000237119408e+00 -9.938516477633658752e+00 -9.973214805360601787e+00 -9.973214805360601787e+00 -1.007850875493911857e+01 -1.014352852830776719e+01 -1.018081839978089143e+01 -1.016068807883510949e+01 -1.021921043458763378e+01 -1.027283782423026892e+01
1.708465676965197355e+00 1.784322295136845371e+00 2.017512459847555117e+00 2.145343254986793902e+00 2.176271130796511688e+00 2.176260269440155604e+00 2.174463947065834013e+00 1.993089856945635230e+00 1.079172326003607463e+00 1.079172326003607463e+00 1.533891944285128150e-01 3.475728361650725629e-01 6.967851838596382796e-01 7.454439640960376368e-01 6.416800847383261619e-01 4.958391621593545295e-01 7.103662817463890500e-02 -9.821853557728006667e-02 -2.316512555715787292e-01 -3.339055624142484580e-01 -3.514768115937544346e-01 -4.042822836857818403e-01 -5.959430710223959649e-01 -6.028873102313109245e-01 -6.028873102313109245e-01 -6.081960253752257684e-01 -1.157146398358647854e+00 -1.489300669521492093e+00 -1.582789520933081562e+00 -1.991187457746462997e+00 -2.394318607396070497e+00 -2.709834744995740952e+00 -2.840436108180566244e+00 -2.840265296063260614e+00 -2.536898205432893683e+00 -1.915916044624252024e+00 -1.915916044624252024e+00 -1.925583091379649892e+00 -1.941882021039043504e+00 -2.053769297403880145e+00 -2.184375029923928402e+00 -2.364745916266804748e+00 -2.563552389829068190e+00 -2.819125705713650731e+00 -2.942942615091431957e+00 -3.116592476288314373e+00 -3.398039308921059209e+00 -3.660229374714003114e+00 -3.660229374714003114e+00 -3.825030847892987307e+00 -3.992731839345335043e+00 -4.132460013497641249e+00 -4.200491666291057413e+00 -4.543071890511638955e+00 -4.928053072759709607e+00 -5.057058914076618450e+00 -5.626927453405051516e+00 -6.041349775752514972e+00 -6.472288954898783864e+00 -6.647986013107839653e+00 -6.929340554195576374e+00 -7.387308017702591378e+00 -7.675946397802229981e+00 -7.675946397802229981e+00 -7.941962212801400689e+00 -8.187439264577582421e+00 -8.301533330175695724e+00 -8.387422993663054882e+00 -8.560188380405890030e+00 -8.641232432005795161e+00 -8.823412943191851099e+00 -8.928897266655924980e+00 -8.963132990567237002e+00 -9.043234759929696054e+00 -9.055134164091807492e+00 -9.055134164091807492e+00 -9.098104185716184844e+00 -9.135482696583814288e+00 -9.229084468667434038e+00 -9.194662493986653473e+00 -9.202820615844240493e+00 -9.277940309068050340e+00 -9.317273213852978131e+00 -9.254298830152654531e+00 -9.323543109410874052e+00 -9.266410333791787579e+00 -9.262200359028986085e+00 -9.262200359028986085e+00 -9.228993096782176053e+00 -9.266218745218020914e+00 -9.293281265763285504e+00 -9.316083199402690695e+00 -9.343235079897329598e+00 -9.420522415311587849e+00 -9.385212164276490299e+00 -9.411941731725647742e+00 -9.400939859464902071e+00 -9.439560425935889398e+00 -9.547966937254862785e+00 -9.529805836333581581e+00 -9.714947896760024904e+00 -9.664595239124393444e+00 -9.664595239124393444e+00 -9.734032302296114381e+00 -9.744484884619879494e+00 -9.805183916367926855e+00 -9.814051788696712464e+00 -9.897565729303860138e+00 -9.899804524991575150e+00 -1.000847072445444397e+01 -1.001230464610449999e+01 -1.008990548110082663e+01 -1.012707525818209398e+01 -1.017082626004828683e+01 -1.017926628811578560e+01 -1.023159360695376385e+01
1.690444908276221403e+00 1.827196070889082868e+00 1.827196070889082868e+00 2.103007848258512169e+00 2.148739188381250109e+00 2.176260269440155604e+00 2.161543397666824351e+00 2.137774341507125975e+00 1.719075830501197277e+00 5.782021203841070101e-01 2.643411297981371200e-01 2.663745335617498378e-01 7.852047847157131999e-01 7.488981816306062855e-01 7.488981816306062855e-01 6.034900963569702625e-01 2.188244308854234710e-01 -9.821853557728006667e-02 -2.689918568106539620e-01 -4.087896491434009349e-01 -3.514768115937544346e-01 -4.928783923216515372e-01 -6.874491091390937392e-01 -7.082131235751387699e-01 -5.532925385821225728e-01 -8.188640881819119199e-01 -8.188640881819119199e-01 -1.298668805427432016e+00 -1.677738832732091900e+00 -1.991187457746462997e+00 -2.086929025946300253e+00 -2.466618595584336049e+00 -2.840436108180566244e+00 -2.981758255790390777e+00 -2.869498118522925800e+00 -2.254195644307677160e+00 -1.906539270165594768e+00 -1.948435107157364454e+00 -1.888808082050392745e+00 -2.068587911553426029e+00 -2.243532625601699415e+00 -2.243532625601699415e+00 -2.501954284613872037e+00 -2.821158298060812974e+00 -2.942942615091431957e+00 -3.067413551271508165e+00 -3.359686508580308484e+00 -3.485827754170669035e+00 -3.748730294378422201e+00 -3.791825884288054560e+00 -3.861754686147892635e+00 -3.994652947785587216e+00 -4.256389651639560512e+00 -4.256389651639560512e+00 -4.655683199687703500e+00 -5.232607135742750160e+00 -5.626927453405051516e+00 -5.895130345200366051e+00 -6.366631472020103821e+00 -6.647986013107839653e+00 -7.105953476614855546e+00 -7.282566399034136495e+00 -7.496373086385337281e+00 -7.807448868549671239e+00 -8.047837441392177382e+00 -8.047837441392177382e+00 -8.288154296145140876e+00 -8.475168299629395108e+00 -8.475168299629395108e+00 -8.634817735253728088e+00 -8.825409362908329669e+00 -8.928897266655924980e+00 -8.975980887769409833e+00 -9.008690402020453902e+00 -9.041335132646931783e+00 -9.016134888295214367e+00 -9.017522668219047688e+00 -9.070629652582372415e+00 -9.127413470721105426e+00 -9.152360457591118603e+00 -9.090187611265371004e+00 -9.154192464448147604e+00 -9.190293821238567418e+00 -9.200612613125775496e+00 -9.200612613125775496e+00 -9.159530652478970580e+00 -9.181169475461629759e+00 -9.214248814616331273e+00 -9.166558912950192095e+00 -9.213068496433928445e+00 -9.256795498251518595e+00 -9.321926215987096143e+00 -9.342402866215667956e+00 -9.388609551148773491e+00 -9.414111900768736163e+00 -9.439713792643738444e+00 -9.439713792643738444e+00 -9.485762235099834072e+00 -9.564896703718400062e+00 -9.631234621781066707e+00 -9.766265433823068776e+00 -9.742544605276487246e+00 -9.736922814771922674e+00 -9.756061801340887740e+00 -9.740368541998240204e+00 -9.770265474408853734e+00 -9.788398244317990660e+00 -9.856614980974057971e+00 -9.833835701629420001e+00 -9.927062971133022273e+00 -1.000680441280197286e+01 -1.000680441280197286e+01 -1.007345851084456001e+01 -1.013007898467343004e+01 -1.017926628811578560e+01 -1.019034938967725701e+01
1.682792257651946732e+00 1.729307110659559887e+00 1.921285142090981113e+00 2.126185155846498809e+00 2.126185155846498809e+00 2.162288497906994511e+00 2.177649701765683510e+00 2.177649701765683510e+00 2.063920130641906603e+00 9.144806841676272890e-01 2.643411297981371200e-01 2.292719984199040051e-01 8.522091612686815143e-01 8.353157188581714632e-01 7.032300969965952220e-01 6.923178246926573465e-01 5.424053027306057206e-01 1.799240039234793753e-02 -4.025601755488806832e-01 -4.025601755488806832e-01 -5.090294720484308533e-01 -6.370392061070032641e-01 -6.874491091390937392e-01 -8.466548714954369448e-01 -4.618441852781716150e-01 -5.000977224199372184e-01 -9.106890514603570574e-01 -1.201893514401987995e+00 -1.417539040277523199e+00 -1.872656740037210499e+00 -2.276543522562397559e+00 -2.276543522562397559e+00 -2.814590777011821032e+00 -3.271912159476677573e+00 -2.869498118522925800e+00 -2.569592721539498914e+00 -2.019456874566901927e+00 -1.948435107157364454e+00 -1.941831208340708992e+00 -2.073370309051540961e+00 -2.140175621366417147e+00 -2.375466655651987224e+00 -2.521179349477005172e+00 -2.634066126417405229e+00 -2.946408657595947389e+00 -3.245162985001518230e+00 -3.245162985001518230e+00 -3.520961032720876904e+00 -3.772405119857229927e+00 -3.879625253663934181e+00 -3.879625253663934181e+00 -3.969336185612803547e+00 -4.148130807235801853e+00 -4.323807434573969211e+00 -4.466540906313348991e+00 -5.000740478377950105e+00 -5.416513650085049036e+00 -5.997708089742882720e+00 -6.221242050415927594e+00 -6.543244394439383882e+00 -7.001211857946399775e+00 -7.430372682601362300e+00 -7.430372682601362300e+00 -7.755526581837917988e+00 -8.036746753411618371e+00 -8.157173801063557050e+00 -8.274775262114586027e+00 -8.461965110991066297e+00 -8.557948812543276773e+00 -8.721445859632879660e+00 -8.821013229772528774e+00 -8.956771918225534534e+00 -9.005470212990980272e+00 -9.006406154655492102e+00 -9.006406154655492102e+00 -8.954413834992246635e+00 -8.977038405415346034e+00 -9.038723976901433588e+00 -9.025742472774780367e+00 -9.019612684384812340e+00 -9.090187611265371004e+00 -9.038712042743579644e+00 -9.063286587803739636e+00 -9.130897085355194065e+00 -9.139752756883483542e+00 -9.052650971166158911e+00 -9.121444002115897121e+00 -9.139834335397960530e+00 -9.159393789344337122e+00 -9.159393789344337122e+00 -9.208568116011567994e+00 -9.279882457823337205e+00 -9.342402866215667956e+00 -9.345692076899664968e+00 -9.414443760822903684e+00 -9.465256930425379522e+00 -9.460701497099009316e+00 -9.538808061568150976e+00 -9.570193991628739738e+00 -9.669607786038890040e+00 -9.803913524624681131e+00 -9.803913524624681131e+00 -9.785207579148481827e+00 -9.784427995065104966e+00 -9.740368541998240204e+00 -9.740687514549721371e+00 -9.739872467894180375e+00 -9.856614980974057971e+00 -9.841976614801126289e+00 -9.845655217811598803e+00 -9.946100537269884967e+00 -1.003628243389388430e+01 -1.004510351915462962e+01 -1.004510351915462962e+01 -1.015791066275957988e+01 -1.021596086099211043e+01
1.682792257651946732e+00 1.697166421988642426e+00 1.804390967342073271e+00 2.016344153612021461e+00 2.125897080493086566e+00 2.155570015365964931e+00 2.167150519716729118e+00 2.133839379302739481e+00 1.749293463915483349e+00 1.749293463915483349e+00 6.898672691832650194e-01 7.872823208740216128e-01 8.522091612686815143e-01 9.109359297048191806e-01 7.771781535751445258e-01 6.923178246926573465e-01 3.809757973255367136e-01 2.284143921193700910e-01 -2.632110278216919230e-01 -4.699356779741640788e-01 -5.280279229767795846e-01 -6.659412193940924540e-01 -7.236215727872756798e-01 -8.031508333896868468e-01 -5.258331079715042877e-01 -5.654626454908652233e-01 -8.865151831753530498e-01 -1.323806880545477238e+00 -1.323806880545477238e+00 -1.799412875014635205e+00 -2.289006607049063557e+00 -2.488097394600077283e+00 -2.836230481610546583e+00 -3.432151380521257344e+00 -3.186967588469935553e+00 -2.463729011645227729e+00 -2.405068227149421034e+00 -2.057992328370819912e+00 -2.050561286179435339e+00 -2.164058310407685592e+00 -2.164058310407685592e+00 -2.387205926635910469e+00 -2.668443598001823069e+00 -2.772253970180045712e+00 -2.962306626755870198e+00 -3.267856868417724048e+00 -3.394147031305055240e+00 -3.660232495625448834e+00 -3.797010103650842794e+00 -3.880327296819226390e+00 -3.973395195141570913e+00 -4.051210668102578794e+00 -4.051210668102578794e+00 -4.236014033554512892e+00 -4.664332840215669407e+00 -4.664332840215669407e+00 -5.200988702516241347e+00 -5.812573834054745703e+00 -6.221242050415927594e+00 -6.398042585538808780e+00 -6.897547564400776210e+00 -7.177824780365679835e+00 -7.551021244769386520e+00 -7.688276776131408141e+00 -7.863140978857481755e+00 -8.126863557341295063e+00 -8.354090968635828673e+00 -8.354090968635828673e+00 -8.556321082143220735e+00 -8.713850481389647129e+00 -8.821013229772528774e+00 -8.985057461145840918e+00 -8.998688309568830590e+00 -8.985980404187605686e+00 -8.923757361603922078e+00 -8.892252195271757031e+00 -8.938760312204642844e+00 -8.943565935631760055e+00 -8.970891175168212328e+00 -8.970891175168212328e+00 -8.987853298094826471e+00 -8.998853959730066521e+00 -9.063286587803739636e+00 -8.992602534250369928e+00 -9.028226192799163385e+00 -9.052650971166158911e+00 -9.100138591894273432e+00 -9.066394184483064222e+00 -9.103963382413587269e+00 -9.145859589159160308e+00 -9.155453302549400263e+00 -9.188679367759908345e+00 -9.295888329179460285e+00 -9.392684659042490836e+00 -9.392684659042490836e+00 -9.473231613030476339e+00 -9.501093941557376965e+00 -9.538808061568150976e+00 -9.609085984289617244e+00 -9.661496193055647552e+00 -9.800644488353508876e+00 -9.820493971428581048e+00 -9.833492343525040980e+00 -9.783335899832753313e+00 -9.737540973023605773e+00 -9.712861610877416396e+00 -9.712861610877416396e+00 -9.788131350205290460e+00 -9.777299342155917117e+00 -9.845655217811598803e+00 -9.879896428435269939e+00 -9.976626277138510801e+00 -1.001992455939272730e+01 -1.008933170929857681e+01 -1.010720627976223618e+01 -1.014910517240075194e+01
1.707432627929587277e+00 1.741463210436897668e+00 1.712694219325841871e+00 1.877231790088307761e+00 2.104301511685771064e+00 2.155357142327080755e+00 2.155357142327080755e+00 2.099530531454549820e+00 1.830245622015360452e+00 1.406682546651561116e+00 1.300779408445939644e+00 8.421109196994356338e-01 8.885803931368294606e-01 8.948481628780232677e-01 8.574420725615718997e-01 7.512695893472465247e-01 5.030042230779000478e-01 7.315449170531351797e-02 7.315449170531351797e-02 -2.963702612649188328e-01 -5.471205045435496572e-01 -6.659412193940924540e-01 -6.890490811430683982e-01 -8.474144579329316862e-01 -5.258331079715042877e-01 -7.623864455575051213e-01 -8.334962554631200060e-01 -1.032398708485140038e+00 -1.506475892368500880e+00 -1.693568901745171829e+00 -2.016966189897953843e+00 -2.536587303440250185e+00 -3.193370751803521479e+00 -3.193370751803521479e+00 -3.501279119331727863e+00 -3.049730288725285288e+00 -2.405068227149421034e+00 -2.256384210104380728e+00 -2.199138505897241469e+00 -2.122193741778776843e+00 -2.271402156885135248e+00 -2.441555516871945830e+00 -2.531701325415887105e+00 -2.812492488494734655e+00 -3.102852025290577576e+00 -3.102852025290577576e+00 -3.417114126605515168e+00 -3.658966161053028632e+00 -3.797010103650842794e+00 -3.917461028259094924e+00 -4.021017255624721898e+00 -4.009326993543034234e+00 -4.119151572863384736e+00 -4.146581488440560292e+00 -4.352602271324393257e+00 -4.785851298049323965e+00 -5.446891093595590760e+00 -5.446891093595590760e+00 -6.033320192528323744e+00 -6.584629319893579691e+00 -6.897547564400776210e+00 -7.074907658105493269e+00 -7.479435570412150014e+00 -7.688276776131408141e+00 -8.008309206513310130e+00 -8.096553313619034853e+00 -8.261396228084031179e+00 -8.448761922352739262e+00 -8.554693351743164698e+00 -8.621887212302191017e+00 -8.816617096636727879e+00 -9.001676682173751942e+00 -9.001676682173751942e+00 -8.957047496745399684e+00 -8.858653020466086048e+00 -8.892252195271757031e+00 -8.860799508172021888e+00 -8.856532529124903519e+00 -8.924071474828455308e+00 -8.930426938945373649e+00 -8.887568278730428872e+00 -8.926463421465305359e+00 -8.933845527289737021e+00 -8.957762252323357544e+00 -8.957762252323357544e+00 -8.945897303478879792e+00 -9.018513018898703493e+00 -9.066394184483064222e+00 -9.041367851876980666e+00 -9.078650681884390394e+00 -9.155453302549400263e+00 -9.244644058097650330e+00 -9.270627677531672717e+00 -9.321845410953553568e+00 -9.410722602535658510e+00 -9.513519749351535992e+00 -9.513519749351535992e+00 -9.587248291502387332e+00 -9.640630574286396026e+00 -9.661496193055647552e+00 -9.821477448663003429e+00 -9.898443337580674850e+00 -9.833492343525040980e+00 -9.828484885349404010e+00 -9.734713404048976670e+00 -9.711109554690589007e+00 -9.697300474778467461e+00 -9.710509516345277703e+00 -9.708929461192028043e+00 -9.780515836751701997e+00 -9.889933339249971311e+00 -9.889933339249971311e+00 -9.966390607940891044e+00 -1.004858443392372003e+01 -1.010720627976223618e+01 -1.010554147697557781e+01
1.737005403483805388e+00 1.698343274687822646e+00 1.712694219325841871e+00 1.921816352371407355e+00 2.071551410699522311e+00 2.141879914084302339e+00 2.143508189628512195e+00 2.095847269435799021e+00 2.005227656983394002e+00 1.920500405380543008e+00 1.155469487792258665e+00 1.155469487792258665e+00 9.398175196953475474e-01 9.670919744554635766e-01 8.574420725615718997e-01 8.129980100941904819e-01 5.916833479849177291e-01 3.527132307043317483e-01 -3.123684634991153244e-03 -7.970366062124414896e-02 -2.876509885914575460e-01 -5.311126608268950111e-01 -7.949860370647707786e-01 -7.949860370647707786e-01 -7.497820419243161894e-01 -5.021758479491480465e-01 -8.334962554631200060e-01 -8.250023672057947843e-01 -1.324422234566343226e+00 -1.693568901745171829e+00 -2.280300707261445403e+00 -2.566667506921349151e+00 -2.929150337237930835e+00 -3.529008003504987112e+00 -3.716964684490384307e+00 -3.716964684490384307e+00 -2.799821659501606330e+00 -2.268936861634224034e+00 -2.199138505897241469e+00 -2.289028664628004250e+00 -2.322842966916137009e+00 -2.441555516871945830e+00 -2.570339141133512140e+00 -2.825947804161604626e+00 -2.970364450968253855e+00 -3.313404688553988287e+00 -3.439958690075813230e+00 -3.562315387079885376e+00 -3.809520344923251756e+00 -4.040976482046665375e+00 -4.040976482046665375e+00 -4.043600525969226922e+00 -4.057160389461804684e+00 -4.146581488440560292e+00 -4.239380413107962653e+00 -4.575388795007205189e+00 -4.985449544869329230e+00 -5.625501811631010263e+00 -5.874379458630779816e+00 -6.230799508425880262e+00 -6.731056553202627413e+00 -7.252267751810210328e+00 -7.252267751810210328e+00 -7.629093559207551500e+00 -7.959849064294725274e+00 -8.096553313619034853e+00 -8.235751737047030119e+00 -8.423341828775129159e+00 -8.554693351743164698e+00 -8.704396176321456124e+00 -8.777195027864941324e+00 -8.974936882099262547e+00 -8.991615775570952707e+00 -8.896312755905126934e+00 -8.896312755905126934e+00 -8.830090555551269205e+00 -8.789855911081293272e+00 -8.789855911081293272e+00 -8.822400476882128473e+00 -8.817502155242394224e+00 -8.887568278730428872e+00 -8.807547617346290991e+00 -8.818400987540927716e+00 -8.854307983145545791e+00 -8.917999350120794588e+00 -8.897373354126248302e+00 -8.940745652437875890e+00 -8.992954033568167915e+00 -9.018550367292043290e+00 -9.018550367292043290e+00 -9.115271467342404677e+00 -9.189646389463055343e+00 -9.293639133406266239e+00 -9.293639133406266239e+00 -9.429323517343611627e+00 -9.545050862570482408e+00 -9.544366142531671926e+00 -9.648945936485965547e+00 -9.666724379895381247e+00 -9.679781654070929164e+00 -9.913592859825641312e+00 -9.917601199299687309e+00 -9.875760730271956334e+00 -9.851734603472124263e+00 -9.714808027288171388e+00 -9.714808027288171388e+00 -9.711983000196390492e+00 -9.752987036329608728e+00 -9.712622069510707945e+00 -9.782459338204464672e+00 -9.883225215389071394e+00 -9.914894928179347033e+00 -9.929518959474151529e+00 -1.003638903232977597e+01 -1.005812739783574195e+01 -1.013512717210035952e+01
1.721287228001144864e+00 1.721287228001144864e+00 1.675284101516729685e+00 1.831521316888148565e+00 2.071551410699522311e+00 2.077793024518735265e+00 2.089347701101744281e+00 2.095847269435799021e+00 1.965092781450687998e+00 1.926857373164152509e+00 1.689048409866708678e+00 1.238821332543548870e+00 1.024815572697845845e+00 1.024815572697845845e+00 9.270379241280509719e-01 7.497323579390348103e-01 7.497323579390348103e-01 4.477730440614543506e-01 1.091767061377562215e-01 -7.970366062124414896e-02 -1.659874430533234135e-01 -4.167913182201103961e-01 -5.629518089335781017e-01 -6.160536260146900478e-01 -5.117048673855072449e-01 -4.734830013116759773e-01 -5.526925235738597841e-01 -9.681137879497534460e-01 -9.681137879497534460e-01 -1.553808072459283096e+00 -2.220923978829931755e+00 -2.566667506921349151e+00 -2.938161357472073743e+00 -3.634127542383637444e+00 -3.860377537711419560e+00 -3.616993278118938004e+00 -3.317090970468518307e+00 -2.610113638305156414e+00 -2.429206454374987167e+00 -2.420069675563508049e+00 -2.420069675563508049e+00 -2.510431725633601729e+00 -2.767391050524073748e+00 -2.825947804161604626e+00 -3.077522960715703082e+00 -3.402196264894657762e+00 -3.439958690075813230e+00 -3.738299385131606201e+00 -3.878243700401347915e+00 -3.952120354358089394e+00 -4.076611642766081012e+00 -4.073119889190119913e+00 -4.073119889190119913e+00 -4.089205929995518574e+00 -4.366223635583254215e+00 -4.366223635583254215e+00 -4.779281480409924399e+00 -5.424123068107597589e+00 -5.874379458630779816e+00 -6.043182747037051605e+00 -6.577792822250703608e+00 -7.104218475494640472e+00 -7.381556962858603299e+00 -7.464266083583317446e+00 -7.875158129865003076e+00 -8.043462177758746279e+00 -8.288505046663681597e+00 -8.357085840206019967e+00 -8.492782778629798912e+00 -8.612600787404993241e+00 -8.873232048228063107e+00 -8.873232048228063107e+00 -8.900194115804406891e+00 -8.809511563663956935e+00 -8.794779563842253012e+00 -8.737636885265837705e+00 -8.728273755937388856e+00 -8.781911312728743368e+00 -8.761372167530350197e+00 -8.792959230396347081e+00 -8.802898754359691935e+00 -8.827426607911423417e+00 -8.833993698573767261e+00 -8.833993698573767261e+00 -8.935290643612409767e+00 -8.966291701493103616e+00 -8.967664115435667327e+00 -9.016045869495179943e+00 -9.061376793952872433e+00 -9.026660373609379562e+00 -9.172798264073382057e+00 -9.229788113080727996e+00 -9.271553609094141279e+00 -9.394502900974419646e+00 -9.443577210360919238e+00 -9.485568468146343690e+00 -9.576314701646506222e+00 -9.681969219589968034e+00 -9.681969219589968034e+00 -9.699314109629421310e+00 -9.909759660169427775e+00 -9.917601199299687309e+00 -9.891579826470747960e+00 -9.888933684691291859e+00 -9.789818685995788528e+00 -9.725404515764118685e+00 -9.809642445125019705e+00 -9.785891353110415025e+00 -9.797607134120919881e+00 -9.890501682890890933e+00 -9.890501682890890933e+00 -9.960461852795026161e+00 -9.980138997326339023e+00 -1.003638903232977597e+01 -1.009574336968312380e+01 -1.020209293184199595e+01
1.756964085974911161e+00 1.678121281795299513e+00 1.665494164961400347e+00 1.670538089287016970e+00 1.951950684888948739e+00 2.038913035300955912e+00 2.038913035300955912e+00 2.053112065309072864e+00 1.956735471251470404e+00 1.926857373164152509e+00 1.829425570758616004e+00 1.401148028260849276e+00 1.063441546056605569e+00 1.029734348011853262e+00 9.888993196807078778e-01 8.831503403501013150e-01 6.583004313284274156e-01 3.210446240461440892e-01 3.210446240461440892e-01 3.783941531261233310e-02 -2.523289527269710897e-01 -4.167913182201103961e-01 -5.300968344233593088e-01 -5.345982911000375370e-01 -5.117048673855072449e-01 -5.406606991410884966e-01 -6.078383969705010159e-01 -7.193761912743237286e-01 -1.204536760243429372e+00 -1.447890891968743876e+00 -2.143475591340633368e+00 -2.535722345553622858e+00 -3.260875746914176698e+00 -3.586148146329810160e+00 -3.871221734528290437e+00 -3.874222977926757849e+00 -3.151922092733904002e+00 -3.151922092733904002e+00 -2.715535538224090661e+00 -2.687793217169028193e+00 -2.561871705010677402e+00 -2.703988307267426006e+00 -2.971202226410878833e+00 -3.010718327777527126e+00 -3.280641751989699095e+00 -3.545027424473953470e+00 -3.560041513355365339e+00 -3.838301224794102851e+00 -4.041418813741874949e+00 -4.041418813741874949e+00 -4.171762460186860366e+00 -4.145274621580669283e+00 -4.044755722533365905e+00 -4.057568366171404151e+00 -4.231285696120536954e+00 -4.434123489747215707e+00 -4.973507985371264262e+00 -5.237028888364817725e+00 -5.665291828132094309e+00 -6.201993139855366266e+00 -6.758036322416401731e+00 -6.758036322416401731e+00 -7.219388004372619072e+00 -7.613855467954513401e+00 -7.613855467954513401e+00 -7.978627697691797138e+00 -8.228685478033746392e+00 -8.357085840206019967e+00 -8.413789157037578903e+00 -8.517701651514702377e+00 -8.657972810335214930e+00 -8.859523503412043866e+00 -8.776778771993170025e+00 -8.784276881105736123e+00 -8.710722110221071901e+00 -8.725368781117657235e+00 -8.725368781117657235e+00 -8.754652996911051588e+00 -8.751638155598751467e+00 -8.792959230396347081e+00 -8.794506991823297426e+00 -8.861726383950465191e+00 -8.849351256620758832e+00 -8.891366319618875025e+00 -8.985290143475126001e+00 -8.955592758174017121e+00 -9.034717159096061323e+00 -9.074061044294978728e+00 -9.074061044294978728e+00 -9.103471440332574716e+00 -9.226139935152620097e+00 -9.229788113080727996e+00 -9.329795142436275057e+00 -9.439529957856496623e+00 -9.443577210360919238e+00 -9.587548804356787358e+00 -9.629280770216967156e+00 -9.686150131675955066e+00 -9.699760446968580752e+00 -9.810540791082367207e+00 -9.810540791082367207e+00 -9.914187412032852365e+00 -9.891912995836550593e+00 -9.891912995836550593e+00 -9.853485525091054242e+00 -9.806762236665599985e+00 -9.809642445125019705e+00 -9.846854741605417516e+00 -9.885881120640053865e+00 -9.863993887670195804e+00 -9.958445663042986951e+00 -1.002516879232039315e+01 -1.002214983804876525e+01 -1.008412865906377043e+01 -1.018913757931772679e+01 -1.018913757931772679e+01
1.765643448513501079e+00 1.675292597028553043e+00 1.643015869959283837e+00 1.643015869959283837e+00 1.800266731351632954e+00 1.919876592742032262e+00 2.000244785330854924e+00 1.998977107824004840e+00 1.941400379307153035e+00 1.912254295076553534e+00 1.656065355655343518e+00 1.522218381376464702e+00 1.239924873997410470e+00 1.090517549895382521e+00 9.534822944776029097e-01 9.534822944776029097e-01 7.253147469805837355e-01 4.365651822379307267e-01 2.201960336853581723e-01 1.153211159088378401e-01 -1.343631654051495594e-01 -3.386704624006185438e-01 -5.574917148145679402e-01 -6.575134897540194645e-01 -6.346200660394890614e-01 -6.081431019822394202e-01 -6.072137722284950412e-01 -6.072137722284950412e-01 -1.108511496167071453e+00 -1.624321183904110955e+00 -2.143475591340633368e+00 -2.482522333876313603e+00 -3.223204821414480836e+00 -3.586148146329810160e+00 -4.035198284108323818e+00 -4.135207094633615021e+00 -3.731315712979782706e+00 -3.186260214081862330e+00 -2.858525494924477606e+00 -2.858525494924477606e+00 -2.813430244353905429e+00 -2.956712723929114439e+00 -2.956712723929114439e+00 -3.237604324587036064e+00 -3.468925258513697152e+00 -3.545027424473953470e+00 -3.680124336634918336e+00 -3.929755157097174489e+00 -3.986824924095559552e+00 -4.230381843999090563e+00 -4.296096256208811859e+00 -4.166638350795018653e+00 -4.033648656974298419e+00 -4.083007361587895012e+00 -4.083007361587895012e+00 -4.304120266908824100e+00 -4.806759350781376838e+00 -5.237028888364817725e+00 -5.451262362527891980e+00 -5.989827027214605693e+00 -6.375798464219813333e+00 -6.955701820938610780e+00 -7.034924000148593315e+00 -7.318350465924780224e+00 -7.790467195435279990e+00 -8.083883172067720224e+00 -8.083883172067720224e+00 -8.291533978918126380e+00 -8.438847656733106106e+00 -8.517701651514702377e+00 -8.538669016585878069e+00 -8.744626590461434645e+00 -8.776778771993170025e+00 -8.699786227084645773e+00 -8.630261737241745834e+00 -8.663414294342066668e+00 -8.682061438358639194e+00 -8.721617364498243319e+00 -8.738300696311851468e+00 -8.791783668418823083e+00 -8.854789157340638539e+00 -8.854789157340638539e+00 -8.882195648559774170e+00 -8.941221578159801453e+00 -8.985290143475126001e+00 -9.006424668672361022e+00 -9.086472758158475216e+00 -9.078519812299699510e+00 -9.134877384720530458e+00 -9.180282507055768093e+00 -9.232006333733870918e+00 -9.277330705408662226e+00 -9.400963516876858606e+00 -9.400963516876858606e+00 -9.510538545242308572e+00 -9.585900496380240554e+00 -9.629280770216967156e+00 -9.713233113743548586e+00 -9.739227812314304344e+00 -9.735186759255155309e+00 -9.892072993452970309e+00 -9.918575696906268391e+00 -9.907398922669544916e+00 -9.926132765910459455e+00 -9.847340578732499239e+00 -9.847340578732499239e+00 -9.888972983965992114e+00 -9.916460343107580400e+00 -9.885881120640053865e+00 -9.945724028645594572e+00 -1.003437089966752538e+01 -1.002516879232039315e+01 -1.008260460791614932e+01 -1.013186828579776488e+01 -1.015471665317945593e+01 -1.027302399532618438e+01
1.739560723975376533e+00 1.681511596053389734e+00 1.654338001276181247e+00 1.653946305231592806e+00 1.738271253039229025e+00 1.738271253039229025e+00 1.907405446477183686e+00 1.951742297866502440e+00 1.941400379307153035e+00 1.894619840998850169e+00 1.690058591656778297e+00 1.522218381376464702e+00 1.215504567427516669e+00 1.153662676748774540e+00 1.050760715233364895e+00 8.842549272300280760e-01 7.923290626327401664e-01 6.088712357026178079e-01 3.312153612329601926e-01 6.994413159031967475e-02 6.994413159031967475e-02 -2.158272703278007187e-01 -5.943643111515711785e-01 -6.575134897540194645e-01 -7.575352646934710998e-01 -5.968526047277313840e-01 -5.924378423833707163e-01 -7.941619676386100224e-01 -9.095096230367183399e-01 -1.344384084889425957e+00 -2.000546033462357709e+00 -2.831968984976211079e+00 -2.831968984976211079e+00 -3.550782624855223890e+00 -4.093365708954985749e+00 -4.135207094633615021e+00 -4.157472726490404114e+00 -3.697129149861847264e+00 -3.103860722838023722e+00 -2.949330057729306898e+00 -3.179434647298703176e+00 -2.985859068441513831e+00 -3.236473315187637922e+00 -3.511915468109203964e+00 -3.511915468109203964e+00 -3.687900235184579323e+00 -3.856699161439000711e+00 -3.929755157097174489e+00 -4.124676653194702780e+00 -4.296069073846926045e+00 -4.296096256208811859e+00 -4.257957067137881246e+00 -4.042850979032804659e+00 -4.013988781397294758e+00 -4.092953646169189774e+00 -4.166385593805594034e+00 -4.495585166251009568e+00 -5.052109327264528993e+00 -5.602429225831222936e+00 -5.602429225831222936e+00 -6.194772061543437403e+00 -6.793533702542183583e+00 -7.034924000148593315e+00 -7.212049272278101775e+00 -7.696758082690893232e+00 -7.913793217624849774e+00 -8.168865909403809411e+00 -8.226445288867655137e+00 -8.335044696766249928e+00 -8.428409491841550860e+00 -8.626331484337470101e+00 -8.626331484337470101e+00 -8.654111131246375876e+00 -8.591524814794134102e+00 -8.630261737241745834e+00 -8.590487586622327143e+00 -8.635849120779887755e+00 -8.721617364498243319e+00 -8.741904143667154514e+00 -8.790608106441300862e+00 -8.833647204999355296e+00 -8.893256317849997927e+00 -8.917726427034532222e+00 -8.917726427034532222e+00 -9.027657132186867273e+00 -9.074100973898540090e+00 -9.086472758158475216e+00 -9.143899558931513738e+00 -9.208377975488188483e+00 -9.180282507055768093e+00 -9.287180189862443314e+00 -9.348398298148609342e+00 -9.391154909904837922e+00 -9.490500126400650771e+00 -9.550937368606764011e+00 -9.556303870391815281e+00 -9.670737184626876370e+00 -9.742390372666278608e+00 -9.742390372666278608e+00 -9.785078645791115193e+00 -9.882783253210824626e+00 -9.923218018868334767e+00 -9.923218018868334767e+00 -9.963331847129625274e+00 -9.917401334848442218e+00 -9.887099074900307372e+00 -9.971442232987262955e+00 -9.995582739030574260e+00 -9.974155107159186073e+00 -1.006632484325692189e+01 -1.011035422201330292e+01 -1.008987573184575837e+01 -1.012385121648087249e+01 -1.021368993667579161e+01 -1.021368993667579161e+01 -1.034395505881037458e+01
1.748923168871010514e+00 1.681511596053389734e+00 1.642107579607156920e+00 1.601314026657649769e+00 1.648755126387506875e+00 1.744743884511272158e+00 1.792251946893770764e+00 1.932629805722178462e+00 1.927294074814424940e+00 1.826592993040946578e+00 1.826592993040946578e+00 1.608291169085769967e+00 1.302010995414375261e+00 1.153662676748774540e+00 1.117814742984404308e+00 9.406370564379175070e-01 7.923290626327401664e-01 5.491999473394733045e-01 4.434067868019749836e-01 1.938315591493336709e-01 2.764523649114464243e-02 -3.567904235200415330e-01 -3.567904235200415330e-01 -7.160321398745100874e-01 -6.572008776309851141e-01 -5.968526047277313840e-01 -6.865296442316316528e-01 -8.642834144599580437e-01 -9.095096230367183399e-01 -1.311799490185656891e+00 -1.861574288438031965e+00 -2.405081828001721433e+00 -3.142707360679901640e+00 -3.403457861566202336e+00 -3.862062376912233752e+00 -4.189111265926471539e+00 -4.060081501005424975e+00 -4.060081501005424975e+00 -3.606126973162095517e+00 -3.429567871923598688e+00 -3.179434647298703176e+00 -3.352178853447016493e+00 -3.497358772137471483e+00 -3.454593589893491412e+00 -3.659327713223779366e+00 -3.838979632815400223e+00 -3.806218398128331515e+00 -4.053268306555140477e+00 -4.241274268970233408e+00 -4.241274268970233408e+00 -4.381479323764049916e+00 -4.314337870905180061e+00 -4.042850979032804659e+00 -4.063146319166320630e+00 -4.017353234900133074e+00 -4.166385593805594034e+00 -4.639943046436233232e+00 -4.877813489993123142e+00 -5.240174512634843573e+00 -5.775638750733145699e+00 -6.465299374434735569e+00 -6.465299374434735569e+00 -6.916544270248368598e+00 -7.401253080661159167e+00 -7.401253080661159167e+00 -7.835467380341983201e+00 -8.108888209730318763e+00 -8.226445288867655137e+00 -8.256505417399175428e+00 -8.334486274185266552e+00 -8.502881202392174487e+00 -8.629729677510823649e+00 -8.536311325626463997e+00 -8.483263402503622430e+00 -8.549801364262423320e+00 -8.602823162467981177e+00 -8.586066250266274125e+00 -8.684994591257604313e+00 -8.732170131735557561e+00 -8.833165594161311418e+00 -8.833165594161311418e+00 -8.911697938948812237e+00 -8.959592791264915590e+00 -8.993117295592080396e+00 -9.069354074094635010e+00 -9.132320377946308909e+00 -9.147082134893690153e+00 -9.211524635798845395e+00 -9.283073905414825688e+00 -9.257093573778963247e+00 -9.384183666355120579e+00 -9.453939272430238461e+00 -9.453939272430238461e+00 -9.528726580276760671e+00 -9.612915905583623299e+00 -9.644816278895479655e+00 -9.694162796867903609e+00 -9.777486408666595352e+00 -9.777145490584333132e+00 -9.827959938314908328e+00 -9.882769118732259273e+00 -9.925225580485786736e+00 -9.929718816559731209e+00 -9.994286527943508247e+00 -9.973448328462993118e+00 -9.961882345746477796e+00 -1.000637781738945620e+01 -1.000637781738945620e+01 -1.006242909367831828e+01 -1.015867348114878688e+01 -1.011035422201330292e+01 -1.015458267137112536e+01 -1.019161796357329308e+01 -1.017870888331146517e+01 -1.034002727387605880e+01 -1.042136232043280053e+01
1.764494567915856127e+00 1.680440129052256815e+00 1.625689269349849697e+00 1.625689269349849697e+00 1.590386760381722553e+00 1.640515680408488164e+00 1.792251946893770764e+00 1.791428157754936024e+00 1.835891060155816934e+00 1.848777022586185481e+00 1.735166715842817897e+00 1.626947140327414942e+00 1.475414604421400711e+00 1.228796344412407482e+00 1.060676375168043029e+00 1.060676375168043029e+00 8.722065799463540881e-01 6.457082702555758669e-01 4.434067868019749836e-01 2.957438731384344210e-01 1.857405282516998712e-01 -1.028932181008524321e-01 -5.304715690652577198e-01 -5.972481112970904338e-01 -7.300808720473446201e-01 -5.906857653295520816e-01 -8.119616163444222101e-01 -8.119616163444222101e-01 -1.121445008029961166e+00 -1.464018384419990548e+00 -1.861574288438031965e+00 -2.229819693387879553e+00 -2.943224492622748212e+00 -3.403457861566202336e+00 -3.969699309600009940e+00 -3.992126883888572397e+00 -4.065626737851736117e+00 -3.863533048564035788e+00 -3.866491762863106807e+00 -3.744554316528307059e+00 -3.559802014367628331e+00 -3.601160679655153629e+00 -3.757096489327087951e+00 -3.672527703843740277e+00 -3.822951425881436105e+00 -3.964762036102299714e+00 -3.964762036102299714e+00 -4.224451470501914940e+00 -4.391582233281489778e+00 -4.409681322257817726e+00 -4.487520801633383627e+00 -4.426820293267917705e+00 -4.200726653567025792e+00 -4.046449525870409403e+00 -4.052649387573472595e+00 -4.108771255957990753e+00 -4.496234660730664245e+00 -5.048746029310155592e+00 -5.048746029310155592e+00 -5.613130163347396895e+00 -6.263609023052846503e+00 -6.621039268218632756e+00 -6.810243076601690149e+00 -7.294951887014481606e+00 -7.590456889044215671e+00 -7.937884002893815349e+00 -8.048216689659158263e+00 -8.161356598817187447e+00 -8.283490948806283782e+00 -8.320904623710397630e+00 -8.320904623710397630e+00 -8.514832764560214429e+00 -8.452514154233494281e+00 -8.483263402503622430e+00 -8.465930663451153748e+00 -8.538744407781180712e+00 -8.586066250266274125e+00 -8.640075388095453945e+00 -8.722436119803958832e+00 -8.788714555617115565e+00 -8.873533874552318679e+00 -8.930071694003032690e+00 -8.954162961060880832e+00 -9.048481190341695068e+00 -9.130392145753443600e+00 -9.130392145753443600e+00 -9.200550140222485851e+00 -9.281593549145997102e+00 -9.283073905414825688e+00 -9.343808818617835854e+00 -9.463467701815698518e+00 -9.428264191955380014e+00 -9.524459526468071147e+00 -9.573565082263872483e+00 -9.609779425591938207e+00 -9.674739831077674879e+00 -9.753982724603410759e+00 -9.753982724603410759e+00 -9.807427942215710459e+00 -9.853164613794438864e+00 -9.882769118732259273e+00 -9.920177002173279135e+00 -9.949966887811212857e+00 -9.994286527943508247e+00 -9.994721984643348378e+00 -1.003666561659264644e+01 -1.005462295339950884e+01 -1.007751914463746878e+01 -1.010989712368853688e+01 -1.010989712368853688e+01 -1.018637369460403441e+01 -1.020351414765091569e+01 -1.020351414765091569e+01 -1.022504906530305924e+01 -1.041547212115522392e+01 -1.042136232043280053e+01
1.721714105281734630e+00 1.669508042717719132e+00 1.627996795102197858e+00 1.605863713749460242e+00 1.578854677722261846e+00 1.578854677722261846e+00 1.664582392132101241e+00 1.749129855521029064e+00 1.777454708087080615e+00 1.777454708087080615e+00 1.671645503697424706e+00 1.506079170797574251e+00 1.368066750139143473e+00 1.282231042681773125e+00 1.091146697192052262e+00 9.851434580683258169e-01 9.429329532314674189e-01 7.327517943806529654e-01 5.520183137124036188e-01 1.746340776426543173e-01 3.103355732534710532e-01 5.362095109657763481e-02 -4.110712489841065187e-01 -6.535833513802769001e-01 -6.535833513802769001e-01 -5.423464938406463709e-01 -7.468293833387297243e-01 -9.171326372615093980e-01 -9.773305375750040991e-01 -1.425882796498627814e+00 -1.739789982766381193e+00 -2.519374127846682576e+00 -2.744402447290144043e+00 -3.193796015259469101e+00 -3.700490279204881716e+00 -3.868642355813837419e+00 -3.868642355813837419e+00 -4.019637970670697058e+00 -3.962068494980389932e+00 -3.744554316528307059e+00 -3.934534433554644384e+00 -3.938224842925308167e+00 -3.757096489327087951e+00 -3.839206880322882487e+00 -3.972999342563079406e+00 -3.962945198879550546e+00 -4.160138286782135708e+00 -4.430306385972791361e+00 -4.430306385972791361e+00 -4.519608253552317656e+00 -4.515950383067821150e+00 -4.515950383067821150e+00 -4.358602328101247814e+00 -4.126037657072754605e+00 -4.052649387573472595e+00 -4.054277501031997133e+00 -4.354953640623490330e+00 -4.713443539965390450e+00 -5.222299296648110101e+00 -5.409350823660521890e+00 -5.810213980933347955e+00 -6.458095201358249327e+00 -7.014328055517585980e+00 -7.014328055517585980e+00 -7.484155695397538111e+00 -7.864884418306864688e+00 -8.048216689659158263e+00 -8.095904010338569989e+00 -8.205812594842875285e+00 -8.240563056528980468e+00 -8.381257944348693201e+00 -8.399935851609605209e+00 -8.418511520006552118e+00 -8.375001990213112535e+00 -8.439256118108644955e+00 -8.439256118108644955e+00 -8.532033376901193122e+00 -8.651634325719655294e+00 -8.722436119803958832e+00 -8.785826650593463683e+00 -8.877165851908053185e+00 -8.930071694003032690e+00 -9.001418103473547205e+00 -9.090856115594110776e+00 -9.109307810652854442e+00 -9.190539781994077728e+00 -9.253711566514484232e+00 -9.283265106445636405e+00 -9.358792275542551664e+00 -9.434748319806271155e+00 -9.434748319806271155e+00 -9.513392006403604384e+00 -9.586207531263678305e+00 -9.573565082263872483e+00 -9.674207420316736972e+00 -9.712861610188653572e+00 -9.764342575651804523e+00 -9.810891942271890542e+00 -9.836968996796343845e+00 -9.858493445428017310e+00 -9.892766150421019589e+00 -9.954682004748454105e+00 -9.954682004748454105e+00 -1.001976676080551165e+01 -1.007152986592795507e+01 -1.003666561659264644e+01 -1.013780367381175473e+01 -1.015497737172904635e+01 -1.014794586309433910e+01 -1.023761063732322008e+01 -1.025855176154881576e+01 -1.021978508055223145e+01 -1.025938471066571367e+01 -1.033163650366845765e+01 -1.033163650366845765e+01 -1.050674729341182889e+01
1.692575289903911262e+00 1.626033165908246980e+00 1.626033165908246980e+00 1.609880637678015702e+00 1.560241410916405558e+00 1.570182107702114749e+00 1.571569751688946193e+00 1.618496772155053165e+00 1.743070691530994143e+00 1.689504490033309603e+00 1.654851411336458078e+00 1.617784771062966032e+00 1.407046555523308040e+00 1.195142737677526323e+00 1.195142737677526323e+00 1.045872650284755290e+00 8.749992873375821434e-01 7.327517943806529654e-01 6.553764607440463186e-01 2.398269083777763988e-01 3.103355732534710532e-01 -9.566325926244342859e-02 -2.217446422634170022e-01 -5.327609882498394178e-01 -6.154677095697299594e-01 -5.007085163446907128e-01 -5.874770419837972435e-01 -8.077081326842330267e-01 -1.095783926552947207e+00 -1.095783926552947207e+00 -1.629240358652831677e+00 -2.342104667667842310e+00 -2.744402447290144043e+00 -2.992877170183300350e+00 -3.446992641983653627e+00 -3.757014876424288996e+00 -3.886653473991615204e+00 -4.070008601002410131e+00 -4.096758873909946530e+00 -4.057645227097673057e+00 -4.088909141139055237e+00 -4.088909141139055237e+00 -4.038365077303676998e+00 -4.006003694481353961e+00 -3.972999342563079406e+00 -4.073644107964544681e+00 -4.254096134097833826e+00 -4.400642229820074469e+00 -4.540065008299872140e+00 -4.616685101580658035e+00 -4.602562423100800437e+00 -4.539302715630656238e+00 -4.302931139586422482e+00 -4.302931139586422482e+00 -4.083769324928455013e+00 -4.098097348906325266e+00 -4.354953640623490330e+00 -4.551819457381690803e+00 -5.069410118073302662e+00 -5.409350823660521890e+00 -6.050699326515371013e+00 -6.288650632120771355e+00 -6.711516487883206317e+00 -7.243591682151000910e+00 -7.374826748725634928e+00 -7.663153181085172072e+00 -7.987545169587998650e+00 -8.099426858665028206e+00 -8.099426858665028206e+00 -8.148044773119627493e+00 -8.263690855088373866e+00 -8.399935851609605209e+00 -8.300711714386642015e+00 -8.266740577922599087e+00 -8.365640220731448196e+00 -8.455984832224833880e+00 -8.478000503536112120e+00 -8.592409252875587100e+00 -8.712702107872361879e+00 -8.819523496982029087e+00 -8.819523496982029087e+00 -8.950772555303112554e+00 -9.037010921926793117e+00 -9.090856115594110776e+00 -9.148939006439055888e+00 -9.241536865013113555e+00 -9.253711566514484232e+00 -9.346442333109370892e+00 -9.428573862512163117e+00 -9.431422083940065093e+00 -9.542751737276278234e+00 -9.579507997481041315e+00 -9.579507997481041315e+00 -9.637108550080572655e+00 -9.699100477480424587e+00 -9.712861610188653572e+00 -9.782619228349046736e+00 -9.831943053418713774e+00 -9.836968996796343845e+00 -9.879710203079449471e+00 -9.920973798304300928e+00 -9.930935141956751977e+00 -9.979116871936462019e+00 -1.004271362439929582e+01 -1.003860274694996590e+01 -1.008822431597839397e+01 -1.016341064875286548e+01 -1.016341064875286548e+01 -1.020600104794082164e+01 -1.029112436290096078e+01 -1.025855176154881576e+01 -1.024322853492116714e+01 -1.026618708320384599e+01 -1.029313975489347932e+01 -1.048927821758472945e+01 -1.048963207562234423e+01
1.680434882317459966e+00 1.658575956383181671e+00 1.637206483674805035e+00 1.610377908196923169e+00 1.579743083219916411e+00 1.556003118537737651e+00 1.533998658178551633e+00 1.533998658178551633e+00 1.642254087285386133e+00 1.637924007874410837e+00 1.654851411336458078e+00 1.602323599159398926e+00 1.434363777531272088e+00 1.301100201858390593e+00 1.126132078100196221e+00 1.087808972183063272e+00 1.009559904421588161e+00 8.072599161273921187e-01 5.278356814551686815e-01 5.278356814551686815e-01 4.057857327135120373e-01 9.830823779486698444e-02 -2.217446422634170022e-01 -3.944380292685538691e-01 -5.721555353344163208e-01 -5.007085163446907128e-01 -5.887163533930477310e-01 -7.475349514246475424e-01 -8.774173367254302081e-01 -1.277671425251795112e+00 -1.846684424966458016e+00 -1.846684424966458016e+00 -2.553944607191703575e+00 -3.156186902076743017e+00 -3.446992641983653627e+00 -3.587412133631866507e+00 -3.879205010581823654e+00 -4.070008601002410131e+00 -4.208359453041049747e+00 -4.367755824352873795e+00 -4.238539362778084296e+00 -4.162931486173445883e+00 -4.115273184589205435e+00 -4.080279285393618061e+00 -4.057716349712105597e+00 -4.123706963398223735e+00 -4.123706963398223735e+00 -4.384773094056798826e+00 -4.567886740688730463e+00 -4.616685101580658035e+00 -4.656377907872272459e+00 -4.637906854868900197e+00 -4.513370715110643694e+00 -4.224586209585193153e+00 -4.144327905963395509e+00 -4.037070269725853144e+00 -4.239841723726022416e+00 -4.689642576670992824e+00 -4.689642576670992824e+00 -5.221847203545554095e+00 -5.897611744216911589e+00 -6.288650632120771355e+00 -6.534558913135224856e+00 -7.062922372591452280e+00 -7.374826748725634928e+00 -7.734966662148884176e+00 -7.874940528867136358e+00 -8.018977576284179065e+00 -8.125654842819546531e+00 -8.129765791842473277e+00 -8.129765791842473277e+00 -8.300484622984303229e+00 -8.257302419074335376e+00 -8.266740577922599087e+00 -8.321026985832117973e+00 -8.429156302072662754e+00 -8.478000503536112120e+00 -8.582600877958011409e+00 -8.728183256432291870e+00 -8.784250465726671564e+00 -8.890298703228801003e+00 -8.965427940103021243e+00 -9.065332872894716232e+00 -9.118729830363040634e+00 -9.217586448862153503e+00 -9.260891363213241689e+00 -9.294515714507898707e+00 -9.385922520813391401e+00 -9.470898728336777594e+00 -9.470898728336777594e+00 -9.571234749224794669e+00 -9.610070488848780457e+00 -9.637727852191924072e+00 -9.712822827922913405e+00 -9.728698833517658073e+00 -9.746169613900029560e+00 -9.824575705324127384e+00 -9.850058452402262077e+00 -9.864031157377802117e+00 -9.900272878487024641e+00 -9.962133729376757785e+00 -9.962133729376757785e+00 -1.001205101814206166e+01 -1.006571807902735571e+01 -1.008335056132825969e+01 -1.011430668874373318e+01 -1.019745480974962959e+01 -1.020801064808610370e+01 -1.024090505037582766e+01 -1.033152010759158301e+01 -1.027989793209130198e+01 -1.024670867734566215e+01 -1.022788118324048057e+01 -1.023302112887808946e+01 -1.039155958875075392e+01 -1.042535470875294834e+01
1.680434882317459966e+00 1.662063217797052239e+00 1.622524150125135511e+00 1.610377908196923169e+00 1.553572746201653532e+00 1.557405718320320487e+00 1.535586106089105396e+00 1.529363378360892645e+00 1.585439178136946792e+00 1.585439178136946792e+00 1.584602685773124353e+00 1.536983895573904579e+00 1.536983895573904579e+00 1.333159805668206355e+00 1.182612034307180426e+00 1.087808972183063272e+00 1.030652047873481969e+00 8.759687600090966253e-01 7.324871651824919061e-01 3.703839855617200860e-01 4.672717267689010523e-01 2.604453954204692945e-01 -5.599161666701332057e-02 -5.355405868390108459e-01 -5.355405868390108459e-01 -5.507075445899947130e-01 -5.585518619554048492e-01 -7.475349514246475424e-01 -9.107200299457769432e-01 -1.197994374216448721e+00 -1.527220169615847833e+00 -2.142404541451715438e+00 -2.360129591984390984e+00 -2.827512232773450762e+00 -3.384244313847680097e+00 -3.761263289011466338e+00 -3.761263289011466338e+00 -4.025587727345986799e+00 -4.341900128840300965e+00 -4.367755824352873795e+00 -4.326925280861873446e+00 -4.178992050818775006e+00 -4.115273184589205435e+00 -4.064159886408097222e+00 -4.090549668861104493e+00 -4.062395311672370113e+00 -4.196462174609472129e+00 -4.444136088152905728e+00 -4.444136088152905728e+00 -4.615939780886503918e+00 -4.680512315472238782e+00 -4.721712532823257646e+00 -4.607101312197190879e+00 -4.341278007832219288e+00 -4.085106179168854545e+00 -4.085106179168854545e+00 -4.137828827326413439e+00 -4.548636700998935467e+00 -4.895666318981263032e+00 -5.061660872232588204e+00 -5.673381624082715291e+00 -6.142505702083721708e+00 -6.756314641246776276e+00 -6.826716081047334406e+00 -7.129466274747850107e+00 -7.605552225491311269e+00 -7.906928508371258602e+00 -7.906928508371258602e+00 -8.037580363170064857e+00 -8.058173802675721475e+00 -8.183414205715425993e+00 -8.222168972383153474e+00 -8.234396902076948521e+00 -8.269479791152969383e+00 -8.384071084733651702e+00 -8.463161010599581147e+00 -8.504494345985673220e+00 -8.661669820227954730e+00 -8.812653759005661058e+00 -8.812653759005661058e+00 -8.912981032783203972e+00 -9.033148363845114659e+00 -9.065332872894716232e+00 -9.133077930224999363e+00 -9.239762482258210952e+00 -9.260891363213241689e+00 -9.322401097487151844e+00 -9.409571499508345482e+00 -9.438629412512163697e+00 -9.511350047484599557e+00 -9.562065425119801176e+00 -9.609157528974630935e+00 -9.653076574244186858e+00 -9.734802912284299836e+00 -9.734802912284299836e+00 -9.767395049827165110e+00 -9.847145985166976700e+00 -9.850058452402262077e+00 -9.891093317959256837e+00 -9.925995193760318358e+00 -9.956721415367320915e+00 -1.000413720978880150e+01 -1.004427163929200084e+01 -1.006566048799308000e+01 -1.010141407649874346e+01 -1.021255845541483609e+01 -1.021255845541483609e+01 -1.026104392444316105e+01 -1.029169105529146400e+01 -1.033152010759158301e+01 -1.030531952229943116e+01 -1.023534235767460565e+01 -1.022788118324048057e+01 -1.021334085227572430e+01 -1.029469009642724942e+01 -1.036246814017250450e+01
1.678751508734120712e+00 1.637501524472583680e+00 1.637501524472583680e+00 1.605575293980734619e+00 1.564098572363443074e+00 1.557405718320320487e+00 1.540101021060952036e+00 1.512270622935861564e+00 1.534513384386581691e+00 1.546414377898503112e+00 1.500103744812863349e+00 1.562662318166860409e+00 1.453641015175558548e+00 1.274122717366871438e+00 1.274122717366871438e+00 1.121787525156185072e+00 1.007112085524025868e+00 8.759687600090966253e-01 8.088010664308349362e-01 5.181612512478273036e-01 2.863746444655274614e-01 2.866038805632548092e-01 1.278717103252883791e-01 -3.815017074288189480e-01 -5.939748999040018740e-01 -5.728630367877254326e-01 -5.076805728401005968e-01 -6.760992709900734976e-01 -9.930227116971279688e-01 -1.137233256508957346e+00 -1.405406210020018420e+00 -1.937088606544595581e+00 -2.682156163062548337e+00 -2.682156163062548337e+00 -3.333822111697432700e+00 -3.772622490702945086e+00 -3.876112149301662591e+00 -3.978685369740184274e+00 -4.237763813082371378e+00 -4.354031568254379536e+00 -4.258189721563087282e+00 -4.189845310139897805e+00 -4.162282810156852975e+00 -4.107134451377526752e+00 -4.065847666910940461e+00 -4.065847666910940461e+00 -4.148348065675845575e+00 -4.349672011004607874e+00 -4.520909525977220511e+00 -4.621623236967753456e+00 -4.727124185567236125e+00 -4.721712532823257646e+00 -4.561378402869634918e+00 -4.460641941618316508e+00 -4.222112073528216492e+00 -4.034102418021994652e+00 -4.338559889611459219e+00 -4.338559889611459219e+00 -4.747789559065731524e+00 -5.262787511141680419e+00 -5.673381624082715291e+00 -5.942411411572074087e+00 -6.523965887346818704e+00 -6.826716081047334406e+00 -7.000051838090278977e+00 -7.476137788833740139e+00 -7.750395605802440357e+00 -7.920761813429535891e+00 -7.952792357692088920e+00 -8.020044887459327754e+00 -8.109782623747470609e+00 -8.204740157747279383e+00 -8.204740157747279383e+00 -8.279521054371944189e+00 -8.409625869664006714e+00 -8.463161010599581147e+00 -8.535137287021512975e+00 -8.695223248574373898e+00 -8.757193144383782268e+00 -8.861997133594993414e+00 -8.933933806696899182e+00 -8.981465184661932000e+00 -9.093358532837468644e+00 -9.194236285952063881e+00 -9.194236285952063881e+00 -9.286340080099376948e+00 -9.352394190575138211e+00 -9.409571499508345482e+00 -9.445138202812323414e+00 -9.524613326464843155e+00 -9.562065425119801176e+00 -9.624370899397074908e+00 -9.668726688750695075e+00 -9.727037598266406349e+00 -9.765643085119041444e+00 -9.816228183621729997e+00 -9.816228183621729997e+00 -9.868173851385812156e+00 -9.916694894330069232e+00 -9.916694894330069232e+00 -9.981985525932440595e+00 -1.001855732724190418e+01 -1.004427163929200084e+01 -1.009835468577117901e+01 -1.012284244647772979e+01 -1.014038906150906882e+01 -1.023149897074639014e+01 -1.031407720080021839e+01 -1.028716414273187851e+01 -1.036757129167686742e+01 -1.023461904342732431e+01 -1.023461904342732431e+01 -1.021011044490912312e+01 -1.018072061533475292e+01 -1.029469009642724942e+01 -1.022559364187841169e+01
1.677469407527974354e+00 1.628601505351922052e+00 1.601906620595551223e+00 1.601227051278073521e+00 1.567743868398362883e+00 1.555749538611550076e+00 1.519567449219708433e+00 1.490323208515374365e+00 1.439896731741065139e+00 1.450467700462952703e+00 1.478163377206599405e+00 1.478163377206599405e+00 1.435624416325788966e+00 1.321892167267460838e+00 1.228326787642659568e+00 1.160626392580611954e+00 1.054880799386672896e+00 9.440622958108372265e-01 7.264850906145599030e-01 6.606723287484512763e-01 5.001376489179216733e-01 4.748995233316427034e-01 -5.936906010462845995e-02 -5.936906010462845995e-02 -5.170271508684459727e-01 -5.658027257435715995e-01 -5.076805728401005968e-01 -6.023581414414844737e-01 -1.024642486482566728e+00 -1.137233256508957346e+00 -1.583996174216260933e+00 -1.815094861200935217e+00 -2.195100587082838395e+00 -3.068616764786933349e+00 -3.553302263205035061e+00 -3.553302263205035061e+00 -3.873835712564716260e+00 -4.096374020530258342e+00 -4.096374020530258342e+00 -4.263813733133575923e+00 -4.055979044001285949e+00 -4.189845310139897805e+00 -4.157467900142351347e+00 -4.087869292534157317e+00 -4.124907940925003125e+00 -3.992312143653272472e+00 -4.054418541655445019e+00 -4.198756282700237819e+00 -4.476578624782242777e+00 -4.650833238226318223e+00 -4.650833238226318223e+00 -4.784333866006718949e+00 -4.683719342444455869e+00 -4.460641941618316508e+00 -4.341309241760290760e+00 -4.043187711143539254e+00 -4.075212990150948400e+00 -4.427722490708984715e+00 -4.591346696068427491e+00 -4.881777831304283666e+00 -5.460047669390752922e+00 -6.233442507577072078e+00 -6.233442507577072078e+00 -6.697301644389762387e+00 -7.173387595133222661e+00 -7.476137788833740139e+00 -7.623953136747322112e+00 -7.830282173828086556e+00 -7.952792357692088920e+00 -7.986581813508968786e+00 -8.036151041779515225e+00 -8.141897390879124785e+00 -8.211491385079561667e+00 -8.290459293251595696e+00 -8.366410532408931289e+00 -8.497165719126499539e+00 -8.636537604961262105e+00 -8.636537604961262105e+00 -8.778521837418345797e+00 -8.893901488533595412e+00 -8.933933806696899182e+00 -9.002003201413208089e+00 -9.120332609347675756e+00 -9.147426030086959869e+00 -9.258320881876848318e+00 -9.302590983233880451e+00 -9.346531854008187423e+00 -9.414927437315181891e+00 -9.511362293967057013e+00 -9.511362293967057013e+00 -9.582107312881692707e+00 -9.641353749743711177e+00 -9.668726688750695075e+00 -9.737616708806319465e+00 -9.789637397587133805e+00 -9.790344578494181604e+00 -9.853226314291269716e+00 -9.886441607345391347e+00 -9.913456177070251840e+00 -9.952562826025532772e+00 -1.000875031813427896e+01 -1.000875031813427896e+01 -1.007516313899635207e+01 -1.010638943137390555e+01 -1.012284244647772979e+01 -1.016596531441552465e+01 -1.026554313174315425e+01 -1.031407720080021839e+01 -1.034679030325884597e+01 -1.040004156442586769e+01 -1.033587751283707945e+01 -1.022397603800354560e+01 -1.020208693756826435e+01 -1.018606416685365446e+01 -1.019977041771999460e+01 -1.015811623631426919e+01
1.652905141435045300e+00 1.652905141435045300e+00 1.614449502839348627e+00 1.583869754404350294e+00 1.567743868398362883e+00 1.562260038784386573e+00 1.529797349091449821e+00 1.490323208515374365e+00 1.422222195996146521e+00 1.486420227545226957e+00 1.441173212624769384e+00 1.420770177569335102e+00 1.479567291207624091e+00 1.392594266369280076e+00 1.256861300314058294e+00 1.121428612910034150e+00 1.121428612910034150e+00 9.981373025483456507e-01 7.977008026201414248e-01 6.606723287484512763e-01 5.820120206042351807e-01 5.223077966634442904e-01 2.577049640987221224e-01 -2.215509898344551198e-01 -3.889058947836804836e-01 -5.867119788220392929e-01 -5.134279230603694399e-01 -8.039707348149487398e-01 -8.039707348149487398e-01 -1.133052936014910417e+00 -1.539590688224858450e+00 -1.815094861200935217e+00 -2.053773025540240660e+00 -2.793132278901026666e+00 -3.207890201688873510e+00 -3.654744059424648306e+00 -3.629980278409409955e+00 -3.958077646789878834e+00 -4.155284483886809710e+00 -4.056865728770231883e+00 -4.056865728770231883e+00 -4.094149244290244738e+00 -4.092529062633526671e+00 -4.087869292534157317e+00 -4.030566577554533403e+00 -3.926562506046751722e+00 -4.054418541655445019e+00 -4.281938391580089487e+00 -4.414118059010180062e+00 -4.576859794032809958e+00 -4.740254015216653904e+00 -4.810863812471561474e+00 -4.786578338533530541e+00 -4.610526540121198558e+00 -4.254663157878130875e+00 -4.254663157878130875e+00 -4.051578498967920439e+00 -4.327633220628782418e+00 -4.591346696068427491e+00 -4.727392263694266461e+00 -5.308660688287717200e+00 -5.752541934736562723e+00 -6.468229070498208166e+00 -6.630657516954089559e+00 -6.870637401432706071e+00 -7.346723352176168120e+00 -7.689137395249991513e+00 -7.689137395249991513e+00 -7.868472758698707992e+00 -7.913165526069343869e+00 -8.036151041779515225e+00 -8.061625809375096097e+00 -8.188585868082176589e+00 -8.290459293251595696e+00 -8.436631008435233170e+00 -8.531105776634538174e+00 -8.573334515623653118e+00 -8.728776676920791289e+00 -8.862848133265373463e+00 -8.862848133265373463e+00 -8.952949109665732763e+00 -9.097596958388908917e+00 -9.120332609347675756e+00 -9.161774129948920375e+00 -9.273144826350023351e+00 -9.302590983233880451e+00 -9.364949994409313305e+00 -9.417695488316422114e+00 -9.469616461485824033e+00 -9.547151347059774196e+00 -9.590785928558698714e+00 -9.642804378132190379e+00 -9.688959215842697148e+00 -9.777916378093328476e+00 -9.807016602205500533e+00 -9.824866508169010970e+00 -9.865229294699553009e+00 -9.935176887484761465e+00 -9.935176887484761465e+00 -9.979130458290748962e+00 -1.002817311367354414e+01 -1.004983586555457720e+01 -1.010435452535227085e+01 -1.012708215621989183e+01 -1.014599519127516203e+01 -1.027247042696234303e+01 -1.029958729273991480e+01 -1.036361929372532309e+01 -1.040188955122622794e+01 -1.036643550337472952e+01 -1.036643550337472952e+01 -1.021260971833248909e+01 -1.017106475670815513e+01 -1.015830132193048030e+01 -1.010891016181514424e+01 -1.002229575741256262e+01
1.677312012835680655e+00 1.640537755874092785e+00 1.629245848389657025e+00 1.609447165575772276e+00 1.583537443143055778e+00 1.566780233243465936e+00 1.566780233243465936e+00 1.519198041156578860e+00 1.508895489482997121e+00 1.486420227545226957e+00 1.538738388766890841e+00 1.543702019572213757e+00 1.479567291207624091e+00 1.348310050037409002e+00 1.328994373116865413e+00 1.211140660909237665e+00 1.090376089297357298e+00 9.265864412587161425e-01 9.265864412587161425e-01 7.234474852749621654e-01 4.802036412690779965e-01 5.223077966634442904e-01 4.070135865270392839e-01 -3.547840029500537451e-02 -3.889058947836804836e-01 -5.376411863870181884e-01 -5.186820251994888054e-01 -6.089794358960483045e-01 -9.098271980723853236e-01 -1.097438397461152126e+00 -1.334824501748234749e+00 -1.750978807016578154e+00 -2.298513428079371756e+00 -2.298513428079371756e+00 -2.957915492512821931e+00 -3.280622242042555481e+00 -3.629980278409409955e+00 -3.785121539944414248e+00 -4.139308539668587805e+00 -4.168053392545177260e+00 -3.992954055513224354e+00 -3.957357408838131363e+00 -4.015214834968412028e+00 -3.999966996356329574e+00 -3.950358749501276634e+00 -3.950358749501276634e+00 -3.956583144056891932e+00 -4.217683004091985488e+00 -4.414118059010180062e+00 -4.518028033828555223e+00 -4.731334577563210964e+00 -4.810863812471561474e+00 -4.780895625385193526e+00 -4.751872683319623647e+00 -4.502531787628027971e+00 -4.104520822399631896e+00 -4.093574178349646431e+00 -4.093574178349646431e+00 -4.444305476035832925e+00 -4.946071320188090148e+00 -4.946071320188090148e+00 -5.563599372403383647e+00 -6.237526804694601523e+00 -6.811587279856022192e+00 -6.811587279856022192e+00 -7.230588882023024411e+00 -7.569267244456452381e+00 -7.739802534226638109e+00 -7.766463237594357416e+00 -7.870289277207747958e+00 -7.964440540955072478e+00 -8.117368573377357066e+00 -8.167427790331881710e+00 -8.302417661952706140e+00 -8.463418092345218469e+00 -8.611531744225791485e+00 -8.611531744225791485e+00 -8.752999038312154312e+00 -8.887778163741392845e+00 -8.924405892718114686e+00 -8.971964412634564567e+00 -9.118607710965321189e+00 -9.145704613928888449e+00 -9.230550519731403725e+00 -9.285893804883876612e+00 -9.337641277738651269e+00 -9.411093166028924983e+00 -9.495642768182911198e+00 -9.495642768182911198e+00 -9.571747519310177310e+00 -9.643616552451717894e+00 -9.664334542385596194e+00 -9.705268327335470957e+00 -9.778475429327352586e+00 -9.807016602205500533e+00 -9.857252741019031816e+00 -9.881200636254583003e+00 -9.910307201026467894e+00 -9.953055697058257323e+00 -9.991411504304730684e+00 -1.001900621326442398e+01 -1.007867447342170664e+01 -1.015013395347517822e+01 -1.015013395347517822e+01 -1.015412471992467403e+01 -1.025164880109701571e+01 -1.029958729273991480e+01 -1.038016257138136567e+01 -1.039951408687088552e+01 -1.043251183717486619e+01 -1.025865758013793716e+01 -1.019077641306576965e+01 -1.018749981080378042e+01 -1.018220213988592704e+01 -1.008747964323611157e+01 -1.008747964323611157e+01
1.675604247116202261e+00 1.661755258027771021e+00 1.629245848389657025e+00 1.623139053806453846e+00 1.597818060349714520e+00 1.573224034586487852e+00 1.547728503685616985e+00 1.535887423143636132e+00 1.542103689942176281e+00 1.576631178543658418e+00 1.590386915987758387e+00 1.590386915987758387e+00 1.603895942113926054e+00 1.449289245856790309e+00 1.328994373116865413e+00 1.287317907137714545e+00 1.130288651503500663e+00 1.029564875521587153e+00 8.518485679621176088e-01 7.784877034102215543e-01 6.792500247806727565e-01 5.140582293069998476e-01 3.174458826075606255e-01 3.174458826075606255e-01 -2.430740081091800064e-01 -5.371942202915348519e-01 -5.186820251994888054e-01 -5.074795209815380348e-01 -8.478986874114267103e-01 -1.097438397461152126e+00 -1.510442526871809577e+00 -1.592807697727224969e+00 -2.008621988656322355e+00 -2.436332909383948753e+00 -2.977768656467092434e+00 -3.145037036024691979e+00 -3.435763503577559774e+00 -4.042919267753553925e+00 -4.098381369093845095e+00 -4.056878363487172123e+00 -3.943605938816977741e+00 -3.868371224042063350e+00 -3.868371224042063350e+00 -3.918563263642383721e+00 -3.844352482537826354e+00 -3.869561792044181825e+00 -3.862261447954164595e+00 -4.153427616603882377e+00 -4.349871132226383885e+00 -4.607220247610415598e+00 -4.696273674667769349e+00 -4.837791836674932178e+00 -4.879294986288183367e+00 -4.650923197295053768e+00 -4.650923197295053768e+00 -4.194640338396197876e+00 -4.006470477641120631e+00 -4.209011163304086089e+00 -4.302649361098994873e+00 -4.765844401660590535e+00 -5.176291091963121538e+00 -5.790691984870488085e+00 -6.038652967982626407e+00 -6.395091311791921029e+00 -7.003775220205388230e+00 -7.356838501345002612e+00 -7.356838501345002612e+00 -7.570408798984573195e+00 -7.806122926961948316e+00 -7.870289277207747958e+00 -7.913576353378889650e+00 -8.094962474557990006e+00 -8.167427790331881710e+00 -8.298439384625060811e+00 -8.461267597833300513e+00 -8.543662749055309646e+00 -8.683538362004286526e+00 -8.758546785467723694e+00 -8.814369651233501912e+00 -8.945369209270687350e+00 -9.054545407346040520e+00 -9.054545407346040520e+00 -9.156292830370297509e+00 -9.242085407279743592e+00 -9.285893804883876612e+00 -9.353516210893275229e+00 -9.430364641863620889e+00 -9.429913618280112431e+00 -9.521762943694675130e+00 -9.577122670903978729e+00 -9.591461462310290287e+00 -9.669101172582291071e+00 -9.737889814043624526e+00 -9.737889814043624526e+00 -9.811903226987194415e+00 -9.845731493708299809e+00 -9.881200636254583003e+00 -9.925482303270175777e+00 -9.962808529081758735e+00 -9.991411504304730684e+00 -1.005669612472914309e+01 -1.006265434540636861e+01 -1.008517687860817347e+01 -1.012626726050338988e+01 -1.018815644485851735e+01 -1.018815644485851735e+01 -1.028194774451256421e+01 -1.032208028055782734e+01 -1.032208028055782734e+01 -1.036844558026358776e+01 -1.023382302698738577e+01 -1.019077641306576965e+01 -1.016242215730493115e+01 -1.017490787477560943e+01 -1.012569327837208277e+01 -1.007582401117913840e+01
1.681283128001444416e+00 1.672448342984600878e+00 1.640068959371060675e+00 1.615933282893808665e+00 1.590335267795513152e+00 1.590335267795513152e+00 1.567140810464888956e+00 1.588271876375595193e+00 1.598339769040123315e+00 1.664454706614033386e+00 1.693817175854968715e+00 1.651258888319652396e+00 1.675118048623055245e+00 1.533712630760896811e+00 1.402356057319043892e+00 1.233993295323977168e+00 1.178040509630341681e+00 1.060992448494828766e+00 8.970554265753397649e-01 7.066237553438876606e-01 7.066237553438876606e-01 5.921761374400966726e-01 4.653027869494891777e-01 1.506184325465087515e-01 -6.117475681474947302e-02 -5.068481874081713912e-01 -3.836105691963729858e-01 -5.469284321909632096e-01 -6.967255870771100756e-01 -1.070180673109812908e+00 -1.457142248329152068e+00 -1.708829238969079345e+00 -1.708829238969079345e+00 -2.159071108986256871e+00 -2.850250111338659131e+00 -3.145037036024691979e+00 -3.503999926897348516e+00 -3.893224013295679242e+00 -4.098381369093845095e+00 -3.953882399833036132e+00 -3.910646856585655584e+00 -3.895557429627514168e+00 -3.910450198819543921e+00 -3.879477551615243769e+00 -3.879477551615243769e+00 -3.816512083021148527e+00 -4.020219804907862127e+00 -4.020219804907862127e+00 -4.299547669042639519e+00 -4.582152303363898227e+00 -4.696273674667769349e+00 -4.837624377966353251e+00 -4.929847877639316422e+00 -4.861357810093742238e+00 -4.468196332432031959e+00 -4.286639365012202774e+00 -4.043226262711156593e+00 -4.104295299228580163e+00 -4.479088921860718386e+00 -4.479088921860718386e+00 -5.015061346534028353e+00 -5.598071507453051154e+00 -6.038652967982626407e+00 -6.192777559712355995e+00 -6.787714399959579481e+00 -7.093352353106286756e+00 -7.396363411841772262e+00 -7.361654942319114880e+00 -7.612270374069618484e+00 -7.810033469744384504e+00 -7.968947717336669179e+00 -7.968947717336669179e+00 -8.174880954820119783e+00 -8.369749316871335054e+00 -8.461267597833300513e+00 -8.529518716117866717e+00 -8.684214384370516626e+00 -8.758546785467723694e+00 -8.885695554419742237e+00 -8.945221253301046005e+00 -8.970716838627906142e+00 -9.110068915648842136e+00 -9.184072482129366222e+00 -9.184072482129366222e+00 -9.282575178799488569e+00 -9.371085837444837807e+00 -9.371085837444837807e+00 -9.435429952924138775e+00 -9.523269747812408426e+00 -9.577122670903978729e+00 -9.605253852768441902e+00 -9.673851569924906357e+00 -9.703862604623434862e+00 -9.770126587268785912e+00 -9.816789851768891850e+00 -9.814405500658121895e+00 -9.886999308199523995e+00 -9.958898943116963665e+00 -9.958898943116963665e+00 -9.979890584354167871e+00 -1.005612479098290102e+01 -1.006265434540636861e+01 -1.008950959687185644e+01 -1.012865990815905448e+01 -1.012154874282510342e+01 -1.022876815788650617e+01 -1.026201387952090371e+01 -1.033837155746750724e+01 -1.031214738205193981e+01 -1.028798696693745640e+01 -1.028798696693745640e+01 -1.015290687663652491e+01 -1.019274983018333458e+01 -1.017490787477560943e+01 -1.015436564654739371e+01 -1.014344531553082263e+01
1.696000783431972803e+00 1.672448342984600878e+00 1.665498869990052810e+00 1.626567289461720023e+00 1.612316252683958506e+00 1.587448047529292916e+00 1.585712997822276815e+00 1.558093519204089228e+00 1.650150638886497267e+00 1.702503699157845052e+00 1.702503699157845052e+00 1.720312402480376646e+00 1.663117961510102161e+00 1.533712630760896811e+00 1.499557903578793816e+00 1.326935472215831302e+00 1.178040509630341681e+00 1.017900848674049064e+00 9.714463748049588787e-01 8.464147919375710760e-01 7.430112063448039983e-01 6.515712050567884495e-01 6.515712050567884495e-01 2.822865186282719208e-01 -2.711559024403670803e-01 -2.711559024403670803e-01 -4.567690093905473203e-01 -5.158845481504339414e-01 -6.967255870771100756e-01 -8.555256315215936658e-01 -1.264854645144938949e+00 -1.529781077997180105e+00 -1.826677562183883996e+00 -1.904925896888355563e+00 -2.359852925639854604e+00 -3.053653426219234746e+00 -3.617909752974383331e+00 -3.617909752974383331e+00 -3.917735446981673419e+00 -3.914141152929322853e+00 -3.910646856585655584e+00 -3.950683157898095654e+00 -3.954139983811574055e+00 -3.892935465983449195e+00 -3.808287545751168679e+00 -3.801738911307542601e+00 -3.834650022420424076e+00 -4.144300495347176927e+00 -4.466256670775734072e+00 -4.466256670775734072e+00 -4.702673992250367085e+00 -4.910743969497611161e+00 -4.929847877639316422e+00 -4.941188449902267799e+00 -4.559297541267245180e+00 -4.286639365012202774e+00 -3.960676825484883423e+00 -4.007304633960472096e+00 -4.193278510171230877e+00 -4.601197084120896008e+00 -4.841287143153204298e+00 -5.179387396217768114e+00 -5.828117477188103024e+00 -6.380141707458742317e+00 -6.380141707458742317e+00 -6.892545675730546328e+00 -7.178503921546770528e+00 -7.361654942319114880e+00 -7.515958006970409500e+00 -7.749777662281021051e+00 -7.880382721911137978e+00 -8.085977838651118077e+00 -8.182334119308357856e+00 -8.294835111743385170e+00 -8.456658545774196512e+00 -8.590478077394013923e+00 -8.590478077394013923e+00 -8.758393404807273797e+00 -8.875046018734284559e+00 -8.945221253301046005e+00 -8.983710962769563935e+00 -9.102974219889867769e+00 -9.157035525869469339e+00 -9.248041695272297247e+00 -9.290969205586455004e+00 -9.354411809580474468e+00 -9.430466991928222242e+00 -9.501995133610328992e+00 -9.501995133610328992e+00 -9.577645561026649546e+00 -9.647475609653527684e+00 -9.673851569924906357e+00 -9.702456881911400544e+00 -9.765412088989133821e+00 -9.816789851768891850e+00 -9.804649716359275402e+00 -9.895036116742884857e+00 -9.940657405513883660e+00 -9.973236943749855143e+00 -9.979562721263318892e+00 -1.001676686423540197e+01 -1.006148374178566129e+01 -1.009407377598953559e+01 -1.009407377598953559e+01 -1.008391256030210492e+01 -1.019356066562946950e+01 -1.028529056388221541e+01 -1.028529056388221541e+01 -1.022607150069884341e+01 -1.021698446916365022e+01 -1.020058481477712853e+01 -1.011503734020728018e+01 -1.017722975575838618e+01 -1.017855067671184877e+01 -1.016870347934704100e+01 -1.020730122871303891e+01
1.695923474131608266e+00 1.688631384529349244e+00 1.658358031814146649e+00 1.658358031814146649e+00 1.629801521762783034e+00 1.605270705870244008e+00 1.585712997822276815e+00 1.583566272256955898e+00 1.634438633223416204e+00 1.706581795594106943e+00 1.747956673695508112e+00 1.781136895193706771e+00 1.749967914880691033e+00 1.658389203657518074e+00 1.476431409090902980e+00 1.476431409090902980e+00 1.241045758001444010e+00 1.098677720043052641e+00 9.714463748049588787e-01 9.053887025465611194e-01 8.442923982014444162e-01 7.205293569062263259e-01 5.210808667131381355e-01 4.266309487530748346e-01 1.576354456889937639e-01 -3.839285092466131477e-01 -4.061703847066646667e-01 -4.061703847066646667e-01 -6.095475342720750866e-01 -9.749289870296774518e-01 -1.264854645144938949e+00 -1.367257664373092707e+00 -1.677678922520184912e+00 -1.904925896888355563e+00 -2.072939967323824018e+00 -2.682018871013386985e+00 -3.325887004354104892e+00 -3.678696005787455814e+00 -3.709406525800230892e+00 -3.798842154415534633e+00 -3.884379063265047449e+00 -3.951732447943071769e+00 -3.951732447943071769e+00 -3.879398010854644419e+00 -3.780024520955333145e+00 -3.801738911307542601e+00 -3.837987531139664732e+00 -4.147418064301417573e+00 -4.285412096598515852e+00 -4.565453213451433179e+00 -4.705242012643724436e+00 -4.811927274014911049e+00 -4.968582000354873074e+00 -4.827278076630141967e+00 -4.827278076630141967e+00 -4.404360135676315124e+00 -3.937342426078355384e+00 -4.007304633960472096e+00 -4.080854568702516616e+00 -4.455392560140981395e+00 -4.841287143153204298e+00 -5.400220561506977823e+00 -5.573741109484823042e+00 -5.980548012564141480e+00 -6.580663963525848814e+00 -6.980526742746413049e+00 -6.980526742746413049e+00 -7.284082236786222353e+00 -7.651521410055385886e+00 -7.749777662281021051e+00 -7.838204081910221888e+00 -8.076993202744246148e+00 -8.182334119308357856e+00 -8.291230838861711305e+00 -8.452705397942141374e+00 -8.576705860341744980e+00 -8.684890406736748503e+00 -8.760526101978724611e+00 -8.864745059487333378e+00 -8.946407899000805131e+00 -9.030116748607786903e+00 -9.097033226328790079e+00 -9.156954599528159378e+00 -9.253997983264849125e+00 -9.352017118377149885e+00 -9.352017118377149885e+00 -9.429985461819574866e+00 -9.502415123608393799e+00 -9.522914042645224342e+00 -9.566465536850365936e+00 -9.651869246378705469e+00 -9.678601967267518091e+00 -9.724275797964963886e+00 -9.763680502170959841e+00 -9.821676476550589285e+00 -9.816215166530414038e+00 -9.955832507757589767e+00 -9.955832507757589767e+00 -9.982378133246744056e+00 -1.000978750070514423e+01 -1.003840927067115807e+01 -1.007277439440743549e+01 -1.008040685894276400e+01 -1.014217032877740365e+01 -1.012337132472248413e+01 -1.015900874797776687e+01 -1.024208001452923966e+01 -1.021841128841344215e+01 -1.014004967782973843e+01 -1.020543934191079316e+01 -1.016582077188744471e+01 -1.013003344815336604e+01 -1.013003344815336604e+01 -1.019673124326049773e+01 -1.023266491391041200e+01 -1.020730122871303891e+01
1.712822354357394605e+00 1.705773660474393827e+00 1.707499800837114723e+00 1.643075213718387273e+00 1.630269262298980060e+00 1.630269262298980060e+00 1.599231376600924737e+00 1.601897032493671880e+00 1.634438633223416204e+00 1.736472426474467534e+00 1.796959730412359901e+00 1.781136895193706771e+00 1.816515392526322881e+00 1.769103301168880815e+00 1.621918524159202457e+00 1.418943113946811607e+00 1.373863007696641825e+00 1.218401389544114810e+00 1.049408128935057638e+00 9.858033074538044005e-01 9.858033074538044005e-01 8.473656950893614370e-01 6.008076630158218912e-01 4.266309487530748346e-01 3.485370666411261587e-01 -1.824920195824088487e-01 -3.683701437976923954e-01 -4.597616493792990311e-01 -5.307265573403451286e-01 -7.262187160413369202e-01 -1.109392956733715074e+00 -1.452326292831970456e+00 -1.452326292831970456e+00 -1.733186555834610676e+00 -2.119146810655336388e+00 -2.682018871013386985e+00 -2.927912833454810126e+00 -3.512172576769378995e+00 -3.709406525800230892e+00 -3.756091725599543629e+00 -3.718835531784574044e+00 -3.916902726010585756e+00 -4.004094743111720867e+00 -3.902302770476687499e+00 -3.721878519449038247e+00 -3.791790388116570654e+00 -3.966980486399718675e+00 -4.188995779370786821e+00 -4.273379611000386546e+00 -4.554700787525448824e+00 -4.757804669328639768e+00 -4.757804669328639768e+00 -4.990815229724704594e+00 -4.892788213944674780e+00 -4.658751753166561649e+00 -4.521899589199054326e+00 -3.956438545033683862e+00 -3.918664432184010948e+00 -4.192157434885729117e+00 -4.313357114535542713e+00 -4.658592050245099259e+00 -5.202602748622942030e+00 -5.763009076074879999e+00 -5.763009076074879999e+00 -6.334664718951919404e+00 -6.780637945384103915e+00 -7.046741545042870314e+00 -7.187769869687012481e+00 -7.555209042956176901e+00 -7.689521854817657598e+00 -7.926110618697905785e+00 -8.068008566837374218e+00 -8.174435633653768463e+00 -8.355423643590910388e+00 -8.511957797028589567e+00 -8.511957797028589567e+00 -8.685531800683085280e+00 -8.775192578718511882e+00 -8.864745059487333378e+00 -8.937623098378077557e+00 -9.037609288336307500e+00 -9.097033226328790079e+00 -9.156873673186849416e+00 -9.257255342887336980e+00 -9.299363232373421440e+00 -9.363400995541176997e+00 -9.429503931710927489e+00 -9.450834778899899646e+00 -9.522558337478038482e+00 -9.607809901781221740e+00 -9.607809901781221740e+00 -9.683352364610131602e+00 -9.727958112302310667e+00 -9.763680502170959841e+00 -9.826563101332284944e+00 -9.798267994203087028e+00 -9.911948478333554746e+00 -9.968548167265632642e+00 -9.986481842131020414e+00 -9.988984446278280416e+00 -1.002276382865309046e+01 -1.004659247241240116e+01 -1.004659247241240116e+01 -1.011088623971277478e+01 -1.004264019851447109e+01 -1.015900874797776687e+01 -1.022214614953757916e+01 -1.014409919468201871e+01 -1.014004967782973843e+01 -1.014400005676414374e+01 -1.009229086981788370e+01 -1.007829419480214916e+01 -1.016985158491100627e+01 -1.021191593456094715e+01 -1.021191593456094715e+01 -1.028366753638809428e+01
1.728361634583050810e+00 1.705773660474393827e+00 1.706195307778161974e+00 1.673981175612015537e+00 1.644888492434393612e+00 1.629218911837202688e+00 1.624188120804936908e+00 1.602673556746432304e+00 1.619100023511042430e+00 1.762531760415516624e+00 1.791100801082623040e+00 1.808316217124745773e+00 1.818203513862405529e+00 1.733535964887792158e+00 1.733535964887792158e+00 1.530034272358574921e+00 1.336460691631226938e+00 1.181133734011537983e+00 1.136981297408429237e+00 1.055590139918908932e+00 9.675976500089432664e-01 9.370927861434368289e-01 7.054902294749916258e-01 5.618091275063905599e-01 1.997005965330512778e-01 -2.480627596916817890e-02 -3.309408063994537796e-01 -4.230922289781615664e-01 -7.070898581698885632e-01 -7.070898581698885632e-01 -1.043800079160508876e+00 -1.382413985301821135e+00 -1.588969716092053064e+00 -1.759470951014404871e+00 -1.875210630510793841e+00 -2.254922073261197646e+00 -3.041118935134391688e+00 -2.954069606945436632e+00 -3.428521407760898310e+00 -3.469070555277441237e+00 -3.525338061379479804e+00 -3.525338061379479804e+00 -3.685144918361145105e+00 -3.640448247862405839e+00 -3.721878519449038247e+00 -3.750781577561572711e+00 -3.972707891824807547e+00 -4.188995779370786821e+00 -4.498817766510969207e+00 -4.581066621593026689e+00 -4.704562689711486279e+00 -4.896564374055232705e+00 -5.013964885240059566e+00 -5.013964885240059566e+00 -4.750902552312193272e+00 -4.220456539107827254e+00 -3.956438545033683862e+00 -3.893583055473242904e+00 -4.055054095033859163e+00 -4.313357114535542713e+00 -4.477644708395093431e+00 -5.000059166220951035e+00 -5.310398515279386444e+00 -5.943792352841651194e+00 -6.123017181640643791e+00 -6.495666976404061543e+00 -6.955894099502825334e+00 -7.323333272771990643e+00 -7.323333272771990643e+00 -7.630837619056700660e+00 -7.906237320841011496e+00 -8.068008566837374218e+00 -8.142550110651708195e+00 -8.353165298258820926e+00 -8.449784804347689970e+00 -8.567986055011564517e+00 -8.686155935780204729e+00 -8.761074550311199971e+00 -8.859674006105347388e+00 -8.982434080167660539e+00 -8.982434080167660539e+00 -9.095688810804853475e+00 -9.205862358233382281e+00 -9.257255342887336980e+00 -9.307757259160387875e+00 -9.372097690775678558e+00 -9.429503931710927489e+00 -9.502835113606462158e+00 -9.522202632310852621e+00 -9.568583917669647221e+00 -9.650645523557574990e+00 -9.699645436487330130e+00 -9.699645436487330130e+00 -9.761948915352784084e+00 -9.786165999778070557e+00 -9.786165999778070557e+00 -9.928860839924222859e+00 -9.975400046104191176e+00 -9.986481842131020414e+00 -9.992300290580786282e+00 -1.001885281156581087e+01 -1.006778618287422589e+01 -1.009744051590948111e+01 -1.006286693325873038e+01 -1.008343717882423007e+01 -1.013927800246970357e+01 -1.017912857671162996e+01 -1.017912857671162996e+01 -1.005402785496063345e+01 -1.007101564436463548e+01 -1.009229086981788370e+01 -1.004207169781671638e+01 -1.012617173272866822e+01 -1.021827775214843292e+01 -1.025700116762305747e+01 -1.025558044948681768e+01
1.743264102320687625e+00 1.720515501172469097e+00 1.709243690162943974e+00 1.714104259403771868e+00 1.670187957887906416e+00 1.654948275438156369e+00 1.636324336611606256e+00 1.636324336611606256e+00 1.651435846920283002e+00 1.735891848669387505e+00 1.791100801082623040e+00 1.813167944580850843e+00 1.847684889654581220e+00 1.810873695622563062e+00 1.695335534037714087e+00 1.659298182438766034e+00 1.496997520846325536e+00 1.297549287887039382e+00 1.092650874961049290e+00 1.092650874961049290e+00 1.095824648826996484e+00 8.766756654086154121e-01 7.054902294749916258e-01 6.528053614007749417e-01 3.443635465523508521e-01 -2.480627596916817890e-02 -3.723907409568122384e-01 -4.563945286059538642e-01 -5.145918795153130443e-01 -8.313158196176748671e-01 -1.211065192323149020e+00 -1.211065192323149020e+00 -1.558007874234000667e+00 -1.812219703511955160e+00 -1.812219703511955160e+00 -1.994449010170383563e+00 -2.504542038802026749e+00 -2.954069606945436632e+00 -3.010348659086869549e+00 -3.192619067000912469e+00 -3.370874457305035765e+00 -3.509061672827400891e+00 -3.419345733066967430e+00 -3.549057729753112067e+00 -3.577114847479978987e+00 -3.864053026520515743e+00 -3.864053026520515743e+00 -4.267105649789724175e+00 -4.525684555885819194e+00 -4.581066621593026689e+00 -4.704351239694303466e+00 -4.902573735178073377e+00 -4.996606763844467558e+00 -4.946807969910955727e+00 -4.843735658225484464e+00 -4.583777654120098966e+00 -4.016620029087674126e+00 -3.857883651205391562e+00 -3.857883651205391562e+00 -4.175157420893283344e+00 -4.615498830500139427e+00 -5.000059166220951035e+00 -5.128512410491475215e+00 -5.722734028787339611e+00 -6.123017181640643791e+00 -6.652684813606032144e+00 -6.805106463074794831e+00 -7.088757143505255875e+00 -7.458896675856967917e+00 -7.565587482680072640e+00 -7.766683405628064918e+00 -8.059023930930504065e+00 -8.255180690295823354e+00 -8.255180690295823354e+00 -8.446864210753236790e+00 -8.559667017703301184e+00 -8.686155935780204729e+00 -8.760681208275311604e+00 -8.846611590143476533e+00 -8.925856576098619044e+00 -9.027453938807969536e+00 -9.101030693527619064e+00 -9.156792746845541231e+00 -9.249607020401976243e+00 -9.347227735970502494e+00 -9.347227735970502494e+00 -9.429022401602278336e+00 -9.503255103604526965e+00 -9.522202632310852621e+00 -9.572320992537477480e+00 -9.632677356927255019e+00 -9.688059202868330999e+00 -9.731640426639661001e+00 -9.757558160001861935e+00 -9.831267636946414257e+00 -9.780320821875761794e+00 -1.000339388006256414e+01 -1.000339388006256414e+01 -9.990585551015294996e+00 -9.995303662010911694e+00 -1.001885281156581087e+01 -1.006340847621382473e+01 -1.008203805898583738e+01 -1.006286693325873038e+01 -1.001123652260012875e+01 -1.011416088785453482e+01 -1.020221228454591689e+01 -1.005587744325234567e+01 -9.968006032091528468e+00 -1.002928733399737737e+01 -1.001876096774832270e+01 -1.007777594815648747e+01 -1.007777594815648747e+01 -1.017657175496394117e+01 -1.023857827596064851e+01 -1.035310450493624579e+01
