2.161481371483569447e+00 1.907695198213299248e+00 1.795245864191840734e+00 1.694619126391979202e+00 1.519010396132951080e+00 1.462943500668131502e+00 1.463516200453931049e+00 1.394223199569168292e+00 1.407587076490176115e+00 1.347706778999486321e+00 1.163389481805805703e+00 1.163389481805805703e+00 5.523340846382760461e-01 6.306399601570003011e-01 1.291791102299951532e+00 1.291791102299951532e+00 1.418434673469751495e+00 1.227187355756100606e+00 6.458658581942481325e-01 4.932960964056658515e-01 -8.443785625522285537e-04 -1.197261524223451334e-01 -1.977525661427067816e-01 -2.476512170109504696e-01 -2.462900443365150793e-01 -8.554262811903158570e-02 6.838288961136429478e-02 3.016075755486409826e-01 1.008718426134131568e-02 -3.803104518452217753e-01 -3.803104518452217753e-01 -7.016927180297511946e-01 -1.287206010883549245e+00 -1.720799285063437267e+00 -1.880968629228813249e+00 -2.224456775123678121e+00 -2.436582163601007878e+00 -2.708100858597453975e+00 -2.747761203217305770e+00 -2.768207505820288183e+00 -2.843827430141130819e+00 -2.974412412844128273e+00 -2.974412412844128273e+00 -3.135450808335285888e+00 -3.287241451446489826e+00 -3.299678545014608666e+00 -3.240778439651609943e+00 -2.803848931842376491e+00 -2.313538151167848334e+00 -2.283464732041028178e+00 -2.341572595394590728e+00 -2.570782132614825244e+00 -3.035191440515965233e+00 -3.607482007878251906e+00 -3.607482007878251906e+00 -4.207984805630403002e+00 -4.843038445337770170e+00 -4.843038445337770170e+00 -5.623811447270584907e+00 -6.214242633103383540e+00 -6.536476380474214309e+00 -6.709424438293610571e+00 -7.051365159442369190e+00 -7.210820425799782996e+00 -7.465043711669889781e+00 -7.538879984211495966e+00 -7.666478432880588834e+00 -7.867990647938143844e+00 -7.988536926637697988e+00 -7.988536926637697988e+00 -8.093088746839232073e+00 -8.177048095241994830e+00 -8.279470834895633402e+00 -8.264278727405104163e+00 -8.331024353942286353e+00 -8.403655298037829624e+00 -8.522197019259955653e+00 -8.537615789176756564e+00 -8.571537880662916109e+00 -8.654395514644804166e+00 -8.717267531857165963e+00 -8.717267531857165963e+00 -8.800621344422451031e+00 -8.906473612899555192e+00 -8.922135750579158753e+00 -8.975418302398074033e+00 -9.075388462427712355e+00 -9.111067512240472510e+00 -9.186077407698737929e+00 -9.267262113121986999e+00 -9.275144952182985847e+00 -9.351414744327207984e+00 -9.432710655821436418e+00 -9.454763400216370073e+00 -9.537526141989362216e+00 -9.616368746405182577e+00 -9.616368746405182577e+00 -9.700561539446979964e+00 -9.757037854952903544e+00 -9.741513236386186492e+00 -9.823319522888965594e+00 -9.850414793410912750e+00 -9.881928243141368640e+00 -9.959654612931959861e+00 -9.997434988372187803e+00 -9.987675935325636800e+00 -1.006449052071459782e+01 -1.014996862583510051e+01 -1.014996862583510051e+01 -1.017563911049556680e+01 -1.023255172926322487e+01 -1.023616714564414920e+01 -1.028883780368855838e+01 -1.032212388043287632e+01 -1.031016489292261085e+01 -1.043361528592435761e+01
2.152644711090708984e+00 1.885466903161991281e+00 1.805648535700752122e+00 1.593373273667523904e+00 1.541328552142712471e+00 1.454717829624344816e+00 1.388280756542963790e+00 1.316865603415458885e+00 1.316865603415458885e+00 1.276763954043323102e+00 1.137702680603634331e+00 9.251397754019590192e-01 6.946158458198471441e-01 4.173524059383453277e-01 1.053969227384837781e+00 1.413362203353104141e+00 1.450293382183665880e+00 1.449576140720250539e+00 1.146127957039695611e+00 1.229792232096906385e-01 1.229792232096906385e-01 -9.549316304633538588e-02 -2.499995592615257001e-01 -2.476512170109504696e-01 -2.223890216177145385e-01 -3.340111044778020233e-01 6.838288961136429478e-02 2.150303205259642136e-01 5.606792859640537252e-02 -1.318251449259264796e-01 -5.811509051125881564e-01 -5.789180426801057155e-01 -8.999080574981906944e-01 -1.473326431248501489e+00 -2.012331386646348808e+00 -2.012331386646348808e+00 -2.417425158336332647e+00 -2.716083459001696454e+00 -2.747761203217305770e+00 -2.786047677015612845e+00 -2.855764802991563656e+00 -2.905586847604687772e+00 -3.047688631615692145e+00 -3.122624937680775759e+00 -3.225128751397673632e+00 -3.318147656777150623e+00 -3.139599498173849312e+00 -3.139599498173849312e+00 -2.604985059120584978e+00 -2.192891141912093111e+00 -2.341572595394590728e+00 -2.405738530260026486e+00 -2.831149671981875837e+00 -3.196356589166469142e+00 -3.796783465746829123e+00 -3.967158575348596727e+00 -4.393273263512378790e+00 -5.133456107472261110e+00 -5.849751442670410029e+00 -5.849751442670410029e+00 -6.386290758468367912e+00 -6.807497202360229593e+00 -7.051365159442369190e+00 -7.115673057543908442e+00 -7.413313615357759012e+00 -7.538879984211495966e+00 -7.749560604641228423e+00 -7.813248772283524879e+00 -7.860658265116549970e+00 -8.008818687300303552e+00 -8.011911690239562844e+00 -8.088867856527556910e+00 -8.177952666677700932e+00 -8.253821917442341061e+00 -8.253821917442341061e+00 -8.332117105184316586e+00 -8.450658826406444390e+00 -8.537615789176756564e+00 -8.544865515688734092e+00 -8.636199851588298060e+00 -8.698925878197000472e+00 -8.758627397558370831e+00 -8.797428808839800496e+00 -8.851411851436500555e+00 -8.928576402404585721e+00 -9.031004646327980723e+00 -9.031004646327980723e+00 -9.147083712028990732e+00 -9.224766987761029213e+00 -9.267262113121986999e+00 -9.318465500154296421e+00 -9.405386295793267237e+00 -9.432710655821436418e+00 -9.533579444134140601e+00 -9.584988859386182725e+00 -9.598349355354697465e+00 -9.695303073611940547e+00 -9.747069493062577195e+00 -9.747069493062577195e+00 -9.799997492949552580e+00 -9.833586008935714773e+00 -9.850414793410912750e+00 -9.920164151009696951e+00 -1.000198215833703763e+01 -9.997434988372187803e+00 -1.004545100175254291e+01 -1.010101257187942991e+01 -1.015329584424960885e+01 -1.021264741348244520e+01 -1.021883810824377470e+01 -1.022387859416562250e+01 -1.030427946442892839e+01 -1.033036339374079127e+01 -1.033036339374079127e+01 -1.036160382229720156e+01 -1.048312618351528869e+01
1.997161222214081988e+00 1.885466903161991281e+00 1.812474996156376861e+00 1.644092878463283114e+00 1.541328552142712471e+00 1.404878751447224516e+00 1.368738706800592286e+00 1.321945962955493936e+00 1.264513146472094007e+00 1.213019227086005625e+00 1.177417751956742142e+00 1.006985051267140774e+00 5.899595687146865775e-01 5.899595687146865775e-01 9.698512389937001821e-01 1.394518691388106024e+00 1.450293382183665880e+00 1.527652549516271829e+00 1.542244596084272779e+00 7.490294085755739850e-01 4.562727046746034576e-02 -4.115990935470272699e-02 -1.623215299977039672e-01 -2.487742026628045888e-01 -2.418600877723023346e-01 -2.418600877723023346e-01 -3.117279662786457406e-01 1.077503988316027561e-01 5.606792859640537252e-02 -1.596334737588329944e-01 -3.632378027679336041e-01 -5.789180426801057155e-01 -1.205211342141302211e+00 -1.566308191606030853e+00 -1.746814525349470681e+00 -2.200356549202475254e+00 -2.586744031417369527e+00 -2.586744031417369527e+00 -2.750295252132620494e+00 -2.842328070202360557e+00 -2.855764802991563656e+00 -2.893054727004901849e+00 -3.016924600960436020e+00 -3.122624937680775759e+00 -3.193573139356070012e+00 -3.318857638857045878e+00 -3.339956120899865599e+00 -3.013819187083758067e+00 -2.866396769170155068e+00 -2.436178019195238242e+00 -2.251596937489182881e+00 -2.489394506075207403e+00 -2.489394506075207403e+00 -2.985981475417376352e+00 -3.555273771371601388e+00 -3.967158575348596727e+00 -4.185852047371124485e+00 -4.909056703350360706e+00 -5.308588232444932942e+00 -6.055141324117051305e+00 -6.226282573624332350e+00 -6.475191551369197995e+00 -6.882844297387398669e+00 -7.201984237015921941e+00 -7.201984237015921941e+00 -7.485516901823467961e+00 -7.692866233472440918e+00 -7.813248772283524879e+00 -7.806473728319327954e+00 -7.959918760399204984e+00 -8.011911690239562844e+00 -8.090312395570581572e+00 -8.129099188134162546e+00 -8.166302830042937444e+00 -8.273261721059533613e+00 -8.385113528209265255e+00 -8.385113528209265255e+00 -8.505242263781717327e+00 -8.577393003128191751e+00 -8.636199851588298060e+00 -8.693542171856057266e+00 -8.761877933876293767e+00 -8.797428808839800496e+00 -8.870273449285102529e+00 -8.958589710916680104e+00 -8.991154142545328298e+00 -9.094726564860355467e+00 -9.166161428650852372e+00 -9.236676719787098477e+00 -9.295824215750055686e+00 -9.387595421974666010e+00 -9.429966090934167156e+00 -9.472599050910449847e+00 -9.555728244452255993e+00 -9.619018311747856487e+00 -9.619018311747856487e+00 -9.698944090027499243e+00 -9.766720262237063466e+00 -9.794062536268549835e+00 -9.827268542129003137e+00 -9.872658422680110846e+00 -9.891583767821771289e+00 -9.990203055170036706e+00 -1.004786743713349750e+01 -1.003877804902965742e+01 -1.008695557624724870e+01 -1.016808231983955579e+01 -1.016808231983955579e+01 -1.021862921617970343e+01 -1.023722355976405396e+01 -1.027335843787818170e+01 -1.029981084487716814e+01 -1.032297796128379197e+01 -1.035655099282226743e+01 -1.038195218998209945e+01 -1.040072538090625898e+01
2.155552815624667495e+00 1.896632870878663946e+00 1.732276563447036732e+00 1.732276563447036732e+00 1.569443806048119949e+00 1.434385644663823456e+00 1.368738706800592286e+00 1.345152367828422735e+00 1.245933531358538460e+00 1.213019227086005625e+00 1.090085880662891027e+00 1.006025630860661213e+00 8.538083664005965412e-01 5.930758106106700511e-01 1.283366011305381971e+00 1.283366011305381971e+00 1.450860625026184625e+00 1.644194844749438555e+00 1.644194844749438555e+00 1.264266238870114911e+00 1.579001812902911250e-01 -4.115990935470272699e-02 -8.816287579807402519e-02 -2.457799176112827610e-01 -2.382722005255502318e-01 -3.301493433999927452e-01 -3.680459691199117755e-01 6.801797318896879441e-03 -5.154698355998289794e-02 -3.198062355819397129e-01 -3.198062355819397129e-01 -4.610357046099215483e-01 -1.376985581668687342e+00 -1.566308191606030853e+00 -1.750412028133990106e+00 -1.944461803005927303e+00 -2.330307099400845239e+00 -2.641962371570223400e+00 -2.736971796191270734e+00 -2.775552588218585637e+00 -2.854589436402346525e+00 -2.942834929827501611e+00 -2.942834929827501611e+00 -3.082990212514511441e+00 -3.248599619264925131e+00 -3.318857638857045878e+00 -3.342217700486956211e+00 -3.116011465862297936e+00 -2.866396769170155068e+00 -2.328420291529520902e+00 -2.339143197041149591e+00 -2.270604975821176819e+00 -2.653401125714113018e+00 -3.128749967584339320e+00 -3.128749967584339320e+00 -3.742105083766269047e+00 -4.435256587312241372e+00 -4.649681415522593397e+00 -5.082696900213917957e+00 -5.843653805293305581e+00 -6.348971976998828204e+00 -6.348971976998828204e+00 -6.812072169964806356e+00 -7.126381043645847235e+00 -7.324979313571111206e+00 -7.422983822992941683e+00 -7.633536510621549809e+00 -7.758074119590311568e+00 -7.876276634311150104e+00 -7.934333606049506216e+00 -7.986326535889864964e+00 -8.064727241220882803e+00 -8.168231897811777387e+00 -8.168231897811777387e+00 -8.276731483820734425e+00 -8.389251614239492838e+00 -8.447246939010605971e+00 -8.508232676371880743e+00 -8.583417950176471578e+00 -8.638254276565646705e+00 -8.723633145169902292e+00 -8.794951714990707714e+00 -8.829743006812535100e+00 -8.943118089730404563e+00 -9.015948716200332669e+00 -9.015948716200332669e+00 -9.113528966817895594e+00 -9.223046854706046460e+00 -9.236676719787098477e+00 -9.305718528240326748e+00 -9.397899088174421323e+00 -9.429966090934167156e+00 -9.490505308182290989e+00 -9.555839263936530159e+00 -9.598521603436624972e+00 -9.671215435976673547e+00 -9.702585106443057938e+00 -9.770709638986748047e+00 -9.820114386283023578e+00 -9.903935924684180492e+00 -9.903935924684180492e+00 -9.934614711951066823e+00 -1.003133951579654592e+01 -1.004786743713349750e+01 -1.009798732439978863e+01 -1.012749455707620072e+01 -1.012223853443859412e+01 -1.021724908256542008e+01 -1.022461101887696167e+01 -1.022811219942542671e+01 -1.027944188762642064e+01 -1.031189224751130418e+01 -1.031189224751130418e+01 -1.033399893969175487e+01 -1.028563720002063953e+01 -1.040072538090625898e+01
2.155890570573973264e+00 1.916033859460473776e+00 1.816580900053703207e+00 1.652078130737696604e+00 1.571879698028356254e+00 1.496738637510555137e+00 1.389544800474002306e+00 1.300809612085247036e+00 1.300809612085247036e+00 1.194375359474551201e+00 1.068106786069295655e+00 1.006025630860661213e+00 9.277986638229500649e-01 7.639007442301819495e-01 8.588311836241782071e-01 1.350900885892652781e+00 1.438573889221816726e+00 1.519383997404977427e+00 1.711315773157453757e+00 8.308035316730096875e-01 8.308035316730096875e-01 2.309933405279821980e-02 -1.356587545975705134e-01 -2.457799176112827610e-01 -2.520808268752242620e-01 -3.372297213810360184e-01 -2.445379202775180283e-01 -1.170693814470876448e-01 -1.814811454233927757e-01 -4.888854758753342633e-01 -2.635495077311885148e-01 -5.610552206969654510e-01 -1.114481012571217011e+00 -1.467282520752390962e+00 -1.582168262180761564e+00 -1.685355845919314088e+00 -2.147959922315651138e+00 -2.538139451516008283e+00 -2.766404907943240232e+00 -2.766404907943240232e+00 -2.856630171621029390e+00 -2.931373642676176949e+00 -2.980333925986024646e+00 -3.042749191833168165e+00 -3.198221536771599816e+00 -3.304505517352912758e+00 -3.289870110575560780e+00 -3.223592878689053087e+00 -3.010584201723505160e+00 -2.571311875906848954e+00 -2.337962985549911554e+00 -2.337962985549911554e+00 -2.478329140924664387e+00 -2.875491735164285689e+00 -3.328029656653951118e+00 -3.509976644390918832e+00 -4.198700031841123170e+00 -4.649681415522593397e+00 -5.394658767047560310e+00 -5.616210387851123365e+00 -6.046088800950165876e+00 -6.518522522441189793e+00 -6.927782773720583265e+00 -6.927782773720583265e+00 -7.240235085594305176e+00 -7.490925664370699621e+00 -7.633536510621549809e+00 -7.702899466897099146e+00 -7.831679403596866429e+00 -7.934333606049506216e+00 -7.960741381540166195e+00 -8.056985672536393750e+00 -8.117397575262096154e+00 -8.240972481356713786e+00 -8.280201246581935237e+00 -8.340226118929914279e+00 -8.451385025040835330e+00 -8.552364738800722677e+00 -8.552364738800722677e+00 -8.644279223613926533e+00 -8.742267393602908498e+00 -8.794951714990707714e+00 -8.863111721095373596e+00 -8.974145194571185868e+00 -8.989645333854708653e+00 -9.061830633473949348e+00 -9.126007020044017537e+00 -9.185239145272714012e+00 -9.247657551128167341e+00 -9.356665186806129242e+00 -9.356665186806129242e+00 -9.454425637829391604e+00 -9.525109911141086627e+00 -9.555839263936530159e+00 -9.613427677102212243e+00 -9.687438904325871292e+00 -9.702585106443057938e+00 -9.786371031411549737e+00 -9.848012394001965930e+00 -9.854539591308455471e+00 -9.922506509707396560e+00 -1.000622603926828802e+01 -1.000622603926828802e+01 -1.008532078805016674e+01 -1.012290701100698875e+01 -1.012290701100698875e+01 -1.016928330836955929e+01 -1.023626344882570294e+01 -1.022461101887696167e+01 -1.023740592437824581e+01 -1.028552533737465779e+01 -1.028365825602019257e+01 -1.029391580595918043e+01 -1.029756960589055836e+01 -1.027593718852233451e+01 -1.029269010335531220e+01
2.035577007246867964e+00 1.820728039142529342e+00 1.820728039142529342e+00 1.648280554067573345e+00 1.512558234663466505e+00 1.451150913119829688e+00 1.404523999169772885e+00 1.300859288987650686e+00 1.246743336943952229e+00 1.175670743098915283e+00 1.051186414851919437e+00 9.941499264476958420e-01 8.791093438664571158e-01 9.145062703750022060e-01 9.653407157704867458e-01 1.299579141452530395e+00 1.511705646238663547e+00 1.511705646238663547e+00 1.664762081612623401e+00 1.319232582168581969e+00 4.296522618177559538e-01 9.105233697319156660e-02 -7.060840197513656991e-02 -2.115666630429874073e-01 -3.384722487809838087e-01 -3.842783280370518639e-01 -3.673022048395239714e-01 -3.949055092945162881e-01 -2.975574226157733926e-01 -2.975574226157733926e-01 -7.274263432260642814e-02 -2.397091812587689719e-01 -1.114481012571217011e+00 -7.159924184040735717e-01 -1.253520203513971421e+00 -1.685355845919314088e+00 -2.309844920729759554e+00 -2.433712728774586331e+00 -2.643345527625225344e+00 -2.816480888409089278e+00 -2.887860622098158192e+00 -2.887860622098158192e+00 -2.964834205053125338e+00 -3.080053636931231242e+00 -3.080053636931231242e+00 -3.258926761708325515e+00 -3.331657246369328806e+00 -3.223592878689053087e+00 -3.148204465382992367e+00 -2.802457235308012162e+00 -2.509002409292438784e+00 -2.302767485939559933e+00 -2.391099435176027299e+00 -2.553854476224032943e+00 -3.078872094273393589e+00 -3.708188610026422083e+00 -3.708188610026422083e+00 -4.386714486902982379e+00 -5.145978163240166658e+00 -5.616210387851123365e+00 -5.859810503467979714e+00 -6.435781776409838173e+00 -6.728247107344929923e+00 -7.041636815669042093e+00 -7.155490857617500922e+00 -7.354089127542764004e+00 -7.577221151135796973e+00 -7.761572297288799938e+00 -7.761572297288799938e+00 -7.898126795214913898e+00 -7.987149157030824398e+00 -8.056985672536393750e+00 -8.105695962390029763e+00 -8.236990377301674826e+00 -8.280201246581935237e+00 -8.393389700269722198e+00 -8.455523111071062914e+00 -8.509042990120406103e+00 -8.588928828342078603e+00 -8.650304170662206360e+00 -8.719212576984324059e+00 -8.816377138422627269e+00 -8.933642663480739543e+00 -8.933642663480739543e+00 -9.012448298597625751e+00 -9.105125613495186343e+00 -9.126007020044017537e+00 -9.203536384698212558e+00 -9.269503603359638078e+00 -9.315612840730599586e+00 -9.407107005858934556e+00 -9.467710148478115428e+00 -9.508411565454132131e+00 -9.555950283420802549e+00 -9.646083799848739204e+00 -9.646083799848739204e+00 -9.721511087319949951e+00 -9.806021800586036008e+00 -9.848012394001965930e+00 -9.883283775866255283e+00 -9.981447015966676162e+00 -9.976821455168577657e+00 -1.007247597642305159e+01 -1.012624923756155226e+01 -1.012856839296754963e+01 -1.016713804074725402e+01 -1.018661681148206455e+01 -1.018661681148206455e+01 -1.023238129021259901e+01 -1.025908999989296611e+01 -1.028552533737465779e+01 -1.026637763074175069e+01 -1.027101933907189135e+01 -1.029756960589055836e+01 -1.023935642172595095e+01 -1.018465482580436543e+01
2.046908322194978425e+00 1.935434848042284273e+00 1.724681410106790214e+00 1.633110906525891748e+00 1.561303664929532431e+00 1.467351939190493670e+00 1.372659918559736569e+00 1.372659918559736569e+00 1.255971111680061814e+00 1.141245584098603549e+00 1.051186414851919437e+00 1.029237585673541844e+00 9.741316018569912139e-01 9.145062703750022060e-01 1.175645720820761353e+00 1.259316459541935274e+00 1.395222454647762955e+00 1.566617072214886885e+00 1.637485617185800768e+00 1.733263825213813059e+00 8.068206562700883655e-01 1.710617631146702511e-01 1.710617631146702511e-01 -1.606831924794797917e-01 -3.117705284248162290e-01 -3.842783280370518639e-01 -4.054286424039409975e-01 -4.427708472820210961e-01 -2.804587683256519748e-01 -3.958837441208608032e-01 -1.538114935995412713e-01 -4.881360736011870760e-03 -3.178791225525621766e-01 -8.475311066777547753e-01 -8.475311066777547753e-01 -1.465887593626417074e+00 -2.061232906899502559e+00 -2.433712728774586331e+00 -2.551515235181684105e+00 -2.802416715058191343e+00 -2.867225962938460881e+00 -2.933480866369992945e+00 -2.923269319843681657e+00 -3.013605503831376264e+00 -3.134019069398310986e+00 -3.290000230845165241e+00 -3.290000230845165241e+00 -3.302358177671449013e+00 -3.046756330893134468e+00 -2.802457235308012162e+00 -2.696829291523352268e+00 -2.448868468897926753e+00 -2.391099435176027299e+00 -2.671644999656098030e+00 -2.846184083842122625e+00 -3.260122629121013915e+00 -3.930829861829122418e+00 -4.119346817435353358e+00 -4.602507793130622638e+00 -5.354996906687888192e+00 -6.086505223281433175e+00 -6.086505223281433175e+00 -6.665137407633242361e+00 -6.956892587692236063e+00 -7.155490857617500922e+00 -7.269344899565958862e+00 -7.520905791650044137e+00 -7.647724814203886723e+00 -7.787082172882583642e+00 -7.858052000866754483e+00 -7.935156227190467426e+00 -8.052936460959518428e+00 -8.176734724057773462e+00 -8.176734724057773462e+00 -8.283671009343136049e+00 -8.372558546314447625e+00 -8.455523111071062914e+00 -8.509853303868931462e+00 -8.593976195558214570e+00 -8.650304170662206360e+00 -8.756820327287513805e+00 -8.839223276941057250e+00 -8.896902037942645336e+00 -9.005172299411967174e+00 -9.056763428275855787e+00 -9.056763428275855787e+00 -9.137309872088778206e+00 -9.265431410972858828e+00 -9.269503603359638078e+00 -9.325734951637594250e+00 -9.416314923543447790e+00 -9.467710148478115428e+00 -9.517688936141098566e+00 -9.564273800290891359e+00 -9.616240553813359071e+00 -9.696300249981801400e+00 -9.767236930240647652e+00 -9.768393646571631450e+00 -9.876303735777934634e+00 -9.951403309500445715e+00 -1.004038752222595576e+01 -1.001841177503898095e+01 -1.011361243704955726e+01 -1.016983046635085408e+01 -1.016983046635085408e+01 -1.020678152441830910e+01 -1.020953026177427425e+01 -1.025230155875974702e+01 -1.024185550874582695e+01 -1.027002321995742307e+01 -1.029160878712289673e+01 -1.026668317920008633e+01 -1.024854295306951180e+01 -1.024734483612856906e+01 -1.018473489684499000e+01 -1.014564470535923135e+01
2.183795007172857794e+00 1.964517581990033790e+00 1.748994489149165332e+00 1.633110906525891748e+00 1.594106735894529558e+00 1.495218864843764983e+00 1.439648999506746074e+00 1.335908965147927452e+00 1.296466631735959885e+00 1.209925037870569264e+00 1.129955702393468098e+00 1.025028852812319702e+00 1.025028852812319702e+00 1.021733380660821533e+00 1.116954628937331107e+00 1.259316459541935274e+00 1.344412288828520374e+00 1.539286160880037446e+00 1.637485617185800768e+00 1.606526920096051247e+00 1.317317937381645709e+00 6.164934897864875474e-01 -1.217755394503393200e-02 -1.986212627370857742e-01 -1.986212627370857742e-01 -3.865513428425124687e-01 -4.674994623422598083e-01 -4.427708472820210961e-01 -3.574245800153036390e-01 -3.381244497582870934e-01 -1.538114935995412713e-01 8.506796919286943592e-02 -1.645680056898625732e-01 -4.768773172228945034e-01 -1.019916585371794859e+00 -1.253346176373488774e+00 -1.638632571294417417e+00 -2.197455602865233892e+00 -2.650140477138756445e+00 -2.650140477138756445e+00 -2.840987532520164560e+00 -2.911119537627900211e+00 -2.923269319843681657e+00 -2.960052970668869854e+00 -3.065895675294199485e+00 -3.175028019300440540e+00 -3.301570244616486960e+00 -3.299349385301661108e+00 -3.218621797125772233e+00 -2.964878061868018833e+00 -2.626237731326171776e+00 -2.626237731326171776e+00 -2.397078012130071656e+00 -2.525525171164292981e+00 -2.846184083842122625e+00 -2.999713844388939510e+00 -3.654703940754363778e+00 -4.119346817435353358e+00 -4.874213589497017551e+00 -5.111636435428988712e+00 -5.634122251262801306e+00 -6.302188107868549771e+00 -6.820571670290023647e+00 -6.820571670290023647e+00 -7.070746629640695780e+00 -7.359140505752254313e+00 -7.359140505752254313e+00 -7.592550161510674300e+00 -7.745688997299811085e+00 -7.905436493736643477e+00 -7.905436493736643477e+00 -8.041102715747145524e+00 -8.180986137180772388e+00 -8.241241790424671976e+00 -8.303772024365894566e+00 -8.389645386706057195e+00 -8.459661197101294050e+00 -8.559076308102660846e+00 -8.599023562774350538e+00 -8.656775690285309466e+00 -8.775334732432119367e+00 -8.926285706760433314e+00 -8.926285706760433314e+00 -9.037542320148943986e+00 -9.087533561860539066e+00 -9.127220692652434408e+00 -9.148612724133538876e+00 -9.282187901631386850e+00 -9.304643367508889540e+00 -9.378204759735153218e+00 -9.425202491185212139e+00 -9.480994659126839252e+00 -9.573148988208135535e+00 -9.612526537442894536e+00 -9.612526537442894536e+00 -9.702740435462928303e+00 -9.769473965356237244e+00 -9.840260480019061617e+00 -9.894008922800340500e+00 -9.958554785153246769e+00 -1.004038752222595576e+01 -1.009228792752688264e+01 -1.014026294044131404e+01 -1.016849083344403226e+01 -1.024587779995189507e+01 -1.019166524332867851e+01 -1.023995379198168365e+01 -1.024004678425487747e+01 -1.023027171740335994e+01 -1.023027171740335994e+01 -1.025136669541809198e+01 -1.023924902447593688e+01 -1.024854295306951180e+01 -1.020823468637347453e+01 -1.014094493303413458e+01 -1.007661954825341688e+01
2.072447921955738792e+00 1.881637085023589062e+00 1.881637085023589062e+00 1.693217227605438913e+00 1.557831278562011867e+00 1.557831278562011867e+00 1.476050366917021961e+00 1.366995687371046930e+00 1.296466631735959885e+00 1.254029249145371061e+00 1.178917442825202722e+00 1.106530553805036732e+00 1.049243156739728011e+00 1.129603986360792733e+00 1.102282800057126977e+00 1.230016561191104030e+00 1.424851755148058174e+00 1.424851755148058174e+00 1.619088536812875567e+00 1.708932066447374165e+00 1.317317937381645709e+00 1.155721414792257429e+00 4.474524910282907247e-02 -9.090154415265569443e-02 -2.572474716260517713e-01 -3.570083987142234627e-01 -4.418327443796220555e-01 -4.673681573807988987e-01 -3.447542610290805221e-01 -3.447542610290805221e-01 -2.408529532039821452e-01 1.477413058431693571e-01 -1.645680056898625732e-01 -2.177455243753468328e-01 -7.621693540183329674e-01 -1.253346176373488774e+00 -1.801759564195367869e+00 -1.942121303823436174e+00 -2.495525641890976587e+00 -2.676469752910427768e+00 -2.932177237280821913e+00 -2.855249420775381353e+00 -2.880522295691457568e+00 -2.979404431900188222e+00 -3.000318790482976006e+00 -3.090479780352000994e+00 -3.271809610281080083e+00 -3.274289926165564690e+00 -3.274289926165564690e+00 -3.058127986773939266e+00 -2.804214659742603644e+00 -2.602343474199436013e+00 -2.507362792830222897e+00 -2.408327264333022910e+00 -2.627713725712586879e+00 -3.173888855864210434e+00 -3.383634414704810744e+00 -3.855340693713221079e+00 -4.600384862199183189e+00 -5.398144161738250624e+00 -5.398144161738250624e+00 -6.200662675257440526e+00 -6.667747625109049281e+00 -6.974577414354004468e+00 -7.075623255506486409e+00 -7.281184223990347704e+00 -7.464590432164291300e+00 -7.652115663271544577e+00 -7.711381662250365920e+00 -7.813159132692428344e+00 -7.933812118086660981e+00 -8.081874615396490213e+00 -8.081874615396490213e+00 -8.245493203547670902e+00 -8.343618200946306018e+00 -8.389645386706057195e+00 -8.434065560729106181e+00 -8.556641997700690894e+00 -8.599023562774350538e+00 -8.661842428723016241e+00 -8.789158000218222355e+00 -8.860290618440556543e+00 -8.993698307401738035e+00 -9.040162316023112155e+00 -9.060762552799729974e+00 -9.119151976295022166e+00 -9.229828513721763272e+00 -9.229828513721763272e+00 -9.306721460528070367e+00 -9.385208677715379366e+00 -9.425202491185212139e+00 -9.472048894668324337e+00 -9.572184544586448851e+00 -9.595500492708350038e+00 -9.672578696972724543e+00 -9.695777696529670919e+00 -9.747044942745294094e+00 -9.824325518329171558e+00 -9.871278479203947853e+00 -9.871278479203947853e+00 -9.998943861724953308e+00 -1.006092870493542435e+01 -1.014026294044131404e+01 -1.010500823049884289e+01 -1.014445373800223393e+01 -1.019166524332867851e+01 -1.019172317486390256e+01 -1.015724113161679476e+01 -1.018282034271904912e+01 -1.022742389897826243e+01 -1.022271800808395525e+01 -1.022271800808395525e+01 -1.023083863941864990e+01 -1.016046761145277344e+01 -1.016046761145277344e+01 -1.007858273330907117e+01
2.102515675022397446e+00 1.994007786391502890e+00 1.804732219706799867e+00 1.745615664852428583e+00 1.641892476781636967e+00 1.539619906791696469e+00 1.438301943903054436e+00 1.398761008923947724e+00 1.329713136379320870e+00 1.239813178133890581e+00 1.179108856127637939e+00 1.179108856127637939e+00 1.107744397452711471e+00 1.223465968664728010e+00 1.156645958527329432e+00 1.211591988121624386e+00 1.357090257474701689e+00 1.475793808330069012e+00 1.541518018577276550e+00 1.674131166475335331e+00 1.831196236287529366e+00 6.182820355575036064e-01 3.307560205462333758e-01 -2.159391494996284327e-02 -1.999719314519838587e-01 -4.314205953999599719e-01 -4.314205953999599719e-01 -5.246789181057983642e-01 -4.153313257993050955e-01 -3.305752756479550247e-01 -3.224503614142598673e-01 2.733620954995550356e-01 1.228129157471552907e-01 -2.688687152917155210e-01 -8.685420184528324095e-01 -9.618366182641462370e-01 -1.488104954403511204e+00 -2.084480924734910090e+00 -2.084480924734910090e+00 -2.549758757455973690e+00 -2.832656649933657622e+00 -2.855249420775381353e+00 -2.844567494785954054e+00 -2.932097869783421462e+00 -3.000318790482976006e+00 -3.165944662166012336e+00 -3.209674505174921588e+00 -3.273356743382725753e+00 -3.243304177789756881e+00 -2.987960201003847516e+00 -2.987960201003847516e+00 -2.720386382933021263e+00 -2.469239490857184194e+00 -2.469239490857184194e+00 -2.493417982537933675e+00 -2.915175761439289470e+00 -3.383634414704810744e+00 -3.578454140803025041e+00 -4.341544328051577750e+00 -4.874690191583479049e+00 -5.712600781334296052e+00 -5.964674189465335452e+00 -6.340299733085157818e+00 -6.807061741623419593e+00 -7.075563539049034567e+00 -7.075563539049034567e+00 -7.371016671374432505e+00 -7.604735705702455384e+00 -7.711381662250365920e+00 -7.779935652183557870e+00 -7.918625398681091276e+00 -8.029463565830946337e+00 -8.176638697413427082e+00 -8.230417549236543451e+00 -8.299721837098175570e+00 -8.412520878591283946e+00 -8.507677523910007977e+00 -8.507677523910007977e+00 -8.598671734824572255e+00 -8.738982877493889134e+00 -8.789158000218222355e+00 -8.850836835469138464e+00 -8.984132610636903493e+00 -9.040162316023112155e+00 -9.094188903246443800e+00 -9.115303041905844950e+00 -9.161369999721332036e+00 -9.281602021007666181e+00 -9.344842083727504800e+00 -9.344842083727504800e+00 -9.430655167236521308e+00 -9.508959261994570866e+00 -9.508959261994570866e+00 -9.592266551413656472e+00 -9.672880991120043959e+00 -9.695777696529670919e+00 -9.696000374872198790e+00 -9.772773497779567720e+00 -9.842052098283859962e+00 -9.877868463630145257e+00 -9.900704625018565963e+00 -9.956689631778701255e+00 -1.004819391290801001e+01 -1.006313434906804005e+01 -1.006313434906804005e+01 -1.010068759856900655e+01 -1.010455025319243916e+01 -1.015724113161679476e+01 -1.010069549530743771e+01 -1.017177764803027173e+01 -1.018071389667394833e+01 -1.021454261773546790e+01 -1.021175940543931659e+01 -1.022010674325719037e+01 -1.014592902383888706e+01 -1.011923501210186238e+01
2.179524650195498126e+00 2.027324891942161145e+00 1.833956343143180012e+00 1.680923402369496999e+00 1.680923402369496999e+00 1.586224591625200464e+00 1.482735505785822472e+00 1.398761008923947724e+00 1.375537297922866609e+00 1.294069722453019766e+00 1.229259623445591920e+00 1.180054985591730610e+00 1.223521884985849129e+00 1.204586610192563079e+00 1.262740714662235586e+00 1.295410441897813847e+00 1.295410441897813847e+00 1.439497436433297528e+00 1.586122905111598591e+00 1.674131166475335331e+00 1.517291938688360098e+00 9.803108589399162076e-01 3.307560205462333758e-01 -4.079395057783327672e-02 -1.340919304250398070e-01 -2.973675691314480174e-01 -5.139344345038673323e-01 -5.304193713094154106e-01 -5.304193713094154106e-01 -4.144833240639907990e-01 3.228926748662491741e-02 3.228926748662491741e-02 2.530651281583826684e-01 -3.185257751311508789e-01 -8.685420184528324095e-01 -5.616183211641658790e-01 -1.219098592038559081e+00 -1.684748269575331969e+00 -2.213658308330544333e+00 -2.307345330605835354e+00 -2.672706569967393975e+00 -2.805122967309449322e+00 -2.864114932141182734e+00 -2.864114932141182734e+00 -2.949670331845703153e+00 -3.096228828586483850e+00 -3.209674505174921588e+00 -3.225285433429744053e+00 -3.260940724762564358e+00 -3.141997451500919247e+00 -2.892929295333173112e+00 -2.799523466041534459e+00 -2.605826882154422819e+00 -2.498751050080541436e+00 -2.538406044964907071e+00 -2.538406044964907071e+00 -3.124151618200756708e+00 -3.808323603518499745e+00 -4.341544328051577750e+00 -4.555407627633975665e+00 -5.425079203099009817e+00 -5.964674189465335452e+00 -6.506496646018645080e+00 -6.703458496104656383e+00 -6.890373958816709887e+00 -7.223498198887051025e+00 -7.321136581128294907e+00 -7.494840638813047740e+00 -7.677669749569725255e+00 -7.854697258484068634e+00 -7.854697258484068634e+00 -8.018161790783841170e+00 -8.156460697729860598e+00 -8.230417549236543451e+00 -8.278672273276832527e+00 -8.414364577525248023e+00 -8.426998564406574133e+00 -8.546760497384271460e+00 -8.592102709948933992e+00 -8.665362045291292503e+00 -8.795154963858088593e+00 -8.913464696853008462e+00 -8.913464696853008462e+00 -9.030596619258279389e+00 -9.097513085697636726e+00 -9.115303041905844950e+00 -9.187941336788618685e+00 -9.281016140383947288e+00 -9.293019532076703726e+00 -9.390661353766686759e+00 -9.436107843287832253e+00 -9.462303567103811375e+00 -9.558224996112990368e+00 -9.620445589134140718e+00 -9.620445589134140718e+00 -9.696858979576560955e+00 -9.714900595162434982e+00 -9.772773497779567720e+00 -9.790095273767381201e+00 -9.797206196445605642e+00 -9.900704625018565963e+00 -9.871507618535760642e+00 -9.956124885374705968e+00 -1.000459553045692473e+01 -1.001806188521335628e+01 -1.000596635412741264e+01 -1.003729915663603300e+01 -1.007135625721418215e+01 -1.011776335697147289e+01 -1.011776335697147289e+01 -1.014756191683207120e+01 -1.018983621099499892e+01 -1.021963184003126202e+01 -1.021963184003126202e+01 -1.015091311464363777e+01 -1.014970292304204058e+01
2.179524650195498126e+00 1.932456511572622215e+00 1.849730649045629116e+00 1.766123553028672744e+00 1.653536576412484971e+00 1.637141835152568614e+00 1.570744262466541752e+00 1.466586823775231974e+00 1.373072269074125051e+00 1.373072269074125051e+00 1.314464849588446782e+00 1.293293966274567719e+00 1.223521884985849129e+00 1.313419828790839183e+00 1.362702425344754165e+00 1.290382298436011377e+00 1.379228895674003086e+00 1.416220304077218106e+00 1.481199260582368726e+00 1.636863981151980507e+00 1.505669079853511949e+00 1.505669079853511949e+00 1.046932028603477560e+00 1.280249206555097996e-01 -1.340919304250398070e-01 -2.323006425909946715e-01 -4.597108038468013524e-01 -5.863892190000015159e-01 -5.388750741175525327e-01 -5.204551855208933153e-01 -3.989904524274853759e-01 1.290954831630168331e-01 1.969881699727273061e-01 1.969881699727273061e-01 -3.643614682389860748e-01 -7.503956165789614774e-01 -1.219098592038559081e+00 -1.337697429267846516e+00 -1.946919942515213497e+00 -2.307345330605835354e+00 -2.468437329313645456e+00 -2.742329061238712562e+00 -2.813655810302503113e+00 -2.889490698045030115e+00 -2.898924715644800365e+00 -2.987252920250377919e+00 -3.138243099350157994e+00 -3.260341547030304543e+00 -3.260341547030304543e+00 -3.224470524492026424e+00 -2.979745548540160272e+00 -2.799523466041534459e+00 -2.730115498848006528e+00 -2.561756257762822564e+00 -2.422812437842498667e+00 -2.677570550585926412e+00 -2.858692579404048750e+00 -3.298127000509634144e+00 -4.015129152193018136e+00 -4.765197756009265539e+00 -4.765197756009265539e+00 -5.683636381820758032e+00 -6.355926496561229655e+00 -6.703458496104656383e+00 -6.786762676982278641e+00 -7.143148376731740967e+00 -7.321136581128294907e+00 -7.560130185583521012e+00 -7.643957836889083701e+00 -7.750814349388175373e+00 -7.905791122452784592e+00 -8.056041308925095734e+00 -8.056041308925095734e+00 -8.214458424942689518e+00 -8.325265875796773685e+00 -8.414364577525248023e+00 -8.433405227890052203e+00 -8.539436096999928338e+00 -8.592102709948933992e+00 -8.665139056726076205e+00 -8.800104190971584472e+00 -8.904892317422948622e+00 -8.973772373660073853e+00 -9.021030922493444848e+00 -9.101285029847518970e+00 -9.124967065454859139e+00 -9.228256194710610316e+00 -9.280501375413674481e+00 -9.302768947755971851e+00 -9.396114029817997704e+00 -9.463278736629222365e+00 -9.463278736629222365e+00 -9.546006372928333761e+00 -9.624873690888946953e+00 -9.669709304715851772e+00 -9.699037284681697457e+00 -9.654919723814659349e+00 -9.721221477229963881e+00 -9.729704087531871437e+00 -9.717516635571001871e+00 -9.802465388312178618e+00 -9.885223568053147503e+00 -9.887322909802840343e+00 -9.887322909802840343e+00 -9.902626594541207083e+00 -9.935589717825067169e+00 -1.000486004035969145e+01 -9.978048987953847870e+00 -1.006267885458272993e+01 -1.011613139708228104e+01 -1.016244438678165807e+01 -1.016512980425453172e+01 -1.018907107426032432e+01 -1.016652861433866128e+01 -1.015589720544838848e+01 -1.013883615318016318e+01
2.254431365816119026e+00 1.963045241836573140e+00 1.849730649045629116e+00 1.786631441204916904e+00 1.699075540393000239e+00 1.637141835152568614e+00 1.551128011770902537e+00 1.545039164045375113e+00 1.459262548719406416e+00 1.376431572041821205e+00 1.354139401853730273e+00 1.354139401853730273e+00 1.359279160453042312e+00 1.406312101734660036e+00 1.362702425344754165e+00 1.388712721470891864e+00 1.387840566467380965e+00 1.416220304077218106e+00 1.348080181243590081e+00 1.573232913035800040e+00 1.632509073215873352e+00 1.529910927605769633e+00 1.661056074957525830e+00 6.699036839358432083e-01 -7.367006687411423171e-02 -3.047163224924419045e-01 -3.047163224924419045e-01 -5.712516355633509013e-01 -6.644217161100012259e-01 -5.204551855208933153e-01 -4.755305434407108289e-01 -9.573677329839294647e-02 2.917178624354015426e-01 3.873688335832445317e-02 1.146728329470531188e-01 -1.641504717456586659e-01 -8.683519456246169277e-01 -1.495278433877546220e+00 -1.495278433877546220e+00 -2.109047392123311493e+00 -2.576501105217029686e+00 -2.742329061238712562e+00 -2.779327746586161663e+00 -2.834203962755314166e+00 -2.898924715644800365e+00 -3.026558045635717953e+00 -3.076734473294687078e+00 -3.175029906921534639e+00 -3.273180250540528302e+00 -3.116962235030996453e+00 -3.038359581121592878e+00 -2.885033590553180538e+00 -2.740804165595899011e+00 -2.633004551893225020e+00 -2.433870328367863767e+00 -2.462530285168765154e+00 -3.004441050837003413e+00 -3.004441050837003413e+00 -3.719665141509819861e+00 -4.464536146699714436e+00 -5.066726749330753066e+00 -5.348819253515602945e+00 -6.192080836506345776e+00 -6.519935081894611351e+00 -6.984300995427444647e+00 -7.106322888888390032e+00 -7.284311093284943972e+00 -7.517549193509427852e+00 -7.721837362349542211e+00 -7.721837362349542211e+00 -7.889871949757421454e+00 -8.044602551686734770e+00 -8.133754401648889854e+00 -8.198499300648835586e+00 -8.315097053201984778e+00 -8.396477482722364272e+00 -8.490507298364926569e+00 -8.535206139480946419e+00 -8.585533685073295729e+00 -8.731527226570811706e+00 -8.830550142439669514e+00 -8.830550142439669514e+00 -8.960445380724214814e+00 -9.067817960483514739e+00 -9.101285029847518970e+00 -9.137004906563159778e+00 -9.217507629695047555e+00 -9.280501375413674481e+00 -9.322819155940241131e+00 -9.401566705869306873e+00 -9.441560519339141422e+00 -9.500379836361418029e+00 -9.538551061000575260e+00 -9.585798668824272895e+00 -9.666537618311659585e+00 -9.731300118207180105e+00 -9.731300118207180105e+00 -9.669669456680360042e+00 -9.672091298862863340e+00 -9.717516635571001871e+00 -9.711605799599926314e+00 -9.776272863716400252e+00 -9.864055857841401931e+00 -9.830349474713528934e+00 -9.787191303869057890e+00 -9.872997929444089493e+00 -9.905169827526940196e+00 -9.937400245002635302e+00 -9.937400245002635302e+00 -1.008134370661569257e+01 -1.012835104549626664e+01 -1.016512980425453172e+01 -1.016638274308133205e+01 -1.017739617675763952e+01 -1.015589720544838848e+01 -1.018017083398221878e+01
2.367902070367105427e+00 2.112575135465156073e+00 1.873988995161649518e+00 1.753058033020836071e+00 1.753058033020836071e+00 1.687814831441507124e+00 1.620288685980372234e+00 1.545039164045375113e+00 1.536718664255581679e+00 1.450028113016628151e+00 1.399586538164931726e+00 1.406532946957404606e+00 1.471861544543397571e+00 1.445783533205509119e+00 1.458927917602711233e+00 1.401578715674118847e+00 1.395680815015459375e+00 1.283351928759117744e+00 1.421563332153261250e+00 1.592122119457231033e+00 1.592122119457231033e+00 1.719297253728668151e+00 1.104395443463024984e+00 3.362625078586909955e-01 2.916521810189304786e-01 -1.903599825132883117e-01 -3.911580687993575500e-01 -4.575433317728566096e-01 -6.489539100936455585e-01 -6.243713092990398339e-01 -4.067509132821123252e-01 -2.637274482422014010e-01 1.550559486077934257e-01 2.693554272920936077e-01 4.329183680054950190e-02 4.329183680054950190e-02 -6.008345760753833753e-01 -1.207029077074010415e+00 -1.681242895405342441e+00 -1.810066797676485040e+00 -2.302970146384460737e+00 -2.618079028800693209e+00 -2.803088446457372207e+00 -2.827446685102127155e+00 -2.885153251922532025e+00 -2.970853908124261089e+00 -3.109034382097199511e+00 -3.109034382097199511e+00 -3.248235558407520429e+00 -3.168210487072551373e+00 -3.038359581121592878e+00 -2.953850091585775939e+00 -2.777414539879502264e+00 -2.633004551893225020e+00 -2.401728187075407028e+00 -2.390825198181567579e+00 -2.612060581164930007e+00 -3.208932954481620747e+00 -3.943438624235747536e+00 -3.943438624235747536e+00 -4.762945460252373309e+00 -5.587347901942785633e+00 -6.192080836506345776e+00 -6.442261532567644444e+00 -6.928334684491836981e+00 -7.106322888888390032e+00 -7.247485605441592149e+00 -7.480297798122645503e+00 -7.610245924208442148e+00 -7.795279146496429945e+00 -7.869559512878272045e+00 -7.975984476315458593e+00 -8.111048105567920885e+00 -8.245357729700536709e+00 -8.245357729700536709e+00 -8.383727435487946522e+00 -8.477847170034127799e+00 -8.535206139480946419e+00 -8.578964660197655689e+00 -8.731606378627581933e+00 -8.803308891751846943e+00 -8.896319937992890559e+00 -8.947118387788353999e+00 -9.011465225728612083e+00 -9.108883533465744975e+00 -9.185526626642502634e+00 -9.185526626642502634e+00 -9.281310171584022939e+00 -9.366908640876321357e+00 -9.401566705869306873e+00 -9.443635858492015700e+00 -9.489827326876877578e+00 -9.538551061000575260e+00 -9.621702004484756543e+00 -9.663365931907467399e+00 -9.703893846251096633e+00 -9.632897548075908034e+00 -9.686181624734420126e+00 -9.686181624734420126e+00 -9.637827074696398100e+00 -9.701143592049881192e+00 -9.701143592049881192e+00 -9.765196268254266343e+00 -9.727018804397676632e+00 -9.787191303869057890e+00 -9.757562638771940300e+00 -9.805479614694192492e+00 -9.889199391064403599e+00 -1.000759435219398519e+01 -1.003672914034143560e+01 -1.008383331854265919e+01 -1.014042339751406274e+01 -1.017425517767327747e+01 -1.017425517767327747e+01 -1.016088129625313918e+01 -1.021215946053827395e+01
2.281767024871502514e+00 2.030634238046148621e+00 1.995020694432998676e+00 1.779212555335987878e+00 1.732387261811124457e+00 1.710800281003100665e+00 1.656020980985377200e+00 1.596857343410754027e+00 1.512714423455790769e+00 1.504601945220216397e+00 1.473524754730236141e+00 1.484696610468287492e+00 1.521965106602399809e+00 1.521965106602399809e+00 1.533665179230682574e+00 1.492689765526901358e+00 1.395680815015459375e+00 1.396485258271252805e+00 1.380866126272695560e+00 1.418902580249036482e+00 1.592392955268122634e+00 1.631761791497469360e+00 1.658533881404186339e+00 9.490513766436232679e-01 1.927679167933945836e-01 1.927679167933945836e-01 -2.585962341924156194e-01 -5.173933847753222626e-01 -6.489539100936455585e-01 -6.477363719728650437e-01 -5.156251645216460844e-01 -2.637274482422014010e-01 3.286431185138507516e-01 3.618303766106868435e-01 2.741247798791356383e-01 -2.181474730254529537e-01 -7.368340108801203492e-01 -7.368340108801203492e-01 -1.364622220333038261e+00 -1.951990136998740688e+00 -1.951990136998740688e+00 -2.437390674091160392e+00 -2.780667757121574990e+00 -2.827446685102127155e+00 -2.830168677462695292e+00 -2.919642605681567193e+00 -3.010349626870807427e+00 -3.166442616961707479e+00 -3.198057507908213637e+00 -3.257076573031694622e+00 -3.085232659356354823e+00 -2.859855082187369391e+00 -2.859855082187369391e+00 -2.715923978622159396e+00 -2.476383436628296408e+00 -2.390825198181567579e+00 -2.455596115388948508e+00 -2.939293351155412459e+00 -3.444985393073920044e+00 -4.147318189786879827e+00 -4.375154131735849994e+00 -4.972419818049772289e+00 -5.852499217902966677e+00 -6.690223611794489322e+00 -6.690223611794489322e+00 -7.069497401045037321e+00 -7.361665046837860160e+00 -7.480297798122645503e+00 -7.573240319740468074e+00 -7.765066829704281304e+00 -7.869559512878272045e+00 -8.033163794448373807e+00 -8.088341809486950140e+00 -8.182540176354981654e+00 -8.304928230607197648e+00 -8.373558612893157616e+00 -8.436992564364338421e+00 -8.527149203686288814e+00 -8.652001006974799679e+00 -8.652001006974799679e+00 -8.802909991579001669e+00 -8.887747558562832495e+00 -8.947118387788353999e+00 -9.001899528963779318e+00 -9.116482037083969203e+00 -9.142283477810764225e+00 -9.220484417391013210e+00 -9.282118967754371397e+00 -9.331617886422412411e+00 -9.402696847014571091e+00 -9.465229075680042570e+00 -9.465229075680042570e+00 -9.531095749072814982e+00 -9.618530318080562580e+00 -9.663365931907467399e+00 -9.705029859330180031e+00 -9.653328205113098193e+00 -9.618117436130754427e+00 -9.614478510193857019e+00 -9.557416323094383159e+00 -9.627005413975098236e+00 -9.691090850473461416e+00 -9.685736168446640093e+00 -9.685736168446640093e+00 -9.671756013196906920e+00 -9.727933973674824486e+00 -9.805479614694192492e+00 -9.804415885751176063e+00 -9.952509849805240449e+00 -1.003672914034143560e+01 -1.009425770421087698e+01 -1.011571699077359554e+01 -1.014369441190233978e+01 -1.018212761226522289e+01 -1.016586538705788989e+01 -1.021715314737290825e+01
2.631669004370307263e+00 2.213044411264730726e+00 1.874666001787929748e+00 1.874666001787929748e+00 1.748933320589938667e+00 1.694712648975867708e+00 1.656020980985377200e+00 1.636992807160283503e+00 1.562765516518481057e+00 1.504601945220216397e+00 1.519154426448433126e+00 1.560367143831868697e+00 1.548162002579140273e+00 1.573446560765509705e+00 1.610090878039773798e+00 1.562173012678016892e+00 1.504749581943179759e+00 1.442378634194224851e+00 1.442378634194224851e+00 1.342400701397812313e+00 1.486739288040057838e+00 1.631761791497469360e+00 1.638160332939065489e+00 1.547944735329086274e+00 8.493666541842797013e-01 -3.015998705933605611e-02 -1.260343995854737720e-01 -3.093047783424137664e-01 -5.568425681721215215e-01 -6.757685401512516510e-01 -6.757685401512516510e-01 -3.363873779964369204e-01 1.610937367270919018e-01 3.618303766106868435e-01 3.475183886001009803e-01 1.468735163604512339e-01 -2.066948769160791288e-01 -9.016930441458181900e-01 -1.123451425985971586e+00 -1.511227738881848026e+00 -2.084127927515921463e+00 -2.553803507786183591e+00 -2.553803507786183591e+00 -2.792366079757414798e+00 -2.836714828400306310e+00 -2.919642605681567193e+00 -2.951815746876786051e+00 -3.096911523020842161e+00 -3.198057507908213637e+00 -3.225542084019859868e+00 -3.132517371324067046e+00 -3.016839667126899993e+00 -2.800525313883980072e+00 -2.746569223254550440e+00 -2.624362305402955009e+00 -2.422901401442169700e+00 -2.514179314966118461e+00 -2.514179314966118461e+00 -3.122011826537437251e+00 -3.846407821555124507e+00 -4.375154131735849994e+00 -4.612003995943622314e+00 -5.577680465273226140e+00 -6.167065425387280087e+00 -6.849778494788123950e+00 -6.979092468657627890e+00 -7.210660117598240326e+00 -7.443046402735863154e+00 -7.660016129433856236e+00 -7.660016129433856236e+00 -7.839347196086124292e+00 -8.021725037210014619e+00 -8.088341809486950140e+00 -8.161652378409900876e+00 -8.294759408012410518e+00 -8.373558612893157616e+00 -8.465187041703327253e+00 -8.517784971607078148e+00 -8.572395635322017426e+00 -8.725037353751943670e+00 -8.827682012410603463e+00 -8.827682012410603463e+00 -8.934330945273252667e+00 -9.048529097733590376e+00 -9.116482037083969203e+00 -9.147562049058366895e+00 -9.227790274401804993e+00 -9.282118967754371397e+00 -9.331896195137495909e+00 -9.403584639236113318e+00 -9.467553671930467374e+00 -9.486822292868072992e+00 -9.497502318916744457e+00 -9.594256839086792610e+00 -9.660194245503276989e+00 -9.722262258832291337e+00 -9.612752549380820355e+00 -9.559664845522885201e+00 -9.556865721524850699e+00 -9.542405028350266605e+00 -9.542405028350266605e+00 -9.605908837230520803e+00 -9.601950457969493868e+00 -9.642424125564733828e+00 -9.599258788944290188e+00 -9.683816873350789223e+00 -9.705789401861443011e+00 -9.838968753182591342e+00 -9.912221917653827319e+00 -1.000100550895628260e+01 -1.006016436292548555e+01 -1.012100608072334751e+01 -1.012100608072334751e+01 -1.015943928108623062e+01 -1.022234388349604828e+01 -1.024636303843862883e+01
2.894565707108016639e+00 2.406705245711244778e+00 2.139542812666522575e+00 1.803701184640907229e+00 1.782190050435905393e+00 1.733056198153624106e+00 1.690354086297920055e+00 1.620975975777031008e+00 1.620975975777031008e+00 1.557144698572585417e+00 1.592967374307670880e+00 1.560367143831868697e+00 1.621268286326323915e+00 1.645045409850428131e+00 1.610090878039773798e+00 1.581627051249300697e+00 1.599866239241199972e+00 1.508948712880199494e+00 1.426576157440632375e+00 1.293583434629065110e+00 1.293583434629065110e+00 1.494269041295678502e+00 1.629955436997960749e+00 1.547944735329086274e+00 1.298801818546947429e+00 2.947125793110329517e-01 -1.260343995854737720e-01 -8.944480444565804100e-02 -4.124310809759428875e-01 -6.362013125658873003e-01 -6.234256258108616944e-01 -5.026757646160213699e-01 -2.268383234899400969e-01 2.750213686534173640e-01 3.131748183347131675e-01 3.131748183347131675e-01 1.103255248509061870e-01 -7.096952383472605597e-01 -1.123451425985971586e+00 -1.356504701819442493e+00 -1.841119851129860541e+00 -2.245866794872398042e+00 -2.680531425662777245e+00 -2.550932462390384181e+00 -2.745981249223459653e+00 -2.866901700254679497e+00 -2.986980686156627929e+00 -2.986980686156627929e+00 -3.152889574380085769e+00 -3.221979945299536574e+00 -3.132517371324067046e+00 -3.078845541847415657e+00 -2.862397905462319869e+00 -2.746569223254550440e+00 -2.580064340967546332e+00 -2.513348222296023948e+00 -2.375505965897625860e+00 -2.665037976511351658e+00 -3.300668240538435327e+00 -3.499229932176447733e+00 -4.029351959314514176e+00 -4.864396039703716035e+00 -5.128107858602961144e+00 -5.825431486821726956e+00 -6.554402143303492245e+00 -7.070604793127236221e+00 -7.070604793127236221e+00 -7.364054249054449386e+00 -7.579010616819854107e+00 -7.719553285780714091e+00 -7.761203358703885336e+00 -7.923249547407047011e+00 -8.057654151108046392e+00 -8.198520910379198057e+00 -8.243921202665816850e+00 -8.351052056994493711e+00 -8.446079545962088986e+00 -8.557692266864618702e+00 -8.557692266864618702e+00 -8.705855425877864207e+00 -8.810411612296045192e+00 -8.877202653413453604e+00 -8.917194174639996973e+00 -9.031180623794204720e+00 -9.120283609957899884e+00 -9.181880707078516224e+00 -9.225146460781859403e+00 -9.283773361767220678e+00 -9.382615009893758184e+00 -9.451113846301765875e+00 -9.451113846301765875e+00 -9.493746099387966098e+00 -9.504776072915134932e+00 -9.594256839086792610e+00 -9.529796884806110313e+00 -9.534428943211988638e+00 -9.612752549380820355e+00 -9.598860814000625297e+00 -9.559523247866728468e+00 -9.527441866493861156e+00 -9.574844627359757609e+00 -9.646336924220200615e+00 -9.614710665543494628e+00 -9.646234076820542569e+00 -9.693626126641913032e+00 -9.693626126641913032e+00 -9.775643786247865563e+00 -9.881327699780063867e+00 -9.912221917653827319e+00 -1.001148762368373468e+01 -1.005063377229018151e+01 -1.009180530255585850e+01 -1.013517267016869638e+01 -1.015972157225104411e+01 -1.016946964856908586e+01 -1.025491441424087213e+01
2.724294049318217059e+00 2.724294049318217059e+00 2.322874676174744302e+00 1.941836908586727528e+00 1.782190050435905393e+00 1.771155472404160713e+00 1.698242023119339805e+00 1.666690433223785739e+00 1.613450648080799521e+00 1.608000864544547159e+00 1.594671108139878557e+00 1.628648693347323650e+00 1.672459051573037758e+00 1.672459051573037758e+00 1.692110051955740602e+00 1.682351009376985340e+00 1.599866239241199972e+00 1.604897462300920008e+00 1.528562871167665538e+00 1.405300418768142379e+00 1.282736429862627592e+00 1.315216162334623018e+00 1.501942071699291059e+00 1.375841230648573443e+00 1.007733889666847293e+00 1.007733889666847293e+00 2.750445746626586918e-01 -1.762311824263020354e-01 -4.435646243761290908e-01 -4.435646243761290908e-01 -6.163083485994776956e-01 -2.531769678234813137e-01 -1.129848391959012988e-01 1.153994796008206425e-01 1.279519901295061990e-02 2.538785130137759527e-01 -1.451436641432314600e-01 -5.467513917131412438e-01 -1.025687620356455554e+00 -1.485130216263034875e+00 -1.579020434126361616e+00 -1.959362611659918985e+00 -2.312820024752024306e+00 -2.605436585726595311e+00 -2.605436585726595311e+00 -2.810648170749997288e+00 -2.956368741474782347e+00 -3.054930003381302939e+00 -3.120709192191142733e+00 -3.209798977557500876e+00 -3.182510817499952349e+00 -3.028925555951989423e+00 -2.970919953524468582e+00 -2.841696792980402897e+00 -2.667802840884904825e+00 -2.461975978410385846e+00 -2.461975978410385846e+00 -2.481045946952380454e+00 -2.973994890438182992e+00 -3.499229932176447733e+00 -3.662810008621486091e+00 -4.469679523825222489e+00 -5.128107858602961144e+00 -6.035087479895599571e+00 -6.270496171887198322e+00 -6.729223405575432082e+00 -7.155819193106724541e+00 -7.428529968988151211e+00 -7.428529968988151211e+00 -7.624625796327437754e+00 -7.826433833452096422e+00 -7.923249547407047011e+00 -7.972440372716068424e+00 -8.132277451873903829e+00 -8.243921202665816850e+00 -8.286471406425494735e+00 -8.397635788284400604e+00 -8.489033707901718628e+00 -8.615201394715366945e+00 -8.671622218121436632e+00 -8.762461714679719904e+00 -8.855613585726697323e+00 -8.980650292924623912e+00 -8.980650292924623912e+00 -9.112931037156327463e+00 -9.179052996207603954e+00 -9.225146460781859403e+00 -9.277226969634764231e+00 -9.374586943428079522e+00 -9.409399963049018822e+00 -9.477306273759261046e+00 -9.503498701216759770e+00 -9.511216597336396461e+00 -9.512049826913525408e+00 -9.522733263834672002e+00 -9.522733263834672002e+00 -9.503341578062579842e+00 -9.627172919345522217e+00 -9.559523247866728468e+00 -9.628837989558682864e+00 -9.683041672923875964e+00 -9.646336924220200615e+00 -9.679663072431543114e+00 -9.749459790686584526e+00 -9.705741820836355060e+00 -9.788802609964529111e+00 -9.859886275069321471e+00 -9.859886275069321471e+00 -9.967036017966840689e+00 -1.004355190707696721e+01 -1.005063377229018151e+01 -1.010367170117214997e+01 -1.014098980332107303e+01 -1.015972157225104411e+01 -1.017611913519340661e+01 -1.023697466741801243e+01
2.957347385297041331e+00 2.627362883004215277e+00 2.185707141424951594e+00 2.132868047929306066e+00 1.928943023317726713e+00 1.726011593045478021e+00 1.679313650563891702e+00 1.679313650563891702e+00 1.639884540358963250e+00 1.650306962081779183e+00 1.651688815018257817e+00 1.694525477952165238e+00 1.737800719227029056e+00 1.715600087985981625e+00 1.771796334150095520e+00 1.777473030863994996e+00 1.698264360008533647e+00 1.627097473799578031e+00 1.627446861464741268e+00 1.506597315901418099e+00 1.357246784795512085e+00 1.367476391389650381e+00 1.367476391389650381e+00 1.458882266874869549e+00 1.455081033518918154e+00 9.513115820100640496e-01 7.803690097228529465e-01 4.350667605640089197e-03 -2.575054834531126380e-01 -4.725543217150842135e-01 -5.239160328088909857e-01 -6.268282008348993184e-01 -1.249748563846277971e-01 3.446063866406143261e-02 3.446063866406143261e-02 3.316311172791541750e-01 8.442872829869282891e-02 -5.467513917131412438e-01 -9.273019997146898508e-01 -1.233631435510324836e+00 -1.579020434126361616e+00 -2.076619871610037027e+00 -2.177237613058835120e+00 -2.415350050697194551e+00 -2.719826032696939677e+00 -2.873899708766247230e+00 -2.873899708766247230e+00 -3.018547384972594561e+00 -3.165050113942476262e+00 -3.165050113942476262e+00 -3.208647966070623525e+00 -3.116042926983326744e+00 -2.970919953524468582e+00 -2.936847417433763319e+00 -2.759118435385542689e+00 -2.623640513815313824e+00 -2.461544566249560972e+00 -2.348237394551945023e+00 -2.628774865370806069e+00 -3.142035138639919900e+00 -3.850432248309891392e+00 -3.850432248309891392e+00 -4.682083530734312049e+00 -5.639613881895424008e+00 -6.270496171887198322e+00 -6.473547838406759070e+00 -7.000144051429795233e+00 -7.266355172422350073e+00 -7.472022565078162870e+00 -7.537146807904496981e+00 -7.681490674405824670e+00 -7.887507846891853802e+00 -8.012903223883633075e+00 -8.012903223883633075e+00 -8.179340552096817873e+00 -8.336583870736621549e+00 -8.397635788284400604e+00 -8.438982901396643754e+00 -8.580968186958939370e+00 -8.671622218121436632e+00 -8.787139410237321258e+00 -8.833854626882434502e+00 -8.896964616680408611e+00 -9.011948865322517932e+00 -9.137395020371354093e+00 -9.137395020371354093e+00 -9.222318749910943581e+00 -9.337511259509177819e+00 -9.337511259509177819e+00 -9.415215286861922550e+00 -9.487058875588054718e+00 -9.503498701216759770e+00 -9.524930875756048465e+00 -9.525764105333179188e+00 -9.519323580911915883e+00 -9.532698976888383413e+00 -9.597519438722999396e+00 -9.583258876125530179e+00 -9.654799578075980548e+00 -9.698392327420931380e+00 -9.698392327420931380e+00 -9.746521063653542427e+00 -9.782888786297585071e+00 -9.749459790686584526e+00 -9.812107263445772887e+00 -9.893788346578269000e+00 -9.875566000170517000e+00 -9.957175181111768580e+00 -1.002229368095674999e+01 -1.005624567951110393e+01 -1.007618447294288799e+01 -1.011622194437114608e+01 -1.011622194437114608e+01 -1.016553870540342075e+01 -1.019126367588845028e+01 -1.023697466741801243e+01
3.421770052790471084e+00 2.845506965679486466e+00 2.410400663252256326e+00 2.132868047929306066e+00 2.068638563243432316e+00 1.748562448961830551e+00 1.709327551735737805e+00 1.668691361178257448e+00 1.663836267912922162e+00 1.647465605005739686e+00 1.708653214816339583e+00 1.746048275200016597e+00 1.746048275200016597e+00 1.786154766121535342e+00 1.825826298597826192e+00 1.777473030863994996e+00 1.796662480775867321e+00 1.719322550567352836e+00 1.627446861464741268e+00 1.465093707510483512e+00 1.483204714917504052e+00 1.351288682896314208e+00 1.372135099737334940e+00 1.601083466279393797e+00 1.601083466279393797e+00 1.563735373771355519e+00 4.994074391749412922e-01 4.994074391749412922e-01 -9.037556076861226473e-02 -3.395012385712262715e-01 -5.239160328088909857e-01 -5.741054950851318672e-01 -2.416323196185799493e-01 -1.104401843758710811e-02 -1.520575410691904494e-01 3.036073474633687597e-01 4.061699338497807288e-01 -8.500911885666742607e-02 -8.497477928144262505e-01 -8.497477928144262505e-01 -1.252293537238716947e+00 -1.785291328938652722e+00 -2.177237613058835120e+00 -2.279767639004005364e+00 -2.612063901090408979e+00 -2.759997070135893793e+00 -2.925622738795957023e+00 -3.004904528750970361e+00 -3.081953591753723298e+00 -3.200112224020327023e+00 -3.172953100187302589e+00 -3.172953100187302589e+00 -3.079442001586617739e+00 -2.883418880287797581e+00 -2.759118435385542689e+00 -2.725235045222643038e+00 -2.461834575928957936e+00 -2.348237394551945023e+00 -2.720044518802145372e+00 -2.811314172233483788e+00 -3.300031419234110253e+00 -4.060687457332317507e+00 -4.246161255938278423e+00 -4.888621432878416329e+00 -5.905566243973416896e+00 -6.656030445897959780e+00 -6.656030445897959780e+00 -7.120671129529434928e+00 -7.394900019784149237e+00 -7.537146807904496981e+00 -7.603729100874442537e+00 -7.774154767903098673e+00 -7.893528995893367650e+00 -8.066033993368609600e+00 -8.113941002808640945e+00 -8.221890755856497535e+00 -8.353247356969951909e+00 -8.500559293169011710e+00 -8.500559293169011710e+00 -8.637389010365012609e+00 -8.778344625961331360e+00 -8.833854626882434502e+00 -8.879150286616063426e+00 -8.992717106850829367e+00 -9.101126569318491732e+00 -9.200416266786408670e+00 -9.219491039040029534e+00 -9.271124873333141281e+00 -9.370640727008559878e+00 -9.467216419805184913e+00 -9.467216419805184913e+00 -9.513251303045553442e+00 -9.532204629754440717e+00 -9.525764105333179188e+00 -9.539987521183403985e+00 -9.585677634712434170e+00 -9.597519438722999396e+00 -9.662425135635317019e+00 -9.716389945665998340e+00 -9.708957644456241098e+00 -9.805341348207198493e+00 -9.873255589840118418e+00 -9.886114500163625252e+00 -9.852685504552626483e+00 -9.903597599869391033e+00 -9.998774083192008888e+00 -9.975488214093164885e+00 -1.003302266244347152e+01 -1.009161278542468843e+01 -1.009161278542468843e+01 -1.010185677316446728e+01 -1.012949797485938674e+01 -1.014680693647344967e+01 -1.017135583855579739e+01 -1.019481217336432977e+01 -1.023459572397224804e+01
3.190400721275866047e+00 3.022093400185412282e+00 2.747099897861958517e+00 2.334812841422368557e+00 1.947767971467135428e+00 1.947767971467135428e+00 1.722276862502841732e+00 1.673905635005051185e+00 1.663836267912922162e+00 1.684236592646866093e+00 1.748784633081469364e+00 1.756818241423097504e+00 1.802276610149430969e+00 1.839211164705071733e+00 1.848939664728619370e+00 1.870474858963868448e+00 1.802020427071529873e+00 1.802020427071529873e+00 1.725636371153273618e+00 1.598964018053243841e+00 1.483204714917504052e+00 1.471675533244881429e+00 1.306511331554769839e+00 1.413695837805765576e+00 1.604545000403842181e+00 1.608309976786238327e+00 1.197817875897106976e+00 2.819483476407832478e-01 -1.412479541485334444e-01 -1.412479541485334444e-01 -3.708777322353946637e-01 -6.302307758589368314e-01 -2.416323196185799493e-01 -3.361126376763243218e-02 -1.827747541048075353e-01 3.036073474633687597e-01 2.680233875020900935e-01 1.238263054808185770e-01 6.013917501129711907e-02 -5.976473346596068437e-01 -7.318313433321530503e-01 -1.264893353180139401e+00 -1.827976264521425254e+00 -2.412843723116767425e+00 -2.412843723116767425e+00 -2.795525921904199684e+00 -2.932331031484737061e+00 -3.004904528750970361e+00 -3.078113210804709787e+00 -3.193662908599335992e+00 -3.203973480122051853e+00 -3.181750995556605677e+00 -3.175433426127446168e+00 -3.037820511992745054e+00 -2.864787916464250905e+00 -2.641905730042811484e+00 -2.641905730042811484e+00 -2.295048481855348932e+00 -2.521371270729201974e+00 -2.811314172233483788e+00 -2.971899574514127007e+00 -3.673376373829341901e+00 -4.246161255938278423e+00 -5.171212673591051079e+00 -5.432724056512150845e+00 -6.112785727177131534e+00 -6.747980854887749125e+00 -7.158087912980905188e+00 -7.158087912980905188e+00 -7.457628891554305639e+00 -7.676406890086757251e+00 -7.827285537388071646e+00 -7.827285537388071646e+00 -7.999790534863311819e+00 -8.157310105287500335e+00 -8.157310105287500335e+00 -8.316795817477975916e+00 -8.451608689049306733e+00 -8.533943804727440963e+00 -8.603155802608585034e+00 -8.769549841685339686e+00 -8.812095668038173457e+00 -8.961987181580113315e+00 -8.973485348379142579e+00 -9.089322101480657778e+00 -9.212246277652704762e+00 -9.276893010720687727e+00 -9.276893010720687727e+00 -9.367701671185558965e+00 -9.475415407210919128e+00 -9.496811477416850167e+00 -9.523003904874347114e+00 -9.545918908174090944e+00 -9.539478383752831192e+00 -9.604219382693436557e+00 -9.628954588624649702e+00 -9.639640407010494627e+00 -9.717152239003828740e+00 -9.763373967962952094e+00 -9.763373967962952094e+00 -9.863950280459810926e+00 -9.934216447085827184e+00 -9.886114500163625252e+00 -9.955911218418668440e+00 -1.001079822266408037e+01 -9.998774083192008888e+00 -1.001963925620754736e+01 -1.009628890340998630e+01 -1.007937355543845115e+01 -1.010605205872128920e+01 -1.012752907338604658e+01 -1.012740449840474000e+01 -1.014256557444858942e+01 -1.017642211224839066e+01 -1.017642211224839066e+01 -1.022578633637021639e+01
3.361337443509343714e+00 3.022093400185412282e+00 2.641151546166661479e+00 2.570919604339513942e+00 2.252765512238567691e+00 1.812005319452080876e+00 1.692140726451461852e+00 1.692140726451461852e+00 1.694893148596201993e+00 1.723668461568369947e+00 1.748784633081469364e+00 1.789441836535893282e+00 1.852960025993155568e+00 1.839211164705071733e+00 1.890130001256675740e+00 1.923767556562776315e+00 1.875489553293454126e+00 1.812846245270060219e+00 1.830255610226302121e+00 1.710830508407926054e+00 1.611648425412272045e+00 1.455471152048598560e+00 1.455471152048598560e+00 1.305784918414083062e+00 1.457221011531416366e+00 1.608309976786238327e+00 1.408885601923790531e+00 7.677372499990632315e-01 2.983136733231027682e-01 -1.687125187672409710e-01 -2.046256032827383775e-01 -4.781702046084795876e-01 -6.362928253049253691e-01 -4.223577102950387685e-02 -4.223577102950387685e-02 6.496715866926422445e-02 1.658331831543700605e-02 1.238263054808185770e-01 1.573340720882977495e-01 -2.340649023282704300e-01 -8.438114498839641708e-01 -1.338229119686312085e+00 -1.529037263611367825e+00 -2.059838987233779228e+00 -2.429704803166777616e+00 -2.826234379992756285e+00 -2.948557923361466493e+00 -3.014993517249048516e+00 -3.092540972113746456e+00 -3.162438288906701533e+00 -3.220744002189949384e+00 -3.243848188632560081e+00 -3.152566818049923114e+00 -3.152566818049923114e+00 -3.005610720405122116e+00 -2.752323772495570253e+00 -2.557355656090287255e+00 -2.460842772355329444e+00 -2.418449274128034787e+00 -2.644482988304869053e+00 -3.149438808694965175e+00 -3.324390269499199135e+00 -3.867149809181146924e+00 -4.705776093712971786e+00 -5.594530402744644526e+00 -5.594530402744644526e+00 -6.412818339263586687e+00 -6.858512845836997052e+00 -7.230774933293790063e+00 -7.280876403499744853e+00 -7.588537081407535467e+00 -7.707911309397802668e+00 -7.880416306873044618e+00 -7.933547076358017591e+00 -8.048590929657304827e+00 -8.209593064356649705e+00 -8.343782543143563046e+00 -8.343782543143563046e+00 -8.506125840594807030e+00 -8.665793424005432399e+00 -8.769549841685339686e+00 -8.790336709193908860e+00 -8.943925151807036400e+00 -8.973485348379142579e+00 -9.124693577530134547e+00 -9.209318776938049567e+00 -9.216663328169117264e+00 -9.343163403567553260e+00 -9.366542453761594444e+00 -9.434667824323199170e+00 -9.502499271648680690e+00 -9.552359432595354249e+00 -9.552359432595354249e+00 -9.589285590795938674e+00 -9.646094824545770052e+00 -9.628954588624649702e+00 -9.684799808353083961e+00 -9.771879342372342236e+00 -9.771621352175266395e+00 -9.833269562252491269e+00 -9.922847075353612212e+00 -9.942313594481477779e+00 -9.992815097333398455e+00 -1.002483814866460321e+01 -1.002483814866460321e+01 -1.009933560620894966e+01 -1.009738585211128736e+01 -1.009628890340998630e+01 -1.013645342992015586e+01 -1.013765391323917697e+01 -1.012752907338604658e+01 -1.014772553005572320e+01 -1.016006195401974743e+01 -1.017717297170817581e+01 -1.019836067084020925e+01 -1.022920940732831951e+01
3.799109812151265420e+00 3.143413660063509418e+00 2.879811350217353461e+00 2.570919604339513942e+00 2.451471742172087520e+00 1.927397718629255463e+00 1.759794226822649854e+00 1.672953218623524752e+00 1.724973180444335119e+00 1.749423264650891374e+00 1.776027221399773870e+00 1.846831684062117729e+00 1.902004436321354408e+00 1.878140807440713100e+00 1.928234392167657463e+00 1.940680442218280177e+00 1.940680442218280177e+00 1.907870428511167393e+00 1.848183342843517041e+00 1.733576516532773448e+00 1.740669556466102330e+00 1.569988735524723955e+00 1.429322590345808885e+00 1.380032121035173809e+00 1.309897022658990995e+00 1.575558140550610275e+00 1.252949324369102113e+00 1.312699922315218259e+00 9.476816736858193480e-01 1.486144968212345374e-01 -2.666955981027799294e-01 -2.666955981027799294e-01 -5.473503151516518894e-01 -3.048094198744807914e-02 -8.565545326667742265e-02 -1.553046611598972171e-01 -1.266219524008382891e-02 1.615530260359228087e-01 5.828327783154533398e-02 4.077253741146691368e-02 -3.586898204051168770e-01 -9.912532520215688869e-01 -1.578587554758733580e+00 -1.578587554758733580e+00 -2.076700067283788975e+00 -2.607193521293657223e+00 -2.948557923361466493e+00 -3.032752799644035768e+00 -3.065014587248203526e+00 -3.162438288906701533e+00 -3.299288589006268424e+00 -3.298346059527621499e+00 -3.255848175801654421e+00 -3.145672591469333312e+00 -2.963855098965180623e+00 -2.963855098965180623e+00 -2.681590787957412569e+00 -2.433612119639376292e+00 -2.418449274128034787e+00 -2.428325144489474230e+00 -2.837868163883384032e+00 -3.324390269499199135e+00 -3.488138362424014982e+00 -4.244318396971538121e+00 -4.929594786404319251e+00 -5.761496293094672261e+00 -6.001646627984266402e+00 -6.453944820915594072e+00 -7.009104845898106007e+00 -7.390403147642953918e+00 -7.390403147642953918e+00 -7.648759259576765501e+00 -7.814172848367749502e+00 -7.933547076358017591e+00 -7.983377923637508644e+00 -8.146704489714650776e+00 -8.262617255769614033e+00 -8.399936336095406020e+00 -8.465670834814421397e+00 -8.563539178758984960e+00 -8.750362516394018186e+00 -8.848741787056605190e+00 -8.848741787056605190e+00 -8.954349808940138544e+00 -9.118342856109524774e+00 -9.209318776938049567e+00 -9.213835617298203218e+00 -9.333473086338671010e+00 -9.366542453761594444e+00 -9.478718568247160192e+00 -9.510253054560457997e+00 -9.532756506703140786e+00 -9.575690883951558874e+00 -9.672185577084752239e+00 -9.672185577084752239e+00 -9.677919945446824102e+00 -9.772016426313566484e+00 -9.772016426313566484e+00 -9.829139561518790202e+00 -9.900127683524374334e+00 -9.922847075353612212e+00 -9.989690323865465515e+00 -1.007864227867527163e+01 -1.005913693228470862e+01 -1.012954436612085374e+01 -1.019701665108145683e+01 -1.014641930042204621e+01 -1.014961621823210969e+01 -1.016142903387760299e+01 -1.016142903387760299e+01 -1.015320137360762764e+01 -1.016595308525206320e+01 -1.016006195401974743e+01 -1.016890920452603275e+01 -1.020190916831608519e+01 -1.021965823872225343e+01
3.525146382859265515e+00 3.268095231642768717e+00 3.083301752560302589e+00 2.816949285906044764e+00 2.289255070684298676e+00 2.124715794414462788e+00 1.812047292588053526e+00 1.670227490766061695e+00 1.752162610730259029e+00 1.752162610730259029e+00 1.799401061185940787e+00 1.895970122432399929e+00 1.902004436321354408e+00 1.917940106967329861e+00 1.968211218771179327e+00 1.958338085649541149e+00 1.953160967476215371e+00 2.002362491009258783e+00 1.934874849299330180e+00 1.872048541230000751e+00 1.720076292227939785e+00 1.720076292227939785e+00 1.552185811513197677e+00 1.340266508848474647e+00 1.309897022658990995e+00 1.485973441087858671e+00 1.649714190779109302e+00 1.312699922315218259e+00 8.076151220111009721e-01 4.751242657064680963e-01 -3.207183159551278695e-02 -3.023496444622036927e-01 -5.345866942749880613e-01 -5.345866942749880613e-01 -2.673488988875022399e-02 -7.779021814357608977e-02 -7.779021814357608977e-02 3.101551412863363111e-01 3.235990573450251429e-01 4.077253741146691368e-02 3.746088558159908766e-03 -4.930570139315372247e-01 -1.214349120469218501e+00 -1.702015273375982352e+00 -1.842724675024552505e+00 -2.227739456277156194e+00 -2.734772150858202355e+00 -2.999598560075436460e+00 -2.999598560075436460e+00 -3.128406716543430832e+00 -3.231671718275154870e+00 -3.298346059527621499e+00 -3.360360831652967839e+00 -3.268243540831664795e+00 -3.142651035005963323e+00 -2.862653080673149830e+00 -2.806779681263090076e+00 -2.630566372757080718e+00 -2.315527277526867156e+00 -2.440807979812319672e+00 -2.440807979812319672e+00 -2.992766936337188710e+00 -3.631303164565518049e+00 -4.244318396971538121e+00 -4.426465516296487657e+00 -5.299073344417052134e+00 -6.001646627984266402e+00 -6.620001012455560385e+00 -6.803649821993143831e+00 -7.122589768308202451e+00 -7.430425347140717562e+00 -7.636974000570546650e+00 -7.636974000570546650e+00 -7.867303617852721587e+00 -8.030426223241331485e+00 -8.030426223241331485e+00 -8.192279615127551651e+00 -8.312395848657464725e+00 -8.465670834814421397e+00 -8.475242328428224781e+00 -8.676429290177294362e+00 -8.768577750349647815e+00 -8.924042008448298091e+00 -8.918398590482372157e+00 -9.065713165804988094e+00 -9.206391276223392595e+00 -9.302717578483836292e+00 -9.302717578483836292e+00 -9.365383236337631701e+00 -9.473933118619999760e+00 -9.510253054560457997e+00 -9.533442774936085939e+00 -9.607083544558301824e+00 -9.667121307041293576e+00 -9.687127264658679238e+00 -9.700029872969786027e+00 -9.738069208243366859e+00 -9.829919513709240775e+00 -9.877435575042056826e+00 -9.877435575042056826e+00 -9.981674875446984174e+00 -1.006263538366037835e+01 -1.007864227867527163e+01 -1.016512859925766321e+01 -1.024451815683235623e+01 -1.019701665108145683e+01 -1.016295144125203720e+01 -1.020294353305423485e+01 -1.018136269347437306e+01 -1.016925576775706475e+01 -1.017887367382920694e+01 -1.017058055516226922e+01 -1.016602663316812105e+01 -1.020259640563448578e+01 -1.018000522406380171e+01 -1.022320673619813114e+01
3.693698084029577000e+00 3.268714909890234388e+00 3.083301752560302589e+00 3.067195411868899324e+00 2.507775228080070029e+00 2.124715794414462788e+00 1.763422051693293469e+00 1.713556773935035693e+00 1.713335380795650842e+00 1.776954770050662047e+00 1.853674122704773053e+00 1.853674122704773053e+00 1.945236246589260753e+00 1.976649996754802796e+00 1.976649996754802796e+00 1.994164532543825752e+00 2.019441557387195996e+00 2.002362491009258783e+00 2.018993171906724449e+00 1.986085141347925909e+00 1.873831131225941249e+00 1.695442896240827668e+00 1.700505600313849452e+00 1.509127931878303297e+00 1.358854278427057194e+00 1.495029530629447878e+00 1.495029530629447878e+00 1.519916422294206981e+00 1.087802399951260268e+00 4.751242657064680963e-01 3.910832750998451957e-01 4.157624859794370464e-02 -3.625930563568131593e-01 -2.483313966092827729e-01 -9.428774665563013913e-02 -1.556312335255019552e-01 1.361171730910379629e-01 2.361201003547397093e-01 2.361201003547397093e-01 2.025595009941153490e-01 -9.012987883641990217e-02 -4.930570139315372247e-01 -7.201873695704444911e-01 -1.319194466430875012e+00 -1.842724675024552505e+00 -2.338369990609335147e+00 -2.398521010667964415e+00 -2.809720160658098820e+00 -2.982309570185902370e+00 -3.001231649006320445e+00 -3.193825426583919214e+00 -3.346589559725247742e+00 -3.360326251514818008e+00 -3.360326251514818008e+00 -3.255150615994056640e+00 -3.014279638359940616e+00 -2.806779681263090076e+00 -2.768538507163940565e+00 -2.405529484436816023e+00 -2.294512233246054134e+00 -2.562613438454078185e+00 -2.727321409288603782e+00 -3.140113047842891802e+00 -3.801044113816232528e+00 -4.580604968012352174e+00 -4.580604968012352174e+00 -5.503078509201179358e+00 -6.295896668200853696e+00 -6.803649821993143831e+00 -6.775379355863554665e+00 -7.175036019712653257e+00 -7.472868729827091272e+00 -7.677399714101896144e+00 -7.694961723279397425e+00 -7.866402908608309374e+00 -8.034306697212151960e+00 -8.166457878423742045e+00 -8.166457878423742045e+00 -8.326991964675290347e+00 -8.498918945224636090e+00 -8.676429290177294362e+00 -8.652968851764114788e+00 -8.821224341046086437e+00 -8.977652114802184613e+00 -8.977652114802184613e+00 -9.112013678770539471e+00 -9.260753403886761603e+00 -9.297280921936339482e+00 -9.306401341380485803e+00 -9.419892707898799955e+00 -9.484152204010294795e+00 -9.554235899316459779e+00 -9.576916974410844219e+00 -9.638950340158412899e+00 -9.674499942277030584e+00 -9.745675529029012907e+00 -9.745675529029012907e+00 -9.861345754142403663e+00 -9.913932604522930347e+00 -9.959239112683457407e+00 -1.003378601805920134e+01 -1.009718373863581320e+01 -1.012164855452771306e+01 -1.017817569849466253e+01 -1.020529977205621819e+01 -1.023790134513443384e+01 -1.018499922628313747e+01 -1.018167554964957588e+01 -1.018167554964957588e+01 -1.015995983271339220e+01 -1.015658123815025604e+01 -1.018418064044839966e+01 -1.015277759920510547e+01 -1.015307459439700288e+01 -1.018000522406380171e+01 -1.020602231860831566e+01
3.927041461430104796e+00 3.454371754955137153e+00 3.275196328813080093e+00 2.915157915283201007e+00 2.915157915283201007e+00 2.360952163296701212e+00 1.947270146622598785e+00 1.713556773935035693e+00 1.735968516585202792e+00 1.817782541985004441e+00 1.831501530323843330e+00 1.928381446764939833e+00 1.977943462824090837e+00 1.965835539214962679e+00 2.005764663628093913e+00 2.050110478735168051e+00 2.050110478735168051e+00 2.054323824053054803e+00 2.032545453550926418e+00 1.986085141347925909e+00 1.996236653743081124e+00 1.855753773017525088e+00 1.700505600313849452e+00 1.654103102387856961e+00 1.422477316922952317e+00 1.319724748866419217e+00 1.459314559191364769e+00 1.432896223976939387e+00 1.513012455124188582e+00 8.948082123581306835e-01 5.872521791286258175e-01 5.872521791286258175e-01 -1.539960239247192830e-01 -3.649400936041016785e-01 -9.428774665563013913e-02 -2.191186476227678093e-01 6.978731655386619104e-02 1.817849847698032040e-01 1.395400644825990077e-01 2.439759830732025625e-01 1.260325032719782079e-01 -2.238815316219671947e-01 -7.940270272675021834e-01 -7.940270272675021834e-01 -1.369037371477929144e+00 -1.966158095774085623e+00 -2.398521010667964415e+00 -2.488883586921778246e+00 -2.841956518395089670e+00 -3.001231649006320445e+00 -3.227657125230718460e+00 -3.253866987660460897e+00 -3.421983082366149898e+00 -3.359640816560002463e+00 -3.237177342737783015e+00 -3.188253920597104774e+00 -2.937508475068491887e+00 -2.686864324926477643e+00 -2.438221442746976830e+00 -2.438221442746976830e+00 -2.354712871536945862e+00 -2.857213044215950237e+00 -2.857213044215950237e+00 -3.440258016158426191e+00 -4.138711161686059015e+00 -4.799978602757830615e+00 -4.950274501377275094e+00 -5.770301041675377718e+00 -6.328014377518446310e+00 -6.816642086675678058e+00 -6.877168801692629785e+00 -7.217988040148963336e+00 -7.483346594084148151e+00 -7.672227522596338112e+00 -7.672227522596338112e+00 -7.884284723211482770e+00 -8.023617264123860338e+00 -8.173716978518330123e+00 -8.188155779264871370e+00 -8.362710989707640152e+00 -8.541694256656750639e+00 -8.675385986161701979e+00 -8.713027336418040392e+00 -8.851449607965665933e+00 -8.990713723364311960e+00 -9.168739315884474550e+00 -9.168739315884474550e+00 -9.238406549446896321e+00 -9.349690096322490263e+00 -9.419892707898799955e+00 -9.440847189959942654e+00 -9.534063499978941536e+00 -9.576916974410844219e+00 -9.674157434306659198e+00 -9.661872619895380154e+00 -9.698618334636195826e+00 -9.814971934477103588e+00 -9.867190267125589997e+00 -9.908343896093224856e+00 -9.993748610224713502e+00 -1.006816681278583836e+01 -1.006816681278583836e+01 -1.010060743319928633e+01 -1.014147030209598555e+01 -1.020529977205621819e+01 -1.015736516818738799e+01 -1.011399942053387591e+01 -1.015562845550792126e+01 -1.013785758632522338e+01 -1.009204232303335935e+01 -1.011644867654647051e+01 -1.012046366982897716e+01 -1.011544168005300115e+01 -1.011544168005300115e+01 -1.010891315886059516e+01 -1.014470053334644462e+01
3.927041461430104796e+00 3.757475887503434198e+00 3.552113986951944025e+00 3.297159379562892845e+00 2.755715250022285900e+00 2.585571173845773618e+00 2.221829094301581264e+00 1.820642819014119507e+00 1.824904088359970533e+00 1.824904088359970533e+00 1.868908968742014842e+00 1.964006743802682475e+00 1.977943462824090837e+00 2.013716605447532615e+00 2.042452461760324134e+00 2.034484897016833216e+00 2.075314387708439678e+00 2.106913280034055092e+00 2.074649911676544001e+00 2.064590630967397367e+00 2.003902488473504384e+00 2.016064649794222952e+00 1.870435808465984451e+00 1.637179839399668158e+00 1.418191257452497744e+00 1.418191257452497744e+00 1.351520240847440268e+00 1.539416602905652409e+00 1.300178921877691574e+00 1.314492159009793104e+00 1.155818790034607968e+00 4.414159908551989475e-01 -2.042550173873308172e-01 -2.100121637377434514e-01 -1.601195271426530398e-01 -1.629657555265611457e-01 -6.410083488687070424e-03 7.410427461725646592e-02 -4.343178881999887331e-02 2.596701968126320370e-01 2.596701968126320370e-01 -2.841045643647753527e-02 -3.237892611849974012e-01 -8.816180689232929746e-01 -9.899891549014691039e-01 -1.544986684073936800e+00 -2.076654907406531247e+00 -2.585542436255148679e+00 -2.650145085503648801e+00 -2.879765420513273000e+00 -3.091981002590282746e+00 -3.308466241941064645e+00 -3.308466241941064645e+00 -3.454540924278480585e+00 -3.359047763270723408e+00 -3.188253920597104774e+00 -3.091159286200671819e+00 -2.810700054712142126e+00 -2.593659182568606170e+00 -2.336900135602231199e+00 -2.244967947315962942e+00 -2.484046760902384854e+00 -2.979253157397176111e+00 -3.600891058173092851e+00 -3.600891058173092851e+00 -4.302774425015404525e+00 -5.066464727820911840e+00 -5.770301041675377718e+00 -5.907745709073744855e+00 -6.513524025640811566e+00 -6.877168801692629785e+00 -6.921434010883112720e+00 -7.315184509664681478e+00 -7.489597245040479301e+00 -7.713224705200526721e+00 -7.734262749210813581e+00 -7.887862147994862738e+00 -8.035502333252836138e+00 -8.192614624117396716e+00 -8.192614624117396716e+00 -8.399740647768412671e+00 -8.553928265601690839e+00 -8.713027336418040392e+00 -8.738250254294863240e+00 -8.896194889264208427e+00 -9.010312728372369406e+00 -9.158637218365274890e+00 -9.197092425294558282e+00 -9.246879108339914666e+00 -9.368262461559901055e+00 -9.488774089736516260e+00 -9.488774089736516260e+00 -9.540083771724999551e+00 -9.644233814231700563e+00 -9.661872619895380154e+00 -9.697121751585239480e+00 -9.820807598023661100e+00 -9.867190267125589997e+00 -9.951540329722227796e+00 -1.001048623492374468e+01 -1.008566960441810423e+01 -1.009771010281325587e+01 -1.011189896209566186e+01 -1.011189896209566186e+01 -1.013312695216890269e+01 -1.009829620904904068e+01 -1.011399942053387591e+01 -1.009103716684005825e+01 -1.006908907463751746e+01 -1.009204232303335935e+01 -1.004759280496049101e+01 -1.004596742167229806e+01 -1.007867814859810807e+01 -1.007187271288895580e+01 -1.004682608709666347e+01 -1.009713187680581647e+01
4.151801487014897596e+00 3.873141183445731883e+00 3.522061386547005846e+00 3.522061386547005846e+00 2.983594168500146360e+00 2.490933686948030967e+00 2.146332246768944518e+00 1.924281295047789886e+00 1.850425208946925082e+00 1.860526669289373380e+00 1.907577809553956616e+00 2.011475792698087961e+00 2.004323698807591647e+00 2.042834531639140749e+00 2.102141932696221183e+00 2.076344250113792089e+00 2.132893558150412261e+00 2.131631590605526760e+00 2.131631590605526760e+00 2.145900004484648793e+00 2.124773178589882239e+00 2.016064649794222952e+00 2.037067583053841613e+00 1.815871279993542586e+00 1.616959893278945515e+00 1.383624716107819452e+00 1.414909610445212795e+00 1.416101736280709567e+00 1.553477443647753642e+00 1.481317959929677741e+00 1.481317959929677741e+00 8.412557331124541626e-01 -1.047913630169430149e-02 -2.100121637377434514e-01 -2.004946995007123589e-01 -3.421040994740633390e-01 -6.410083488687070424e-03 -5.524892949452314683e-02 -1.470443863249236149e-01 3.346300780356885052e-01 2.332389026564064272e-01 1.968851443522011413e-03 1.968851443522011413e-03 -4.233326838483764121e-01 -1.059455528418846715e+00 -1.544986684073936800e+00 -1.728297522885360982e+00 -2.283780222020279194e+00 -2.650145085503648801e+00 -2.678208645276981326e+00 -2.984458519224634454e+00 -3.125059488986423162e+00 -3.357720118074163818e+00 -3.417366389005583649e+00 -3.443886710172038956e+00 -3.338292459802405077e+00 -3.031915339049870095e+00 -3.031915339049870095e+00 -2.780481855093979604e+00 -2.353133819555053741e+00 -2.244967947315962942e+00 -2.254991943529749410e+00 -2.702259136846585807e+00 -3.110625296076001689e+00 -3.715535252455210546e+00 -3.877629306273561394e+00 -4.402216297609691686e+00 -5.206913888328505990e+00 -6.035026748863373314e+00 -6.035026748863373314e+00 -6.513664664502522683e+00 -7.051196065344538688e+00 -7.315184509664681478e+00 -7.298841902338286225e+00 -7.547030486373595082e+00 -7.734262749210813581e+00 -7.880776649823981295e+00 -7.900270009850791197e+00 -8.047720505910476163e+00 -8.224780070341092042e+00 -8.391486394256062908e+00 -8.391486394256062908e+00 -8.578939602611502124e+00 -8.762041274427064153e+00 -8.762041274427064153e+00 -8.924942286895880983e+00 -9.053419646855942915e+00 -9.197092425294558282e+00 -9.187356875299343528e+00 -9.320229098454714034e+00 -9.397542175909588735e+00 -9.492012238494965004e+00 -9.502222042391064605e+00 -9.572833355987174997e+00 -9.649245297513729724e+00 -9.759054844381919835e+00 -9.759054844381919835e+00 -9.873034780108778108e+00 -9.971626932422564593e+00 -1.001048623492374468e+01 -1.012581916813985217e+01 -1.007394985003860199e+01 -1.007986304350673024e+01 -1.010294032640470441e+01 -1.005245249623285986e+01 -1.007669071225134338e+01 -1.004299961478461434e+01 -1.004522783914900685e+01 -1.004522783914900685e+01 -1.002437160783487080e+01 -1.001041993562684240e+01 -1.004596742167229806e+01 -1.000237790823452144e+01 -1.000696624450798389e+01 -1.004682608709666347e+01 -1.007722329521395821e+01
4.239679337404492543e+00 4.083085561806871766e+00 3.837608646899693721e+00 3.407848802638418384e+00 3.173323054530530207e+00 2.832453847068303610e+00 2.408111386385583419e+00 1.891087008620487842e+00 1.891087008620487842e+00 1.967958711328343213e+00 2.024633419998652428e+00 2.011475792698087961e+00 2.087250867923326592e+00 2.119407320999372235e+00 2.102141932696221183e+00 2.141800048061759831e+00 2.203921977682216315e+00 2.172318670074766978e+00 2.162844780845221138e+00 2.166295756940940898e+00 2.166295756940940898e+00 2.118523367939721957e+00 1.990549175945785620e+00 1.990549175945785620e+00 1.794318879541744183e+00 1.609754898456340122e+00 1.414909610445212795e+00 1.469403400829194295e+00 1.539330117214008364e+00 1.646902124053650995e+00 1.622532747458922175e+00 1.236754520036580596e+00 4.788320864207715188e-01 -1.501691081618261939e-02 -2.436103843390972079e-01 -2.436103843390972079e-01 -8.423207697928616899e-02 -3.872919990157294712e-02 -1.470443863249236149e-01 2.020081295257984688e-01 3.025220561901889593e-01 2.230496213142141859e-01 -1.511861814838449253e-02 -1.583271098979149027e-01 -5.754093795692720725e-01 -1.198888077886836490e+00 -1.797109500594512355e+00 -1.797109500594512355e+00 -2.375847401942367210e+00 -2.723244947157387852e+00 -2.984458519224634454e+00 -3.030237054442320055e+00 -3.263321414198506965e+00 -3.417366389005583649e+00 -3.420660909113568238e+00 -3.460539176670277328e+00 -3.232154048635202503e+00 -2.982177805034896156e+00 -2.948225887769865938e+00 -2.672223840113792992e+00 -2.420742370267928045e+00 -2.368936291419335927e+00 -2.368936291419335927e+00 -2.828564294815705260e+00 -3.384005972386776584e+00 -3.877629306273561394e+00 -4.029782020933794229e+00 -4.712035182771604269e+00 -5.411334569465708455e+00 -6.106729240657688962e+00 -6.213785349181449646e+00 -6.640317973183367251e+00 -7.089042438320010575e+00 -7.339839084942475722e+00 -7.339839084942475722e+00 -7.584240775210144392e+00 -7.737936035524100475e+00 -7.900270009850791197e+00 -7.907285232556077403e+00 -8.086029064815621226e+00 -8.257787038880074704e+00 -8.421872719001314067e+00 -8.447644145869455556e+00 -8.619998399658355126e+00 -8.802961450245911479e+00 -8.975983361195355670e+00 -8.975983361195355670e+00 -9.138013431722491475e+00 -9.236531680281320433e+00 -9.320229098454714034e+00 -9.354237161859234817e+00 -9.444943337777484516e+00 -9.537012792706930142e+00 -9.610868427843275441e+00 -9.636617975132082847e+00 -9.765651926805361427e+00 -9.826624949600414993e+00 -9.878879293091964442e+00 -9.969489273998551226e+00 -1.002822455943228341e+01 -1.006587462626809781e+01 -1.002036412747683514e+01 -1.005597868999288913e+01 -1.002821428021437278e+01 -9.996016256315300552e+00 -9.996016256315300552e+00 -9.971999809035349216e+00 -9.981001220060980117e+00 -1.000141835943902713e+01 -9.956700892636380473e+00 -9.935626410980017198e+00 -9.971471173515620734e+00 -9.974792412135515818e+00 -9.942059776127011972e+00 -9.986814675768199479e+00 -1.000974605708147180e+01
4.101089816559801982e+00 4.101089816559801982e+00 3.993745582189469623e+00 3.518834299560081647e+00 3.173323054530530207e+00 3.112730449325104676e+00 2.728677091680608680e+00 2.272618046604700126e+00 2.048616081445765680e+00 2.186013811343342272e+00 2.094031502189916960e+00 2.124378322116094786e+00 2.152228202431051507e+00 2.152228202431051507e+00 2.184466921530255235e+00 2.204214080744042015e+00 2.203921977682216315e+00 2.244443778230155395e+00 2.230206104912157983e+00 2.203528121720013999e+00 2.179524316902038183e+00 2.181147560176454725e+00 2.121643398594617480e+00 1.970163947485847000e+00 1.800371426550274823e+00 1.800371426550274823e+00 1.598023032986897629e+00 1.482985816117172728e+00 1.539330117214008364e+00 1.518904176799287242e+00 1.528724121762332189e+00 1.236754520036580596e+00 3.231246296401883433e-01 2.541198894443138512e-01 -4.026411261909866590e-02 -2.585887455052259254e-01 -1.632047095455952113e-01 -1.658984736157321782e-01 -3.941295426019877923e-02 1.088673121882835770e-01 1.088673121882835770e-01 3.180825391877438180e-01 1.278430588620930175e-01 -1.583271098979149027e-01 -3.296909346096992266e-01 -8.138084793848745502e-01 -1.306048952938926089e+00 -1.944188191588692494e+00 -2.079947792731944300e+00 -2.404768450892933451e+00 -2.816512157713030540e+00 -3.104253869039015346e+00 -3.104253869039015346e+00 -3.348482274434301686e+00 -3.472814294739594576e+00 -3.460539176670277328e+00 -3.400077607358255705e+00 -3.166117017552458446e+00 -2.948225887769865938e+00 -2.581086741290379294e+00 -2.536299474599738257e+00 -2.211229463698466624e+00 -2.463393509227543632e+00 -2.962699040734300127e+00 -3.070583530951144891e+00 -3.529163860475543313e+00 -4.146000138691291248e+00 -4.884503793878483435e+00 -4.884503793878483435e+00 -5.673502210193939632e+00 -6.332421884577724924e+00 -6.332421884577724924e+00 -6.805298552585727911e+00 -7.164417407917664349e+00 -7.380836267546663443e+00 -7.421833450150852940e+00 -7.595095421224218768e+00 -7.757429395550911266e+00 -7.912025673554939686e+00 -7.947278059290150409e+00 -8.115833429991734960e+00 -8.289817172400939072e+00 -8.501746545021848789e+00 -8.501746545021848789e+00 -8.706215171244657824e+00 -8.874157362892951539e+00 -8.997494442704141449e+00 -9.009850702246396281e+00 -9.143325079264492672e+00 -9.272195735349525236e+00 -9.414167890702957564e+00 -9.363240608603875970e+00 -9.469256300817233907e+00 -9.577503041454850319e+00 -9.691728935957101498e+00 -9.691728935957101498e+00 -9.832442301177167110e+00 -9.910448907488625281e+00 -9.969489273998551226e+00 -9.968011368816476647e+00 -1.000214209191245907e+01 -1.002036412747683514e+01 -9.965951333551942071e+00 -9.935516357548385358e+00 -9.976359612840461466e+00 -9.928441548711081310e+00 -9.903664331782961128e+00 -9.950212535751083109e+00 -9.944529143803549687e+00 -9.928015301108086277e+00 -9.928015301108086277e+00 -9.921757628657561057e+00 -9.929728013737202375e+00 -9.942059776127011972e+00 -9.947081889703159874e+00 -9.981870093122640952e+00
4.283661912265285920e+00 4.092870159761803350e+00 3.992161117500431011e+00 3.992161117500431011e+00 3.323361828955974318e+00 3.023264612584035227e+00 2.728677091680608680e+00 2.639473856056439693e+00 2.325238811577468034e+00 2.186013811343342272e+00 2.289761873609716947e+00 2.264557703642122277e+00 2.197051955600680895e+00 2.200289591663601385e+00 2.264447100199124208e+00 2.240301139279188725e+00 2.274805921713913825e+00 2.262811559065132094e+00 2.262811559065132094e+00 2.261083237259471357e+00 2.234275455214194128e+00 2.181147560176454725e+00 2.203581804546601575e+00 2.122189228900689173e+00 1.974778697639364200e+00 1.816892637064367877e+00 1.786239480433968074e+00 1.620737334316515010e+00 1.464644737824669862e+00 1.579426766753020628e+00 1.630144584864368751e+00 1.565141925249538879e+00 1.011091878565148594e+00 1.389555253597434814e-01 1.389555253597434814e-01 -9.111408724968923789e-02 -2.932566457597296505e-01 2.621270026044759255e-02 5.396016591368252985e-02 -5.917643425760160669e-02 2.418328848113677210e-01 2.945606290772262992e-01 2.634418309194355157e-01 7.033779625590452778e-02 -2.915549326625582749e-01 -6.166408100037230611e-01 -1.025648750859706970e+00 -1.603915667071290185e+00 -2.211541172289105184e+00 -2.211541172289105184e+00 -2.670442873988071675e+00 -2.977016190233158888e+00 -3.160003635484873286e+00 -3.239351191414531428e+00 -3.421809230224770904e+00 -3.545441483010105088e+00 -3.381449553627137394e+00 -3.307967437711327285e+00 -3.115764439741806946e+00 -2.817788514159410340e+00 -2.224425246015480084e+00 -2.224425246015480084e+00 -2.240331280524983093e+00 -2.681859167846868175e+00 -3.070583530951144891e+00 -3.196904987764505712e+00 -3.769413859137455525e+00 -4.243056456159167489e+00 -4.981275409924657893e+00 -5.172476811982074096e+00 -5.805318324922224882e+00 -6.458161111061754056e+00 -6.836376558364614553e+00 -6.836376558364614553e+00 -7.153905696087932142e+00 -7.397524763484107702e+00 -7.595095421224218768e+00 -7.589755765047730307e+00 -7.763772419341204767e+00 -7.947278059290150409e+00 -8.127375301055311141e+00 -8.137202057845549064e+00 -8.320203497146192007e+00 -8.530621356040697378e+00 -8.548170375044000124e+00 -8.698671406594360889e+00 -8.852848106760411895e+00 -8.962352732600500360e+00 -8.962352732600500360e+00 -9.106122618299407279e+00 -9.235259180499774345e+00 -9.363240608603875970e+00 -9.316092950175505649e+00 -9.410622707576623114e+00 -9.546323413144049752e+00 -9.694080862276369004e+00 -9.670423054540115970e+00 -9.796917545336786048e+00 -9.867664869438604214e+00 -9.909896857591375507e+00 -9.909896857591375507e+00 -9.892006521456119472e+00 -9.854829594778351520e+00 -9.935516357548385358e+00 -9.833003229146436652e+00 -9.859684189071796112e+00 -9.903664331782961128e+00 -9.930630501606385607e+00 -9.918760948636242247e+00 -9.923388124872165150e+00 -9.912464713755644752e+00 -9.916906998153802277e+00 -9.916906998153802277e+00 -9.942743280759508195e+00 -9.984353008206383606e+00 -9.981870093122640952e+00
4.339269255648999568e+00 4.092000750914586149e+00 4.212997776880227363e+00 3.626427203918058950e+00 3.484247768596073769e+00 3.287785770414400677e+00 3.027088841007182562e+00 2.591067189778732960e+00 2.592629447449895430e+00 2.439879813956304488e+00 2.368011331213917270e+00 2.326069369612704829e+00 2.326069369612704829e+00 2.294074416086880230e+00 2.325329330330045519e+00 2.285025554075742704e+00 2.347862464667727522e+00 2.349953820047443021e+00 2.298295027919356137e+00 2.283490764179084920e+00 2.331985141210057400e+00 2.247561457383733696e+00 2.240378074900787997e+00 2.242191414864893151e+00 2.171661044828102405e+00 2.017561042614067990e+00 1.770543058409223436e+00 1.770543058409223436e+00 1.519469944604954215e+00 1.482190945879142019e+00 1.630144584864368751e+00 1.612152274579524036e+00 1.101235252911429097e+00 7.137634006939360676e-01 2.120000773995956989e-01 2.930242352139968975e-01 -7.316659689345732243e-02 -2.309650942348879035e-02 4.610501307360788392e-02 4.610501307360788392e-02 -1.446329806740839080e-02 2.516556322647113819e-01 2.634418309194355157e-01 2.218484499116749054e-01 -4.082716585205353188e-01 -6.166408100037230611e-01 -1.317395927999503558e+00 -1.485271255744473384e+00 -1.732467385284719219e+00 -2.277219189155400780e+00 -2.749606310348008620e+00 -2.749606310348008620e+00 -3.017764522322079479e+00 -3.294638991672174111e+00 -3.421809230224770904e+00 -3.426624253363895534e+00 -3.399276750676543557e+00 -3.307967437711327285e+00 -3.238201635483979324e+00 -2.992432172662373713e+00 -2.718624743245590114e+00 -2.261221105923942432e+00 -2.294813382466798668e+00 -2.370601335628126360e+00 -2.801338659729298186e+00 -3.333005173957641620e+00 -3.333005173957641620e+00 -3.862990834489156367e+00 -4.568454984404167973e+00 -5.172476811982074096e+00 -5.307430425580435873e+00 -5.972522003448551331e+00 -6.446467480127740401e+00 -6.838311806854630248e+00 -6.839878526673288661e+00 -7.128689291479517465e+00 -7.353702232307424147e+00 -7.552142769077450524e+00 -7.552142769077450524e+00 -7.756373626761394746e+00 -7.953887151942669931e+00 -8.137202057845549064e+00 -8.151251256597340955e+00 -8.364909086289232576e+00 -8.548170375044000124e+00 -8.682993028602780328e+00 -8.650854251821916918e+00 -8.801042007414141111e+00 -8.945347196091036679e+00 -9.053890313764611619e+00 -9.053890313764611619e+00 -9.162522403061409193e+00 -9.253666786748688367e+00 -9.253666786748688367e+00 -9.365973886873408816e+00 -9.520394529771884606e+00 -9.670423054540115970e+00 -9.638117930948634893e+00 -9.706644694002166673e+00 -9.809822432588482854e+00 -9.852694694565759193e+00 -9.743754705531102900e+00 -9.818885512560273199e+00 -9.816796258845487344e+00 -9.815704046360632873e+00 -9.815704046360632873e+00 -9.840411528887683446e+00 -9.887179592337997036e+00 -9.918760948636242247e+00 -9.897619929704859487e+00 -9.884734158908747403e+00 -9.905519956345830934e+00 -9.925601184807865351e+00 -9.948318234878248845e+00 -9.956641351900195502e+00 -1.000542803869747388e+01
