2.990557073351574502e+00 3.297859950846644850e+00 3.404561085252483466e+00 2.992642650507874258e+00 2.834453500620189637e+00 2.492830403281756979e+00 2.284315389847603406e+00 1.981874959792347513e+00 1.890013299236335875e+00 1.706875058051997573e+00 1.650704185399605173e+00 1.609350458411253904e+00 1.609350458411253904e+00 1.538280573967129694e+00 1.616125829865562080e+00 1.629196520344700749e+00 1.653698773209974160e+00 1.704351874073128270e+00 1.716632052135624642e+00 1.716834223002138060e+00 1.708256283323448699e+00 1.685736154296894718e+00 1.690693004491958584e+00 1.465368653299342183e+00 1.465368653299342183e+00 1.351673853256624813e+00 1.090743881404603988e+00 7.503522062125644876e-01 7.526989612831249676e-01 6.614059263137996858e-01 4.725469835522494999e-01 5.905545335907750326e-01 9.514259006111367434e-01 9.339732834829075347e-01 7.848555343278561525e-01 7.348562061572696535e-01 5.046525181591595688e-01 8.323879681864375379e-02 -9.765665195157760547e-02 -9.765665195157760547e-02 -2.732613368433209899e-01 -3.811010853617642358e-01 -4.868811860653816659e-01 -4.995827036448382552e-01 -6.138659339386562941e-01 -8.067209087867052153e-01 -1.328948607387157477e+00 -1.524867518266987521e+00 -2.152167285610719460e+00 -2.883342440367890891e+00 -3.388129797127388709e+00 -3.388129797127388709e+00 -3.608329643062585301e+00 -3.738749056517428393e+00 -3.861277385967547549e+00 -3.843784093721103190e+00 -3.667686757378727513e+00 -3.385317607906413340e+00 -2.816646669361369426e+00 -2.650631914097364650e+00 -2.442419293091456556e+00 -2.501510058618670485e+00 -2.808200403019425195e+00 -2.953541566728661749e+00 -3.261972747658342442e+00 -3.819753209150877016e+00 -3.968112142424976785e+00 -4.454160199416277166e+00 -5.200899276459869824e+00 -6.079092624119247112e+00 -6.079092624119247112e+00 -6.761768251801328233e+00 -7.286681916168449291e+00 -7.532816696783970478e+00 -7.577737368664831052e+00 -7.785787939177041039e+00 -7.913838605748776622e+00 -8.059752649320550688e+00 -8.075398830191101496e+00 -8.182559407064390555e+00 -8.308917224037834615e+00 -8.446111977451691288e+00 -8.446111977451691288e+00 -8.588747429040463288e+00 -8.713400427214949673e+00 -8.812793651817113272e+00 -8.841509124969974209e+00 -8.929239255295248867e+00 -9.010756162062474317e+00 -9.126752213988826412e+00 -9.191666013410992875e+00 -9.168833642746076151e+00 -9.282439839597433462e+00 -9.348791541514460235e+00 -9.348791541514460235e+00 -9.435064496549966151e+00 -9.487061171410870131e+00 -9.554865130206326995e+00 -9.575426449729212308e+00 -9.652977911510628672e+00 -9.682629898052377726e+00 -9.743913697584698497e+00 -9.743499265996643288e+00 -9.766048652767473470e+00 -9.826798258271821851e+00 -9.824543151076404968e+00 -9.849953092438829216e+00 -9.858653873584390936e+00 -9.913962036371559705e+00 -9.913962036371559705e+00 -9.839969897282017541e+00 -9.824649537049634063e+00 -9.864901906954768762e+00 -9.899978656617319572e+00 -9.928121802145140506e+00 -9.954294444374280459e+00
3.341811967043839093e+00 3.459646775306543631e+00 3.459646775306543631e+00 3.344585750712177230e+00 2.701345416715910996e+00 2.701345416715910996e+00 2.399936864693200889e+00 2.098528312670489893e+00 1.890013299236335875e+00 1.727393869276404814e+00 1.653641012946023281e+00 1.627523479962081021e+00 1.596453601034138803e+00 1.604956990420993046e+00 1.578652123683578212e+00 1.633619149294296635e+00 1.681986656399927726e+00 1.681986656399927726e+00 1.709548657570516994e+00 1.699476172778245475e+00 1.708256283323448699e+00 1.685520110561888885e+00 1.688686784476877811e+00 1.614192470530516399e+00 1.454010802650484102e+00 1.431743461619069624e+00 1.312964638177466004e+00 9.886170530083776553e-01 8.486531361738156587e-01 8.486531361738156587e-01 7.369493115320525645e-01 8.448465451881745913e-01 9.217185424899901891e-01 9.217185424899901891e-01 7.965376274994644401e-01 6.754787524145817734e-01 3.811025570151098663e-01 2.549681421849226970e-01 -5.136520947133571546e-03 -1.477080392816921550e-01 -2.911981123431542362e-01 -3.211519860211415334e-01 -4.231431942876229257e-01 -5.402787439609955111e-01 -6.213372671788033319e-01 -6.765960176853276220e-01 -1.087233168956476925e+00 -1.793125911002930506e+00 -1.793125911002930506e+00 -2.666835116611746326e+00 -3.261063207696433430e+00 -3.434595607968331521e+00 -3.548543862346711375e+00 -3.704564526926376722e+00 -3.825390646484780000e+00 -3.803097221897872693e+00 -3.702806379772216605e+00 -3.512913942890190100e+00 -2.988419581106985579e+00 -2.555016735191946609e+00 -2.555016735191946609e+00 -2.449052836717763970e+00 -2.669403158584044533e+00 -2.953541566728661749e+00 -3.061008208691297749e+00 -3.566937493070574838e+00 -3.968112142424976785e+00 -4.627385539256962943e+00 -4.829286626188160625e+00 -5.424737603100397543e+00 -6.248164569221257736e+00 -6.919260991698555685e+00 -6.919260991698555685e+00 -7.363045242584076000e+00 -7.624137078058664585e+00 -7.785787939177041039e+00 -7.851356042520349021e+00 -8.043513586163037132e+00 -8.075398830191101496e+00 -8.138131827298403564e+00 -8.262805295032936925e+00 -8.349624996011215217e+00 -8.494821328015536466e+00 -8.548687700563110781e+00 -8.655528564780844647e+00 -8.774743116652420127e+00 -8.883533271820247990e+00 -8.883533271820247990e+00 -8.981569761418018771e+00 -9.102033966496634321e+00 -9.191666013410992875e+00 -9.148522071548338630e+00 -9.266478479805174473e+00 -9.326918540351496034e+00 -9.403825796143872040e+00 -9.391826483894776700e+00 -9.442621681740893891e+00 -9.523562068082004117e+00 -9.613649968050651751e+00 -9.613649968050651751e+00 -9.669874673873968263e+00 -9.723867567997146466e+00 -9.743499265996643288e+00 -9.736208253774695009e+00 -9.809245386656325394e+00 -9.824543151076404968e+00 -9.864447404319168555e+00 -9.852159634718157477e+00 -9.879031004376525260e+00 -9.858370403729331599e+00 -9.860554290186534843e+00 -9.860554290186534843e+00 -9.886339167721523324e+00 -9.920835787741737022e+00 -9.928121802145140506e+00 -9.962246798034847473e+00
3.787677226885329151e+00 3.790223467435010818e+00 3.646883872489111944e+00 3.640512933777086069e+00 2.970430293874328775e+00 2.608451878127354462e+00 2.307043326104643910e+00 2.181807743142126110e+00 1.957395848531767735e+00 1.689690563016199576e+00 1.634242883674578151e+00 1.634242883674578151e+00 1.638550849287882638e+00 1.632834195757454365e+00 1.625423677015226165e+00 1.663959905871999378e+00 1.687909321916680749e+00 1.696094944006487193e+00 1.713073425727946075e+00 1.682118122554353334e+00 1.699847046461841815e+00 1.701160947685526725e+00 1.686680564461796816e+00 1.652008653185027320e+00 1.536369182707005621e+00 1.445659960282177581e+00 1.445659960282177581e+00 1.325863745671229665e+00 1.105149617058443612e+00 9.121570514224802695e-01 1.036485668118072301e+00 9.856065449232367381e-01 9.558243004786217689e-01 8.547303319431927005e-01 8.153505648730153821e-01 7.571578604292871217e-01 6.256391168628752109e-01 1.494572847559631212e-01 1.494572847559631212e-01 -6.445683040653982232e-02 -2.267724399347988418e-01 -3.211519860211415334e-01 -3.530589758539944278e-01 -5.200607066463827088e-01 -6.213372671788033319e-01 -7.864107136214333327e-01 -9.005325868754798790e-01 -1.246650802128642432e+00 -2.076056703513212920e+00 -2.895652187615306516e+00 -2.895652187615306516e+00 -3.375713751359268322e+00 -3.641788232175668494e+00 -3.641788232175668494e+00 -3.783381601011907680e+00 -3.828161595664889560e+00 -3.702806379772216605e+00 -3.587541021576389877e+00 -3.166210263267778657e+00 -2.832980020364915141e+00 -2.468652529378537519e+00 -2.417687105048123009e+00 -2.494043594281273091e+00 -2.780528973731056563e+00 -3.194565149628717293e+00 -3.194565149628717293e+00 -3.700583336162168280e+00 -4.289489149216828778e+00 -4.829286626188160625e+00 -5.023561695757436496e+00 -5.876888548137161550e+00 -6.466054232377606681e+00 -7.079567831386199828e+00 -7.191958031610575119e+00 -7.462443905832507163e+00 -7.687491097513008853e+00 -7.916924145863659668e+00 -7.916924145863659668e+00 -8.051883251657841356e+00 -8.175985594054662187e+00 -8.262805295032936925e+00 -8.306898750965597600e+00 -8.451543029607252677e+00 -8.548687700563110781e+00 -8.672727201812827857e+00 -8.736692581487723430e+00 -8.806818420611728371e+00 -8.895625683146121787e+00 -9.046102276733371639e+00 -9.046102276733371639e+00 -9.165582576736387210e+00 -9.238415543051413437e+00 -9.238415543051413437e+00 -9.302214638454167073e+00 -9.392928415425423339e+00 -9.391826483894776700e+00 -9.424662723863033165e+00 -9.494466865050124937e+00 -9.559926092093387950e+00 -9.632851316997280477e+00 -9.640595697375358597e+00 -9.682302257781865151e+00 -9.737007634350330676e+00 -9.785075434431492525e+00 -9.785075434431492525e+00 -9.816973554956737402e+00 -9.874657596823816164e+00 -9.852159634718157477e+00 -9.878723563822468634e+00 -9.874648449828436370e+00 -9.882037907791687559e+00 -9.860616597253288873e+00 -9.917024401917419851e+00 -9.942515114763466499e+00 -9.956971922642772199e+00 -1.000221445005500165e+01
4.034606783094033311e+00 3.959094087649397409e+00 3.946211505437995370e+00 3.336871034703138061e+00 3.336871034703138061e+00 2.867485843858998962e+00 2.406219637752484264e+00 2.181807743142126110e+00 2.015395584083405467e+00 1.703537410432271804e+00 1.660860394614289692e+00 1.627134238106983100e+00 1.671868424203720060e+00 1.671633406874856398e+00 1.645909568891810171e+00 1.692775628480671202e+00 1.692775628480671202e+00 1.695933569452760858e+00 1.687021025387752893e+00 1.682118122554353334e+00 1.689786632001623490e+00 1.710477612453803697e+00 1.686680564461796816e+00 1.620253098207047326e+00 1.620626650273902403e+00 1.511655146468466437e+00 1.548042267361588342e+00 1.351349362272064925e+00 1.351349362272064925e+00 1.181988887351609563e+00 1.100313027624540085e+00 1.100313027624540085e+00 9.969108024539261592e-01 8.956397395925826954e-01 8.153505648730153821e-01 7.937507959793403955e-01 6.918618523660980957e-01 4.905425129477395396e-01 8.308587579286774716e-02 1.445348753444265083e-02 -1.205924656150975938e-01 -2.571612832077108113e-01 -4.198271942765637310e-01 -4.198271942765637310e-01 -6.105725276845654914e-01 -6.520360183595284020e-01 -9.005325868754798790e-01 -1.505573957062192658e+00 -1.789171124196608620e+00 -2.401570974837063943e+00 -3.124469258618866707e+00 -3.316831894750204235e+00 -3.449331196335224892e+00 -3.670379997335325939e+00 -3.782226835113259078e+00 -3.782226835113259078e+00 -3.740116080918781449e+00 -3.484565463657871565e+00 -3.166210263267778657e+00 -3.008527218507532464e+00 -2.514811935388727715e+00 -2.417687105048123009e+00 -2.537440048948601756e+00 -2.631239208013168351e+00 -2.908088847578722547e+00 -3.306871083671700795e+00 -3.443080864181427447e+00 -3.833430273209878170e+00 -4.469978397495165012e+00 -5.239410628833580219e+00 -5.239410628833580219e+00 -6.089835407354407870e+00 -6.852496956733706845e+00 -7.191958031610575119e+00 -7.348873456590426123e+00 -7.598850809131261208e+00 -7.753059200856316835e+00 -7.976428309871009148e+00 -8.002346192098105604e+00 -8.089165893076383895e+00 -8.220079049987319308e+00 -8.350992206898256498e+00 -8.350992206898256498e+00 -8.508690151562511517e+00 -8.632053976410702489e+00 -8.736692581487723430e+00 -8.774499432182871317e+00 -8.862465607393064104e+00 -8.953030779787276572e+00 -9.077315719004438677e+00 -9.139988176299700839e+00 -9.129978645470364640e+00 -9.255355748221983703e+00 -9.330266607919423194e+00 -9.330266607919423194e+00 -9.374273795988663949e+00 -9.476819444364146250e+00 -9.494466865050124937e+00 -9.516551388139671275e+00 -9.618275749014784992e+00 -9.640595697375358597e+00 -9.703821438409594435e+00 -9.725871972311338709e+00 -9.743356821690511538e+00 -9.791692515040825384e+00 -9.809391396000027186e+00 -9.880033223543639664e+00 -9.854009922805090582e+00 -9.916602133133114449e+00 -9.891758614295699914e+00 -9.925573653456940093e+00 -9.898308231930446510e+00 -9.968168052911376975e+00 -9.968168052911376975e+00 -9.990970990978837563e+00 -1.003204662634978739e+01
4.034606783094033311e+00 4.016167181304536982e+00 4.066778487562991984e+00 3.821951548090048334e+00 3.195631164016266013e+00 3.036138677798997154e+00 2.661275213204556955e+00 2.253212254217280552e+00 1.843263709342189083e+00 1.843263709342189083e+00 1.679252429581945316e+00 1.642670566921637931e+00 1.671868424203720060e+00 1.697918694681820995e+00 1.696119885780071446e+00 1.692510980533424414e+00 1.693644499184344898e+00 1.714245723504868479e+00 1.721240744993364213e+00 1.678156814457943291e+00 1.679060161699502007e+00 1.679060161699502007e+00 1.744863300616944723e+00 1.690088732558915341e+00 1.620626650273902403e+00 1.583615980146407809e+00 1.599163538680147489e+00 1.556642766331909788e+00 1.357957927885736327e+00 1.338409087710003220e+00 1.198605231279453509e+00 1.089072319470711037e+00 9.824582638823921021e-01 9.824582638823921021e-01 8.805693202691496912e-01 7.831008194483888296e-01 6.918618523660980957e-01 6.697876145521939328e-01 2.120474683226904744e-01 1.445348753444265083e-02 -1.570110833184298615e-01 -1.961935724094272249e-01 -2.875538836450903246e-01 -4.881367164290477123e-01 -5.443540964457153075e-01 -5.561179106402769357e-01 -7.627252889695940175e-01 -1.221554983566211616e+00 -1.221554983566211616e+00 -1.971166465824970349e+00 -2.925927422211711537e+00 -3.316831894750204235e+00 -3.416837091006640570e+00 -3.630353359984003436e+00 -3.741372555539035361e+00 -3.850815897340021721e+00 -3.770233669177656122e+00 -3.668839992776819159e+00 -3.346355042757853671e+00 -2.835397813729554795e+00 -2.835397813729554795e+00 -2.461737221770036399e+00 -2.453804732337930616e+00 -2.631239208013168351e+00 -2.766168192564526951e+00 -3.110474008192462669e+00 -3.443080864181427447e+00 -3.966209429245135087e+00 -4.150779371366508208e+00 -4.647816324819103784e+00 -5.463855987874678632e+00 -6.282397272442914016e+00 -6.282397272442914016e+00 -6.945274296912907097e+00 -7.381945567091023008e+00 -7.686268948159627357e+00 -7.686268948159627357e+00 -7.877992098329498205e+00 -8.042663323234508610e+00 -8.042663323234508610e+00 -8.177352804941701692e+00 -8.308265961852637105e+00 -8.408264731198968889e+00 -8.468692602561912253e+00 -8.591380751008578898e+00 -8.687669616807353279e+00 -8.814830454581635166e+00 -8.829636852271821823e+00 -8.924491798156532596e+00 -9.052597471512246585e+00 -9.121896677910751094e+00 -9.121896677910751094e+00 -9.236999132673695101e+00 -9.311233946301143760e+00 -9.368179518441248632e+00 -9.368735418079534583e+00 -9.474064795792829230e+00 -9.482159206307434474e+00 -9.551904431329283796e+00 -9.613013517468951719e+00 -9.619483389095409009e+00 -9.685751832810559847e+00 -9.756155109395628244e+00 -9.756155109395628244e+00 -9.774139643425327151e+00 -9.844600971539170686e+00 -9.880033223543639664e+00 -9.860010644555671888e+00 -9.917922181513890934e+00 -9.891758614295699914e+00 -9.915599737310172301e+00 -9.967971849755379310e+00 -9.931452068622412810e+00 -9.947271766435596518e+00 -1.002497005931489937e+01 -1.000438023718347225e+01
4.141341011144938022e+00 4.136734163429532707e+00 4.066778487562991984e+00 3.955471479705190418e+00 3.353195861660827948e+00 3.036138677798997154e+00 2.533740411420680072e+00 2.425131419210774020e+00 2.136361274507975416e+00 1.752672195046369064e+00 1.668680572865159473e+00 1.668680572865159473e+00 1.678346701531069574e+00 1.724354638308308818e+00 1.696119885780071446e+00 1.727013436170157679e+00 1.725794769132899198e+00 1.714245723504868479e+00 1.767160399294500639e+00 1.727166967589323754e+00 1.722806886516165870e+00 1.700557647084659951e+00 1.772131522071388021e+00 1.713593877694482792e+00 1.703650946122626797e+00 1.596706113980414177e+00 1.596706113980414177e+00 1.612805662690829589e+00 1.492782166360218543e+00 1.338409087710003220e+00 1.339718479176971844e+00 1.157272546587472251e+00 1.068187726371845336e+00 9.673878445589589870e-01 9.668463601683325859e-01 8.749735898083608188e-01 7.857217397356850430e-01 5.011593215558745040e-01 5.011593215558745040e-01 1.229085718986448333e-01 -8.019670588150873414e-02 -1.961935724094272249e-01 -2.395086917001810756e-01 -4.059501853701923957e-01 -5.390917748659844744e-01 -6.509085319177891904e-01 -7.211075138157633235e-01 -1.585774198882694996e+00 -1.706225530864009521e+00 -2.431903242480732530e+00 -2.651696113887838990e+00 -3.173934372767659440e+00 -3.462014090381559051e+00 -3.540026495860574496e+00 -3.673541499565892821e+00 -3.806638248512652645e+00 -3.754447029909314892e+00 -3.754447029909314892e+00 -3.524027705323918624e+00 -3.080307424413540218e+00 -2.715624195645762740e+00 -2.596518836638034955e+00 -2.408944191492512932e+00 -2.530328117323145332e+00 -2.835425742009976879e+00 -2.922545507640327500e+00 -3.227231718446300412e+00 -3.693292677655668044e+00 -4.306770292149382229e+00 -4.306770292149382229e+00 -5.007796648874782264e+00 -5.815318290645592469e+00 -6.424906395717914442e+00 -6.580361582002438148e+00 -7.131115303204617284e+00 -7.433121610986840544e+00 -7.718156931894537109e+00 -7.785484971384680541e+00 -7.926802145766425944e+00 -8.087962380265469875e+00 -8.221446260874360590e+00 -8.221446260874360590e+00 -8.364986432790686877e+00 -8.525435984573608295e+00 -8.591380751008578898e+00 -8.638192561221565313e+00 -8.780112152247667723e+00 -8.829636852271821823e+00 -9.000716595949695531e+00 -9.024678798126961610e+00 -9.114551694546706884e+00 -9.157628779526358898e+00 -9.222925704429659532e+00 -9.289726685359701364e+00 -9.342515785035342191e+00 -9.394517971351882935e+00 -9.394517971351882935e+00 -9.469851547564744010e+00 -9.537607700169658642e+00 -9.613013517468951719e+00 -9.607342082804883887e+00 -9.668167219685301461e+00 -9.711242495376193773e+00 -9.784234562536848756e+00 -9.757113404892622910e+00 -9.801759991164113117e+00 -9.882068439217075451e+00 -9.876814499949420068e+00 -9.876814499949420068e+00 -9.911323806212680054e+00 -9.946520177946494456e+00 -9.967971849755379310e+00 -9.972664854392155220e+00 -9.978069136401289896e+00 -1.002497005931489937e+01 -1.006055303090815656e+01
4.228612580107793839e+00 4.206689839296073430e+00 4.175388868320411007e+00 3.665264498751360733e+00 3.665264498751360733e+00 3.132781830003573020e+00 2.707811710196942112e+00 2.425131419210774020e+00 2.288745237747671357e+00 1.864900427244338577e+00 1.735381940749787466e+00 1.668813837071897233e+00 1.689362535970443613e+00 1.726630405757803466e+00 1.742597123961762584e+00 1.737775421667942188e+00 1.756835340872763274e+00 1.743061070428689741e+00 1.773921717318507785e+00 1.757488827925790531e+00 1.757488827925790531e+00 1.714877688825239943e+00 1.736863345607390308e+00 1.708492771129924925e+00 1.759799462693560468e+00 1.726016800488212155e+00 1.656168481129759007e+00 1.597145123150320423e+00 1.630451583604770605e+00 1.480774225968463753e+00 1.334527204572268477e+00 1.304404713807103988e+00 1.141486447379675973e+00 1.058719130528304575e+00 9.803108697080501477e-01 9.803108697080501477e-01 8.651221953898897699e-01 6.472215403456633709e-01 3.895083520709958780e-01 3.498127835262034857e-01 1.489011637613675554e-03 -1.360124915723466554e-01 -2.792538868513729788e-01 -3.319409110194870838e-01 -4.588395519392420852e-01 -6.190938865111660361e-01 -7.161833138117544850e-01 -7.161833138117544850e-01 -1.615910739680358699e+00 -1.951275101097817322e+00 -2.651696113887838990e+00 -2.863862506398449526e+00 -3.319040697715058386e+00 -3.540026495860574496e+00 -3.686987641175805130e+00 -3.757574485947538179e+00 -3.790940937395541166e+00 -3.714142413368049844e+00 -3.420912013856474587e+00 -3.420912013856474587e+00 -2.935348211488041592e+00 -2.504990370327593752e+00 -2.408944191492512932e+00 -2.423953630227701606e+00 -2.663460786862619223e+00 -2.922545507640327500e+00 -3.015964323743391962e+00 -3.420375926066201888e+00 -3.841820280267715493e+00 -4.444181502449005450e+00 -4.586844583782308860e+00 -5.174983019723744526e+00 -5.986708336417672527e+00 -6.726433549720839622e+00 -6.726433549720839622e+00 -7.241079690843529981e+00 -7.598078682451077981e+00 -7.785484971384680541e+00 -7.830968269762529133e+00 -8.017214859449250497e+00 -8.133261437296431140e+00 -8.265539716807019488e+00 -8.322069753482896459e+00 -8.428695053561311212e+00 -8.550707525606455306e+00 -8.711118313645121347e+00 -8.711118313645121347e+00 -8.796808097150579542e+00 -8.972170053968929082e+00 -9.024678798126961610e+00 -9.089115212793712928e+00 -9.132876611434788572e+00 -9.222925704429659532e+00 -9.292201284682864326e+00 -9.319791821054291603e+00 -9.364797340617997179e+00 -9.468959957517608217e+00 -9.467022531999074175e+00 -9.467022531999074175e+00 -9.601198809661516620e+00 -9.617786832934296370e+00 -9.617786832934296370e+00 -9.695564820056102207e+00 -9.779742218453167268e+00 -9.757113404892622910e+00 -9.794128586328199049e+00 -9.884103654890513013e+00 -9.866011366306253194e+00 -9.919242229894667418e+00 -9.930888998129660195e+00 -9.988358378193737508e+00 -1.001342425898249644e+01 -9.977214686881989536e+00 -9.977214686881989536e+00 -1.005896912765096474e+01 -1.006339846011885442e+01
4.324746667688104118e+00 4.257301145554529320e+00 4.230174703574107298e+00 3.849757740016345409e+00 3.480240780064600248e+00 3.235475767084996956e+00 2.866285527153268564e+00 2.577515382450469961e+00 2.152359056284569583e+00 2.015972874821467808e+00 1.791861146976570840e+00 1.700260661877801116e+00 1.702018273527858616e+00 1.702018273527858616e+00 1.753518305437243185e+00 1.760642302512393398e+00 1.756835340872763274e+00 1.772331590001357648e+00 1.820544647395617943e+00 1.774445429115541595e+00 1.758096937773689472e+00 1.749758322076941486e+00 1.759397683342120766e+00 1.728798638556038103e+00 1.827118191605263675e+00 1.827118191605263675e+00 1.708349236084913958e+00 1.724395846524984677e+00 1.630451583604770605e+00 1.652358488936454206e+00 1.484363879468409531e+00 1.304404713807103988e+00 1.169689827377772495e+00 1.193859035548265224e+00 1.072183640068022026e+00 9.753761013833657234e-01 8.477019888382600898e-01 8.477019888382600898e-01 6.698843894591223203e-01 1.867968235065036176e-01 1.867968235065036176e-01 -5.480609259349730061e-02 -1.983207816521876388e-01 -3.319409110194870838e-01 -3.858040937858962516e-01 -5.468633686202499788e-01 -5.550883629973561995e-01 -9.218367450395364981e-01 -9.182906559088919174e-01 -1.830957762691101109e+00 -2.281151934649927604e+00 -3.009794698007620006e+00 -3.009794698007620006e+00 -3.418504238551953733e+00 -3.626538482997764046e+00 -3.757574485947538179e+00 -3.794943078493972166e+00 -3.804257134885379976e+00 -3.651513950239746453e+00 -3.321412808037556452e+00 -3.205380734320325331e+00 -2.787242195068770911e+00 -2.385320432597538343e+00 -2.455362066111727692e+00 -2.455362066111727692e+00 -2.735603945548519711e+00 -3.069582622641822134e+00 -3.420375926066201888e+00 -3.534462070373855624e+00 -4.124864763276484325e+00 -4.586844583782308860e+00 -5.349988880272205094e+00 -5.591061331516289812e+00 -6.189044188160932158e+00 -6.880932982398082487e+00 -7.316848899349952973e+00 -7.316848899349952973e+00 -7.690174747873187222e+00 -7.883977895234312250e+00 -7.883977895234312250e+00 -8.062133350305089152e+00 -8.211398673377253488e+00 -8.322069753482896459e+00 -8.387468222511527571e+00 -8.503947508804577282e+00 -8.587479603426551478e+00 -8.747789795223894771e+00 -8.759204942413692407e+00 -8.867413834895048197e+00 -8.996065346233651283e+00 -9.108777289790374709e+00 -9.108777289790374709e+00 -9.210051318844794110e+00 -9.273168623064583116e+00 -9.319791821054291603e+00 -9.349772980460667071e+00 -9.457804409178638849e+00 -9.457543888822053546e+00 -9.492598541088201003e+00 -9.561161423877821974e+00 -9.600001389928076279e+00 -9.650582606560041299e+00 -9.717049236657096856e+00 -9.717049236657096856e+00 -9.746093484900105963e+00 -9.841909979789022600e+00 -9.884103654890513013e+00 -9.871389431957007687e+00 -9.921877590387760293e+00 -9.930888998129660195e+00 -9.989304058204503178e+00 -1.001326200234238861e+01 -1.001224982738661318e+01 -1.001506542524247223e+01 -1.005776815673585212e+01 -1.004271128721695128e+01
4.343981946789976512e+00 4.377868127679525934e+00 4.144332508042165131e+00 4.144332508042165131e+00 3.638616433711045151e+00 3.220503459603631491e+00 2.866285527153268564e+00 2.791371446060274764e+00 2.367892393644467575e+00 2.015972874821467808e+00 1.747396604659649189e+00 1.743617807781708384e+00 1.713381964004267344e+00 1.729787634110123484e+00 1.783915539197357347e+00 1.783915539197357347e+00 1.791612110832475402e+00 1.802766513519437508e+00 1.802766513519437508e+00 1.832631554896018367e+00 1.850486615194592233e+00 1.749758322076941486e+00 1.831119202783235256e+00 1.812392887470617886e+00 1.802903521624438454e+00 1.772601227249605227e+00 1.696980438242369216e+00 1.701433257654170417e+00 1.722941638095768502e+00 1.664789420560228050e+00 1.664789420560228050e+00 1.472024128048412539e+00 1.314995141949889312e+00 1.193859035548265224e+00 1.228782097995097633e+00 1.081374045258208128e+00 9.433851056431616922e-01 7.931395206691110866e-01 6.815321895868701185e-01 4.333777664696234488e-01 1.174936541735659146e-01 -7.466341372706922219e-02 -7.466341372706922219e-02 -2.516938416855893923e-01 -4.408914108721173619e-01 -5.468633686202499788e-01 -5.383199049477119802e-01 -6.545089071454235352e-01 -9.182906559088919174e-01 -1.658728758899425726e+00 -1.932104984152196892e+00 -2.514052531384993294e+00 -3.120312879537659345e+00 -3.278567766904501468e+00 -3.475906126195849488e+00 -3.709015758666092566e+00 -3.798622280119111405e+00 -3.798622280119111405e+00 -3.756519951786115197e+00 -3.534718837043175466e+00 -3.205380734320325331e+00 -3.020959221210140377e+00 -2.491672641025053814e+00 -2.330755086075678051e+00 -2.535377846934164570e+00 -2.634003735827739057e+00 -2.837394507803524757e+00 -3.183885506439973145e+00 -3.695817147022386173e+00 -3.695817147022386173e+00 -4.309766184403239997e+00 -4.931826280786308914e+00 -5.591061331516289812e+00 -5.719866337350639540e+00 -6.448701295080560669e+00 -6.920758469700657223e+00 -7.400197460853654263e+00 -7.428373484037023466e+00 -7.713625292724967331e+00 -7.929024165922177403e+00 -8.118944176677722169e+00 -8.118944176677722169e+00 -8.285014343802036052e+00 -8.404786942509250736e+00 -8.503947508804577282e+00 -8.535295430740442058e+00 -8.697402188885197560e+00 -8.787522121516985862e+00 -8.787522121516985862e+00 -8.934215107236148867e+00 -9.054613443444724297e+00 -9.105860725185690896e+00 -9.158611136673115993e+00 -9.233812429883844430e+00 -9.292014181293682284e+00 -9.353136474020352864e+00 -9.424142698654303985e+00 -9.435598097245009086e+00 -9.460787592305985427e+00 -9.588698258109820571e+00 -9.588698258109820571e+00 -9.629195194267085256e+00 -9.702769970129946131e+00 -9.766332083821192001e+00 -9.746552136604535121e+00 -9.826465461077708241e+00 -9.871749093526172913e+00 -9.875712310183118348e+00 -9.894282843024429397e+00 -9.922882438666755789e+00 -1.000038178245476672e+01 -9.994364152866438644e+00 -9.994364152866438644e+00 -9.988837005361537180e+00 -9.995116692806044867e+00 -1.007131554620407599e+01
4.483639083126796265e+00 4.456698058826258801e+00 4.335296782291560014e+00 4.028534706101129181e+00 3.899347187892896027e+00 3.527821378889072879e+00 3.184712189766386370e+00 2.749282901798286716e+00 2.749282901798286716e+00 2.325803849382479527e+00 1.865805980159676691e+00 1.743617807781708384e+00 1.743104823439884044e+00 1.764081449008328750e+00 1.773998494102843271e+00 1.801813032770226641e+00 1.841862440210282781e+00 1.816280877311885256e+00 1.865691782932306086e+00 1.870776167897529207e+00 1.870776167897529207e+00 1.834700016216019414e+00 1.885766419746419675e+00 1.812392887470617886e+00 1.843860315722845700e+00 1.784406173782235427e+00 1.696980438242369216e+00 1.691699396587296400e+00 1.713602476044641998e+00 1.712872024908868029e+00 1.641161633045850055e+00 1.660700668631984067e+00 1.482058432573273077e+00 1.355192975466788408e+00 1.230009088523474903e+00 1.230009088523474903e+00 1.059388953328517236e+00 8.848290765839275096e-01 6.815321895868701185e-01 5.866026947647194900e-01 2.846233864764853849e-01 5.801750836308999792e-02 -1.054552059845319245e-01 -1.714467723516917286e-01 -3.107879331326675043e-01 -4.985405690092156727e-01 -5.955594540668996961e-01 -5.955594540668996961e-01 -7.360377922510098481e-01 -1.299258919924571654e+00 -1.932104984152196892e+00 -2.187964198125702531e+00 -2.957438772111965264e+00 -3.278567766904501468e+00 -3.565655005443897796e+00 -3.674667502652491535e+00 -3.799622976165907939e+00 -3.890474163442982913e+00 -3.751342521524906548e+00 -3.729682555948158118e+00 -3.478251526087435153e+00 -2.863158202331584690e+00 -2.396072444520601419e+00 -2.396072444520601419e+00 -2.469690594065200528e+00 -2.714580702688122571e+00 -2.714580702688122571e+00 -3.046555736745502507e+00 -3.461295637717939133e+00 -3.811060483528336373e+00 -4.003338123662223857e+00 -4.627360420775196381e+00 -5.097233815035231430e+00 -5.827414750388896891e+00 -5.950805212896838725e+00 -6.456988812939839839e+00 -7.139383575305592089e+00 -7.474353944500903069e+00 -7.474353944500903069e+00 -7.790725907527701999e+00 -8.037981847854844375e+00 -8.180261906118680315e+00 -8.206465809918594090e+00 -8.323750172926549951e+00 -8.422910739221878273e+00 -8.577314519829466022e+00 -8.609162225120837064e+00 -8.711064728749812858e+00 -8.891338624259850221e+00 -9.002165004085954436e+00 -9.002165004085954436e+00 -9.052888498482788648e+00 -9.201168731165386916e+00 -9.233812429883844430e+00 -9.243377783084124388e+00 -9.327431886718096976e+00 -9.424142698654303985e+00 -9.428039884599510145e+00 -9.403782610735753167e+00 -9.545494778164218985e+00 -9.595053679399651259e+00 -9.600126571965631683e+00 -9.663600706332111656e+00 -9.762112177914895383e+00 -9.768634374318164504e+00 -9.768634374318164504e+00 -9.839104222228922225e+00 -9.866824851800872764e+00 -9.894282843024429397e+00 -9.906743766871404233e+00 -1.000485751851576310e+01 -9.962734123110545070e+00 -9.982662835785360400e+00 -9.970518619736781218e+00 -1.002997615168220413e+01 -1.004107337174611025e+01
4.544180686613822573e+00 4.456698058826258801e+00 4.492362918333924426e+00 4.206507873688935639e+00 3.899347187892896027e+00 3.870982726242521821e+00 3.563357837001542627e+00 3.130673409952106745e+00 2.707194357536299556e+00 2.562953783571628730e+00 2.187497451503726431e+00 1.822591969907150222e+00 1.762531299314850086e+00 1.762531299314850086e+00 1.808292309001048093e+00 1.853125005549418169e+00 1.841862440210282781e+00 1.862646560247623206e+00 1.903934247121155554e+00 1.892453688607664386e+00 1.908510115459501888e+00 1.931972498515518000e+00 1.923405719598567654e+00 1.896343631053173162e+00 1.840563307075868238e+00 1.792520900048989230e+00 1.707549769890842395e+00 1.712736832531327913e+00 1.732097300396512773e+00 1.732097300396512773e+00 1.725041394590823618e+00 1.685762153499888338e+00 1.520198657842679602e+00 1.546114000755107076e+00 1.403226923788704061e+00 1.230053398734509251e+00 1.037410664765202828e+00 9.818545500490796218e-01 8.201062762957143093e-01 5.185517796586354144e-01 4.494496741651519134e-01 2.165724713704012816e-01 -2.520813665063424691e-02 -2.364133660106619017e-01 -2.364133660106619017e-01 -4.313992678459258601e-01 -5.548864531119873655e-01 -5.885550371307119999e-01 -6.026421262014893809e-01 -1.025843138120256182e+00 -1.502989229832110807e+00 -2.450745860523584341e+00 -2.648767825339687576e+00 -3.107638912627872507e+00 -3.521699303739680431e+00 -3.741619323106952333e+00 -3.741619323106952333e+00 -3.974736915449386121e+00 -3.896724148112411967e+00 -3.729682555948158118e+00 -3.685263535270703716e+00 -3.182735858388337391e+00 -2.749866860131193746e+00 -2.366999155666368537e+00 -2.408908368201877703e+00 -2.545330889759627624e+00 -2.818350337399767369e+00 -3.164478209965150945e+00 -3.164478209965150945e+00 -3.571256118739453811e+00 -4.135844190766126083e+00 -4.627360420775196381e+00 -4.711105935093869768e+00 -5.493183266789923636e+00 -5.950805212896838725e+00 -6.160224153082246801e+00 -6.872450164495800706e+00 -7.196416064408638569e+00 -7.622997667082133333e+00 -7.624731771243400402e+00 -7.831660517558121981e+00 -8.107305243623267543e+00 -8.224589606631221628e+00 -8.224589606631221628e+00 -8.341873969639175712e+00 -8.493335303541893921e+00 -8.609162225120837064e+00 -8.651044993008586204e+00 -8.845659192511224234e+00 -8.864506864860564050e+00 -8.999973364445978063e+00 -8.993218732649998159e+00 -9.101138048006641057e+00 -9.217149257599237089e+00 -9.277306965231746361e+00 -9.277306965231746361e+00 -9.389376668611596699e+00 -9.411021174476282170e+00 -9.403782610735753167e+00 -9.541535525889621283e+00 -9.622893590877538372e+00 -9.600126571965631683e+00 -9.676937008464751244e+00 -9.742871117111592483e+00 -9.745364257385967122e+00 -9.809600850026686913e+00 -9.879516605135094665e+00 -9.879516605135094665e+00 -9.867239707882017541e+00 -9.930877675410123118e+00 -1.000485751851576310e+01 -9.921327113626457361e+00 -9.967553575649937159e+00 -9.970518619736781218e+00 -1.000209314792499171e+01 -1.001083119728814452e+01
4.636342661673585219e+00 4.493109487173367000e+00 4.454595865949997346e+00 4.349021615021482212e+00 4.114088183068390414e+00 3.901831872479724517e+00 3.560689621859948417e+00 3.560689621859948417e+00 3.021014171775183499e+00 2.454429453279394657e+00 2.102153568248298576e+00 1.968027421414174860e+00 1.864482604883425543e+00 1.800105770963468910e+00 1.865735420726961857e+00 1.919924843056208363e+00 1.892112769588090604e+00 1.888706908673233098e+00 1.950957363734155070e+00 1.936904944499470371e+00 1.967021205652369042e+00 2.015692236413899607e+00 2.015692236413899607e+00 2.017884439375803307e+00 1.897717549009833249e+00 1.792520900048989230e+00 1.759462944308343602e+00 1.744595014151728574e+00 1.726746192759898602e+00 1.767062014632150735e+00 1.744508621406532178e+00 1.725388622700636976e+00 1.706346288620883778e+00 1.522836422136103929e+00 1.522836422136103929e+00 1.386179461059836582e+00 1.142638891016268143e+00 9.818545500490796218e-01 9.049103434254026634e-01 6.806395601096558723e-01 4.494496741651519134e-01 1.548621515538226578e-01 9.372737399519301404e-02 -9.119970301779402322e-02 -3.053145635840426309e-01 -4.988087763158641774e-01 -4.988087763158641774e-01 -5.295622733719703712e-01 -6.713865119714785834e-01 -1.025843138120256182e+00 -1.153023757642414715e+00 -1.947832452504077327e+00 -2.648767825339687576e+00 -2.819730799440342217e+00 -3.347270198852888345e+00 -3.577292752776354945e+00 -3.813300069975983142e+00 -3.835234190383722819e+00 -3.912011652448136090e+00 -3.867812036952142485e+00 -3.645790246569358573e+00 -3.645790246569358573e+00 -3.000835362476647283e+00 -2.476718652611054949e+00 -2.408908368201877703e+00 -2.476213579996514369e+00 -2.714246973899765436e+00 -2.907046713829998019e+00 -3.298466510215950720e+00 -3.414177451310550282e+00 -3.740645578299969465e+00 -4.326937518502301572e+00 -4.886214873528249569e+00 -4.886214873528249569e+00 -5.637093666398005354e+00 -6.353972702273717132e+00 -6.872450164495800706e+00 -6.939785206665164630e+00 -7.427489628893835238e+00 -7.624731771243400402e+00 -7.904961659901090343e+00 -7.959758310892897981e+00 -8.125429040335893305e+00 -8.242713403343849166e+00 -8.414747216831063525e+00 -8.414747216831063525e+00 -8.501236800331906096e+00 -8.654617503896284703e+00 -8.654617503896284703e+00 -8.787538798147728869e+00 -8.966380754665191688e+00 -8.993218732649998159e+00 -9.042909279578418946e+00 -9.179686226674405702e+00 -9.197311584934924511e+00 -9.301727299415841088e+00 -9.354610638568892966e+00 -9.375314696933136460e+00 -9.369074902380127412e+00 -9.541661253559848177e+00 -9.541661253559848177e+00 -9.665536690045307466e+00 -9.660610363687190727e+00 -9.742871117111592483e+00 -9.742015825832186948e+00 -9.792736238975670915e+00 -9.808567113362782308e+00 -9.853964930523291699e+00 -9.840196572739605685e+00 -9.936684274070582745e+00 -9.910863309530597576e+00 -9.970175566831423808e+00 -9.970175566831423808e+00 -9.952200234112025257e+00 -9.900194142809830566e+00 -1.001083119728814452e+01
4.801914062964637075e+00 4.592087127428819748e+00 4.518682106012659183e+00 4.349021615021482212e+00 4.225455133416050835e+00 4.083141093525234133e+00 3.888832886379404385e+00 3.328769015387187835e+00 3.137771788727107936e+00 2.772569806354032274e+00 2.373887569589247626e+00 2.034915659118946785e+00 2.034915659118946785e+00 1.955694969926440319e+00 1.990189821940882897e+00 1.919924843056208363e+00 1.999995572332405658e+00 1.981264476295933719e+00 1.950957363734155070e+00 1.972938925257236908e+00 2.047133936258311859e+00 2.020836882181745509e+00 2.048709099008166223e+00 2.002127908892466834e+00 2.002127908892466834e+00 1.898862123678404012e+00 1.781801156775537631e+00 1.781801156775537631e+00 1.784939231430999307e+00 1.809956528492361105e+00 1.744508621406532178e+00 1.709979044410558258e+00 1.752273076742896230e+00 1.691599651966523954e+00 1.539616957305890210e+00 1.555755378471685546e+00 1.379719586624946315e+00 1.146488879957380691e+00 8.866772240519602555e-01 8.866772240519602555e-01 5.526632024531626941e-01 3.730380071561428257e-01 9.372737399519301404e-02 -5.034144734529246400e-03 -2.336229118350940381e-01 -3.600575069815247220e-01 -5.199650727501097247e-01 -5.073595432953951212e-01 -5.562994710222025629e-01 -7.379187916801810410e-01 -1.335644510766369031e+00 -1.335644510766369031e+00 -2.232326210457590054e+00 -2.993667835990445170e+00 -3.347270198852888345e+00 -3.413270710632815508e+00 -3.692171054005509934e+00 -3.835234190383722819e+00 -3.899902595577711129e+00 -3.808752941595804575e+00 -3.797050517582518658e+00 -3.405833791003797462e+00 -3.331804623709177626e+00 -2.903113457659264540e+00 -2.496200973058175787e+00 -2.523411355933359079e+00 -2.523411355933359079e+00 -2.783776127674623790e+00 -3.117047752197809274e+00 -3.414177451310550282e+00 -3.518597156583850527e+00 -4.065537933652897173e+00 -4.422944788409068018e+00 -5.095408990435034369e+00 -5.214589901587266318e+00 -5.774917728174322917e+00 -6.480813986293636475e+00 -7.045976114280515290e+00 -7.045976114280515290e+00 -7.430831559050201207e+00 -7.799301242790864563e+00 -7.959758310892897981e+00 -8.011997917511321177e+00 -8.161676633761150157e+00 -8.260837200056476703e+00 -8.419104442892525242e+00 -8.464055400453915468e+00 -8.586153260764366024e+00 -8.799979760762598247e+00 -8.895069950354026034e+00 -8.895069950354026034e+00 -8.936414767684109250e+00 -9.086518250733409019e+00 -9.179686226674405702e+00 -9.158761721648737364e+00 -9.276022712113585200e+00 -9.334579891656211714e+00 -9.394002464353054194e+00 -9.341316854642277789e+00 -9.484658907762923974e+00 -9.620914330017015459e+00 -9.599874474996656915e+00 -9.634245659480608737e+00 -9.732302541393742956e+00 -9.741129815014783588e+00 -9.775871627924647811e+00 -9.780855509082593713e+00 -9.841105009245708857e+00 -9.982619373202684443e+00 -9.982619373202684443e+00 -9.877657481295958775e+00 -9.964107313478793415e+00 -9.952421924012455179e+00 -9.933881848487269295e+00 -9.852732867811722528e+00 -9.980589022830178791e+00
4.736160160838890576e+00 4.670714828220343229e+00 4.565144781962469978e+00 4.389992220066890383e+00 4.210794675470915571e+00 4.210794675470915571e+00 4.052083214548302337e+00 3.422290958202230726e+00 3.137771788727107936e+00 2.919326435863234259e+00 2.646873638886373392e+00 2.286702268773055380e+00 2.097087762312524362e+00 2.152158382452850738e+00 2.057359617223639248e+00 2.090815215466554911e+00 2.071625079797133839e+00 2.071625079797133839e+00 2.050801972105809945e+00 2.082036656184487633e+00 2.047133936258311859e+00 2.095926889724980757e+00 2.130624784155856322e+00 2.070535345419648898e+00 2.023949122243976717e+00 2.045725385701985921e+00 1.919916485608908374e+00 1.824141753007279876e+00 1.836088622409596915e+00 1.836088622409596915e+00 1.737644282895283609e+00 1.747338978137194410e+00 1.752273076742896230e+00 1.806819817657709049e+00 1.651228020931690299e+00 1.555755378471685546e+00 1.395598879508776147e+00 1.337388506724969561e+00 1.108682145332057445e+00 7.907947290262828943e-01 6.862637782660037100e-01 6.058711921857635740e-01 2.093450992096199670e-01 -9.380500890673768022e-02 -9.380500890673768022e-02 -2.846047238595983409e-01 -4.524432245991528156e-01 -5.073595432953951212e-01 -5.082382017503839222e-01 -6.186568625913611008e-01 -9.424339748489736213e-01 -1.504973048992985341e+00 -1.778191141133860897e+00 -2.475964887135150949e+00 -3.113561873360571219e+00 -3.470397462171892933e+00 -3.470397462171892933e+00 -3.732013773701794879e+00 -3.820455365609089160e+00 -3.808752941595804575e+00 -3.819207112366690637e+00 -3.743235853781455624e+00 -3.331804623709177626e+00 -2.679780588407576936e+00 -2.607545085536976615e+00 -2.434128715447562818e+00 -2.585533419463803995e+00 -2.877879819477217271e+00 -2.963380393757496734e+00 -3.239317384827306689e+00 -3.651476656737424165e+00 -4.221556547690751060e+00 -4.221556547690751060e+00 -4.753796725681773694e+00 -5.400533683458265344e+00 -5.400533683458265344e+00 -6.207582363556112703e+00 -6.832585282433657703e+00 -7.166722931151831233e+00 -7.262457237049810388e+00 -7.621369722797583179e+00 -7.818622992618992740e+00 -8.035409658752968198e+00 -8.061849277892477517e+00 -8.179800430473775918e+00 -8.344996286740089531e+00 -8.529536580902284726e+00 -8.529536580902284726e+00 -8.680704855395848796e+00 -8.841187061319452312e+00 -8.899852955506455388e+00 -8.850310287373538642e+00 -9.012839475190567384e+00 -9.133112837457471045e+00 -9.207578440338970438e+00 -9.223290106812838118e+00 -9.319844608526189234e+00 -9.376983754229826218e+00 -9.569497247412430241e+00 -9.569497247412430241e+00 -9.589038049631762206e+00 -9.585074672576642030e+00 -9.634245659480608737e+00 -9.685603817710992658e+00 -9.691700693662699706e+00 -9.775871627924647811e+00 -9.866970275522028544e+00 -9.767080235065348504e+00 -9.807534440629563477e+00 -9.907401090547379496e+00 -9.822475580725686939e+00 -9.920559826181371221e+00 -9.910190170202021420e+00 -9.930515307035811645e+00 -9.930515307035811645e+00 -9.941355652981478386e+00
4.763044078640356283e+00 4.670714828220343229e+00 4.566278162329134638e+00 4.425361626382842140e+00 4.317583910202118957e+00 4.194784831686713567e+00 4.003365224993398641e+00 4.003365224993398641e+00 3.252801654996424485e+00 2.914351584564624620e+00 2.646873638886373392e+00 2.602038315235654320e+00 2.329692919741623403e+00 2.152158382452850738e+00 2.255696713138715115e+00 2.262107018702107286e+00 2.174082825997232682e+00 2.122359424333504219e+00 2.173093768869875042e+00 2.128785827556891608e+00 2.136339877296219658e+00 2.133716209526773433e+00 2.133716209526773433e+00 2.155157494969432541e+00 2.116572775589874222e+00 2.045725385701985921e+00 2.073470196756145967e+00 1.903688491862831178e+00 1.852768458767907189e+00 1.774353779701110190e+00 1.730779944384034597e+00 1.694569466120479317e+00 1.855238160948359916e+00 1.731166446136186421e+00 1.762839084557489944e+00 1.660561391713599955e+00 1.551817956027934597e+00 1.277517320628496877e+00 1.277517320628496877e+00 9.013088462144396296e-01 6.278944540806448149e-01 4.498308015766359635e-01 4.709902989100290815e-01 5.698194800297730345e-02 -1.226210584690570343e-01 -3.297059053016201391e-01 -3.354985845619063989e-01 -4.682097985309443544e-01 -5.093867519561742219e-01 -5.470239058352492911e-01 -6.531926252126205590e-01 -1.220763390593763820e+00 -2.107672331372543173e+00 -2.107672331372543173e+00 -2.842258546991070389e+00 -3.299230534689530980e+00 -3.561592189381634910e+00 -3.603448798505570316e+00 -3.861086279922233633e+00 -3.876425526537540023e+00 -3.936826253875179482e+00 -3.928678103237261965e+00 -3.697588004232154724e+00 -3.047616547007550469e+00 -2.457183476588033599e+00 -2.457183476588033599e+00 -2.456207422093878989e+00 -2.763968047358553282e+00 -2.963380393757496734e+00 -3.060197717274135698e+00 -3.425022907051045173e+00 -3.824716977544794450e+00 -4.386763214420406953e+00 -4.515291959272576428e+00 -4.964673882049368991e+00 -5.660453349876323870e+00 -6.338785994538648438e+00 -6.338785994538648438e+00 -6.937081248197860539e+00 -7.373886053104968141e+00 -7.621369722797583179e+00 -7.644322606758477079e+00 -7.859479575221130609e+00 -8.061849277892477517e+00 -8.221673590163211642e+00 -8.213473268499951629e+00 -8.429443050620388789e+00 -8.499084876340372574e+00 -8.403078688021155429e+00 -8.638882795460776975e+00 -8.788772599474423686e+00 -8.861083335625696833e+00 -8.861083335625696833e+00 -9.015587632293264875e+00 -9.078183266417399366e+00 -9.223290106812838118e+00 -9.191276124556154059e+00 -9.255460641835485447e+00 -9.293033084231575813e+00 -9.422664367152910003e+00 -9.443542942035431764e+00 -9.496399738222740083e+00 -9.573825431164522115e+00 -9.682415565949844094e+00 -9.682415565949844094e+00 -9.675356704610583947e+00 -9.766281708361228553e+00 -9.767080235065348504e+00 -9.756018500141404814e+00 -9.787949767618423280e+00 -9.822475580725686939e+00 -9.894611236931716292e+00 -9.831341934615947409e+00 -9.876567350345542451e+00 -9.803244203501915166e+00 -9.886154163610406442e+00
4.808622514585271901e+00 4.706735046663711231e+00 4.594631250561965530e+00 4.403091352495085431e+00 4.403091352495085431e+00 4.267741909295338587e+00 4.161581827180326876e+00 3.546710110522042214e+00 3.453633404290969544e+00 3.169103103744993710e+00 2.919859708183500047e+00 2.637544919963896284e+00 2.605572466188764036e+00 2.350007684501023153e+00 2.338651587756893413e+00 2.327274916733701904e+00 2.327274916733701904e+00 2.273835398922958273e+00 2.232609961043814373e+00 2.191460810857650099e+00 2.206947848941653412e+00 2.243796150703698533e+00 2.192461699428964739e+00 2.170544835687224339e+00 2.229045941174504719e+00 2.181427106612628286e+00 2.055660956095626268e+00 2.052265827904165008e+00 1.962232337921117065e+00 1.803709856951590584e+00 1.766515467064716960e+00 1.766515467064716960e+00 1.948534436800532621e+00 1.829925931920818538e+00 1.762839084557489944e+00 1.724481780116296603e+00 1.678694592178140876e+00 1.625709011195021425e+00 1.147961487362944677e+00 1.101510231082024838e+00 8.237887589022349077e-01 5.388819662986146231e-01 3.842512051775459625e-01 3.842512051775459625e-01 3.927249293487768828e-02 -1.800940069535343357e-01 -3.354985845619063989e-01 -3.739767316674772468e-01 -4.823061586638314191e-01 -5.470239058352492911e-01 -8.392790280639843559e-01 -1.062165372973039146e+00 -1.410502857465699034e+00 -2.323097587126588870e+00 -2.961613908986887811e+00 -2.961613908986887811e+00 -3.420643277489225476e+00 -3.699461623831189705e+00 -3.861086279922233633e+00 -3.882313725906048507e+00 -4.022146465024981410e+00 -3.928678103237261965e+00 -3.920362613254050110e+00 -3.371744810128524783e+00 -2.873867056338275106e+00 -2.460154323859528258e+00 -2.374936063184126311e+00 -2.549732725259930000e+00 -2.839601148281224674e+00 -3.145010679188571245e+00 -3.145010679188571245e+00 -3.626209021440749414e+00 -4.156737785822677722e+00 -4.515291959272576428e+00 -4.713856112202638116e+00 -5.373278432687907724e+00 -5.870416954994967185e+00 -6.509457151227489469e+00 -6.568685032710899208e+00 -7.005249197076620860e+00 -7.386607665150829227e+00 -7.630874849748318312e+00 -7.630874849748318312e+00 -7.834402702693441078e+00 -7.994399768658581706e+00 -8.213473268499951629e+00 -8.187375708071686020e+00 -8.281683083010543456e+00 -8.403078688021155429e+00 -8.627622311321811566e+00 -8.564177120463472903e+00 -8.738706241319199819e+00 -8.841616495305926193e+00 -8.950424910819409163e+00 -8.950424910819409163e+00 -9.046948196928813246e+00 -9.101592558932136257e+00 -9.101592558932136257e+00 -9.145472673223670412e+00 -9.279964967841484835e+00 -9.443542942035431764e+00 -9.336020125983836238e+00 -9.459441370064876509e+00 -9.551211606059416326e+00 -9.600765224805186904e+00 -9.575427257358823496e+00 -9.660481153825751122e+00 -9.689346117980527140e+00 -9.727484406334296452e+00 -9.727484406334296452e+00 -9.759396844018676020e+00 -9.807606819588183811e+00 -9.831341934615947409e+00 -9.815171802267006029e+00 -9.766050176955298312e+00 -9.887205204448592966e+00
4.755129293124391587e+00 4.730407154940397874e+00 4.715169627982975342e+00 4.517322148829341799e+00 4.351855082184573398e+00 4.300618811874060476e+00 4.249014125343097525e+00 3.809355136734644098e+00 3.403773257083064330e+00 3.403773257083064330e+00 3.222502153229312771e+00 2.900745495929873297e+00 2.605572466188764036e+00 2.640423337839965079e+00 2.620590206989178661e+00 2.473192739639799242e+00 2.363729737944735732e+00 2.400141972426790726e+00 2.310247633405012380e+00 2.294327155643835603e+00 2.293940893867539188e+00 2.293940893867539188e+00 2.310576104092045391e+00 2.316194965165471409e+00 2.229045941174504719e+00 2.317756091258082574e+00 2.211234353580139089e+00 2.052265827904165008e+00 1.938924534666729427e+00 1.949634754287709937e+00 1.819990869612668538e+00 1.854725940787226302e+00 1.940695994524012313e+00 1.940695994524012313e+00 1.847926819985864277e+00 1.694274479277703582e+00 1.694274479277703582e+00 1.597949536703274998e+00 1.434138043955441422e+00 1.101510231082024838e+00 1.116984675882909395e+00 7.528464350350004830e-01 5.561573172351215177e-01 2.891076301095206746e-01 1.911161818920957822e-01 -1.848047856585705029e-02 -2.245765056092804413e-01 -4.080954849762459258e-01 -4.080954849762459258e-01 -5.199433125429063773e-01 -7.019117716747285129e-01 -1.062165372973039146e+00 -1.155553577805323640e+00 -1.881057054327953448e+00 -2.531800573217473094e+00 -3.111623161701336127e+00 -3.212427900267599501e+00 -3.462040013623361556e+00 -3.802489578528797765e+00 -3.937799505550075629e+00 -3.937799505550075629e+00 -4.030491875903903676e+00 -3.837932371020010613e+00 -3.371744810128524783e+00 -3.147052289987751994e+00 -2.556439905823915559e+00 -2.374936063184126311e+00 -2.650770625854933726e+00 -2.719992073780624686e+00 -2.918561194065071973e+00 -3.302295994196577489e+00 -3.826356894489323590e+00 -3.826356894489323590e+00 -4.344055801946618445e+00 -4.915593773736708805e+00 -4.915593773736708805e+00 -5.502574957778324283e+00 -6.121765254132787604e+00 -6.568685032710899208e+00 -6.700769559907945094e+00 -7.118803059490955043e+00 -7.407525368023852863e+00 -7.557213844480684450e+00 -7.577618184000098012e+00 -7.789495276840716187e+00 -7.987851370296034759e+00 -8.106827446456836839e+00 -8.106827446456836839e+00 -8.301504075471026312e+00 -8.489680640476450435e+00 -8.564177120463472903e+00 -8.580828873553993930e+00 -8.670546822259261432e+00 -8.841491833177695270e+00 -8.901266614226242879e+00 -8.870581181630862844e+00 -9.014169130053897305e+00 -9.087868686241593608e+00 -9.264633136483626075e+00 -9.264633136483626075e+00 -9.278288264970601773e+00 -9.409639537065009662e+00 -9.459441370064876509e+00 -9.419496733543244460e+00 -9.518095135126053208e+00 -9.575427257358823496e+00 -9.651640653134331060e+00 -9.627937790214897262e+00 -9.626177785736356185e+00 -9.735102744817137221e+00 -9.699523400956794106e+00 -9.720602402244649554e+00 -9.754647494071699398e+00 -9.801374577186495074e+00 -9.728856150408683234e+00 -9.833054755915711098e+00
4.798083024492949100e+00 4.716751825728870529e+00 4.715169627982975342e+00 4.625297229566074364e+00 4.384731984763294399e+00 4.300618811874060476e+00 4.267618639759335863e+00 4.130192174548285244e+00 3.754417496764777429e+00 3.464240681827288171e+00 3.186957870888981859e+00 3.186957870888981859e+00 2.914367749570408783e+00 2.771354803619167306e+00 2.771354803619167306e+00 2.695945766783303110e+00 2.490036311448567741e+00 2.400141972426790726e+00 2.462001462191580892e+00 2.393883447643551321e+00 2.331556885337946916e+00 2.383408164019177100e+00 2.440223959157612477e+00 2.392372664346858357e+00 2.342224911649947394e+00 2.356235480184960096e+00 2.356235480184960096e+00 2.211192910803752909e+00 2.066389303894950125e+00 1.949634754287709937e+00 1.971465139400530919e+00 1.871560767873784448e+00 1.898817091658246081e+00 1.866701124727579320e+00 1.910787414275100904e+00 1.818916964052546881e+00 1.722251857323711777e+00 1.541812651585633631e+00 1.541812651585633631e+00 1.387308155160006828e+00 1.063888946822221238e+00 7.528464350350004830e-01 7.008392708389103998e-01 4.429784077383849272e-01 1.911161818920957822e-01 -7.517627955108376059e-02 -1.443782038275274737e-01 -2.937784298857241683e-01 -4.552255653714885608e-01 -5.076686184403231827e-01 -5.211774023935871192e-01 -8.712077099281672066e-01 -1.296757823363515971e+00 -1.296757823363515971e+00 -2.147070119485947615e+00 -2.827767685821106713e+00 -3.212427900267599501e+00 -3.337010613059872455e+00 -3.670391119339004860e+00 -3.840953272407027441e+00 -4.011867417448922168e+00 -4.123140446992112906e+00 -4.080128165193712242e+00 -3.736777594676299330e+00 -2.872865981695137627e+00 -2.872865981695137627e+00 -2.314295770411230357e+00 -2.538371655596666443e+00 -2.719992073780624686e+00 -2.842355957799737709e+00 -3.183439028063746790e+00 -3.460134092394351768e+00 -4.013674910613264757e+00 -4.147253660224048843e+00 -4.510795601802505495e+00 -5.053979081739124801e+00 -5.583247529380951590e+00 -5.729287254389531014e+00 -6.210890757435315379e+00 -6.771713449020424491e+00 -7.170728129289228647e+00 -7.170728129289228647e+00 -7.349744130939255271e+00 -7.536204590738503128e+00 -7.778019791395218263e+00 -7.728441845586273118e+00 -7.866412897211471744e+00 -8.126720235759844257e+00 -8.135588609852524300e+00 -8.286430381246441712e+00 -8.440018521643740002e+00 -8.542572404946202624e+00 -8.499477149212598448e+00 -8.666014296195816868e+00 -8.718888311868090213e+00 -8.837062135551633446e+00 -8.837062135551633446e+00 -8.920276730647701768e+00 -9.037926989025697466e+00 -9.137265568530057891e+00 -9.113033587905771782e+00 -9.258403717939545530e+00 -9.314827422841599258e+00 -9.427790308788532414e+00 -9.398454640897588419e+00 -9.480016000262637021e+00 -9.545060669465229353e+00 -9.596425849112948825e+00 -9.596425849112948825e+00 -9.673382429886661527e+00 -9.624569198820083216e+00 -9.720602402244649554e+00 -9.677953053527449612e+00 -9.740451443107627227e+00 -9.728856150408683234e+00 -9.780128124978768156e+00
4.841036755861505725e+00 4.780070719683356728e+00 4.864528322835599106e+00 4.532679175707273522e+00 4.532679175707273522e+00 4.368205788440704396e+00 4.361287071761466017e+00 4.130192174548285244e+00 4.067224411582538224e+00 3.763347642386707381e+00 3.519067041382773375e+00 3.165512295018687361e+00 3.168951666524921329e+00 2.942489015338937364e+00 2.915350885607406628e+00 2.682962134623234629e+00 2.682962134623234629e+00 2.526448545930622736e+00 2.464125580613071076e+00 2.393883447643551321e+00 2.463900246253035498e+00 2.514475024789638802e+00 2.440223959157612477e+00 2.518867691943366793e+00 2.471871544967623624e+00 2.453157421151034523e+00 2.366807751064651466e+00 2.370119993703341255e+00 2.205349876958453414e+00 2.095084088859406890e+00 2.049188188676327016e+00 2.049188188676327016e+00 1.852208083768657421e+00 1.917211050216025559e+00 1.910787414275100904e+00 1.894985685301258105e+00 1.776912382791643319e+00 1.666248698338783862e+00 1.604264647786280307e+00 1.673799906499304546e+00 1.374931458609441659e+00 1.008037070825142267e+00 6.559923423245006546e-01 6.559923423245006546e-01 4.316284829785832500e-01 4.791148585190310727e-02 -2.033910287249365012e-01 -2.033910287249365012e-01 -4.252270473932964756e-01 -4.703666776936301086e-01 -5.645445152854724480e-01 -6.641934648983127687e-01 -1.030362176352609627e+00 -1.508573787455095960e+00 -2.355957275798028494e+00 -2.518382305963836387e+00 -2.939164993258944758e+00 -3.394149818018040499e+00 -3.750851173345570277e+00 -3.750851173345570277e+00 -4.001588369872862927e+00 -4.186323280555800608e+00 -4.186323280555800608e+00 -3.956212642750779995e+00 -2.967727152868806950e+00 -2.484665055526195321e+00 -2.362596069885798844e+00 -2.460906235677081444e+00 -2.626323676271997698e+00 -2.944223490551876043e+00 -3.012311973344897975e+00 -3.354811940248933588e+00 -3.745628368969053046e+00 -4.250069946989775360e+00 -4.250069946989775360e+00 -4.699239002782709562e+00 -5.244017779831453119e+00 -5.729287254389531014e+00 -5.862407053033830806e+00 -6.466197505546211310e+00 -6.846324033576074441e+00 -7.175918110603708655e+00 -7.135195352446897843e+00 -7.311897350140328378e+00 -7.478682477777885751e+00 -7.683989738062747321e+00 -7.683989738062747321e+00 -7.960804770141342246e+00 -8.196665469589675013e+00 -8.286430381246441712e+00 -8.286623570320081456e+00 -8.371502731899537864e+00 -8.499477149212598448e+00 -8.600044361315784869e+00 -8.536510009509939323e+00 -8.694214166332910665e+00 -8.781383104340221735e+00 -8.753164286619332657e+00 -8.850351851207864939e+00 -8.994566169218632723e+00 -9.062936363099112214e+00 -9.062936363099112214e+00 -9.186406745368939752e+00 -9.301500259878739740e+00 -9.398454640897588419e+00 -9.386334193174622698e+00 -9.425834584491330048e+00 -9.545931284709576303e+00 -9.518539354578109624e+00 -9.550422845134397321e+00 -9.622412947775643488e+00 -9.633597984901117073e+00 -9.647800460748189977e+00 -9.647800460748189977e+00 -9.691662123862066380e+00 -9.727115105662949901e+00
4.841036755861505725e+00 4.829055853462930870e+00 5.013887017688223757e+00 4.819220302628480113e+00 4.417608887342016288e+00 4.502313687358570959e+00 4.422139583590544376e+00 4.457953576294901410e+00 4.076617992490445985e+00 4.076617992490445985e+00 3.812997499538808288e+00 3.433591020686795225e+00 3.168951666524921329e+00 3.230392678186941424e+00 3.147750719125686381e+00 2.895986608535696671e+00 2.669978502463165704e+00 2.698281454867025975e+00 2.601676502578254002e+00 2.494153307946107567e+00 2.559731270426570671e+00 2.624679224755675833e+00 2.590185619229781189e+00 2.541966381366834948e+00 2.556041479402108685e+00 2.556041479402108685e+00 2.518727780442578723e+00 2.359305932501917002e+00 2.193854073123171489e+00 2.194210715326212480e+00 2.115423441784993752e+00 1.967892097454670086e+00 1.889417296958299630e+00 2.004370338954109876e+00 1.975171039663461192e+00 1.936839183602561576e+00 1.905443599502949947e+00 1.777844218440391977e+00 1.752930393043769186e+00 1.613499054604696781e+00 1.613499054604696781e+00 1.226061923409409449e+00 8.386247922141222277e-01 6.522393863085935717e-01 5.694260550246601493e-01 1.813683385633073908e-01 -4.149342199346862936e-02 -2.854650621057837623e-01 -3.196914743763331623e-01 -4.483807039992817600e-01 -4.321473909172922623e-01 -6.488420051915788633e-01 -6.488420051915788633e-01 -1.164827302829296807e+00 -1.912513290914096942e+00 -2.518382305963836387e+00 -2.649788555768125331e+00 -3.247219799698093379e+00 -3.525423114496942123e+00 -3.854668729741225430e+00 -3.946586471182956579e+00 -4.159345417723589122e+00 -4.127520803874016764e+00 -3.592955018975104498e+00 -3.592955018975104498e+00 -2.797999812009091425e+00 -2.346399734557198968e+00 -2.460906235677081444e+00 -2.584923191762031003e+00 -2.784965426295251234e+00 -3.012311973344897975e+00 -3.434846064460613135e+00 -3.546481643928204086e+00 -3.820761278802489613e+00 -4.323201660513131372e+00 -4.434271742019910256e+00 -4.834637756173185252e+00 -5.411604069102268433e+00 -6.014052134886066270e+00 -6.014052134886066270e+00 -6.557083014732814519e+00 -6.924651911882532929e+00 -7.135195352446897843e+00 -7.125929792082786207e+00 -7.349890815236824970e+00 -7.543372426708513601e+00 -7.740044138327636603e+00 -7.738055221475405254e+00 -7.969673144234021400e+00 -8.149330954492356227e+00 -8.243528314586477279e+00 -8.243528314586477279e+00 -8.328407476165935464e+00 -8.419559054501922546e+00 -8.536510009509939323e+00 -8.517847151034962039e+00 -8.625882985094772692e+00 -8.753164286619332657e+00 -8.828607833537308380e+00 -8.851866769907207555e+00 -8.950396541087718205e+00 -9.093566734754968905e+00 -9.177013587805195272e+00 -9.177013587805195272e+00 -9.296472830457631176e+00 -9.353222930371480004e+00 -9.425834584491330048e+00 -9.436612641099092258e+00 -9.434532118464217021e+00 -9.550422845134397321e+00 -9.523894732660133755e+00 -9.545202820673889477e+00 -9.601258612983201601e+00 -9.679528309028761157e+00 -9.654468097315451303e+00 -9.724753858849943811e+00
4.900116379017985579e+00 4.913659663106017206e+00 4.872640486035743734e+00 4.872640486035743734e+00 4.639879608695628654e+00 4.632682572723798131e+00 4.522449085342657327e+00 4.613345926285340681e+00 4.285173775977081156e+00 4.025120741717832296e+00 3.758521923504086981e+00 3.617851219920499517e+00 3.364877366031245653e+00 3.267729164399250319e+00 3.289463145612816497e+00 3.110759939189426060e+00 2.858995828599435907e+00 2.760324090084990356e+00 2.760324090084990356e+00 2.675584824021089325e+00 2.665667287659465590e+00 2.624679224755675833e+00 2.699691505591014895e+00 2.687408507088735909e+00 2.604575202682651192e+00 2.586430895530654084e+00 2.650214141003695900e+00 2.509151505133075943e+00 2.303130511136628478e+00 2.175115461393201777e+00 2.175115461393201777e+00 2.093263825037606995e+00 1.990005212320669958e+00 2.004370338954109876e+00 2.027399948164097410e+00 1.957161191808753475e+00 1.905443599502949947e+00 1.676153191024849276e+00 1.720513882799199923e+00 1.770940472919655395e+00 1.481712324503405398e+00 1.095357648368523229e+00 1.095357648368523229e+00 7.760024209710180143e-01 4.152715158262308415e-01 1.813683385633073908e-01 9.019450875540066526e-02 -1.889164731160640487e-01 -3.196914743763331623e-01 -3.443305673242273990e-01 -3.632340992516452927e-01 -5.174568217994488517e-01 -6.933023793693957604e-01 -8.979481746476127846e-01 -1.336716526620818302e+00 -2.067974932209522443e+00 -2.792353686525608225e+00 -2.792353686525608225e+00 -3.408789264967783783e+00 -3.817419301192163328e+00 -3.946586471182956579e+00 -4.070182989016344344e+00 -4.179994320418709997e+00 -4.105559576723289084e+00 -3.272292929647313109e+00 -3.275050646200948989e+00 -2.647373881145883345e+00 -2.401488304673878638e+00 -2.640747994078680438e+00 -2.640747994078680438e+00 -2.868829212840403375e+00 -3.250365331504277755e+00 -3.546481643928204086e+00 -3.654245132378354910e+00 -4.090985681553759079e+00 -4.434271742019910256e+00 -4.988917313866704895e+00 -5.147330845992218684e+00 -5.598451398373447851e+00 -6.179978340110523050e+00 -6.644166254965380602e+00 -6.644166254965380602e+00 -6.914596402595704738e+00 -7.178237226917490332e+00 -7.178237226917490332e+00 -7.385324852528245998e+00 -7.623106695326835158e+00 -7.738055221475405254e+00 -7.846098757508705113e+00 -7.987579479960356110e+00 -8.115553897273416695e+00 -8.200433058852874879e+00 -8.157337803119272479e+00 -8.292038678538839136e+00 -8.360315662343449361e+00 -8.482848146547109280e+00 -8.482848146547109280e+00 -8.588803124595274952e+00 -8.672710976716732745e+00 -8.851866769907207555e+00 -8.790236094344834328e+00 -8.930791054433822040e+00 -9.058088087674240896e+00 -9.183601755859264415e+00 -9.194987477083163441e+00 -9.291946779967979353e+00 -9.312783354257629043e+00 -9.364636861000143142e+00 -9.364636861000143142e+00 -9.417545545903987403e+00 -9.446803198353544317e+00 -9.545202820673889477e+00 -9.524564172438951815e+00 -9.618605174949895087e+00 -9.654468097315451303e+00 -9.680103101168082702e+00
4.929401435278739640e+00 4.900407111842644881e+00 4.957863770018886562e+00 4.849060508791762203e+00 4.809134814704522753e+00 4.712619070000577004e+00 4.745397181120438290e+00 4.597555305106215684e+00 4.597555305106215684e+00 4.214760288533908827e+00 3.923604701185429811e+00 3.617851219920499517e+00 3.520808397156803604e+00 3.426744635816119100e+00 3.289463145612816497e+00 3.073769159253165739e+00 3.042098396947388927e+00 2.883704970033807324e+00 2.802919274314828346e+00 2.769860820838753401e+00 2.769860820838753401e+00 2.701508399828139506e+00 2.712277880398798580e+00 2.712277880398798580e+00 2.713442687270104070e+00 2.886198647775408688e+00 2.650214141003695900e+00 2.651053763376512773e+00 2.443766888250654468e+00 2.274733106059914522e+00 2.182411129270986017e+00 2.195606620159354261e+00 1.994187956163223863e+00 2.096816716870588237e+00 2.009266867493864073e+00 2.009266867493864073e+00 1.946291535025498787e+00 1.825547379728075237e+00 1.720513882799199923e+00 1.772279702788367883e+00 1.653037533931734693e+00 1.346471003933458643e+00 9.825787869173759903e-01 9.145394765253681557e-01 6.606984059997798031e-01 3.359973046388463613e-01 2.010308936095016319e-02 2.010308936095016319e-02 -2.232334897806505791e-01 -3.597523672823214058e-01 -3.632340992516452927e-01 -4.253429511458680090e-01 -5.916351315284225088e-01 -8.979481746476127846e-01 -1.441254297238346638e+00 -1.629628397667367334e+00 -2.242718092707232103e+00 -3.012140928184958710e+00 -3.556757314866261233e+00 -3.556757314866261233e+00 -3.905643226328713968e+00 -4.116835549740829769e+00 -4.116835549740829769e+00 -4.236175000115675715e+00 -3.718888081073159491e+00 -3.275050646200948989e+00 -3.026226859367115107e+00 -2.348477250614160905e+00 -2.517638347552618505e+00 -2.630565996549949492e+00 -2.704192281979125756e+00 -2.931271276919066970e+00 -3.375898630322313299e+00 -3.790285436828867205e+00 -3.790285436828867205e+00 -4.214894858583479120e+00 -4.740138360128447026e+00 -5.147330845992218684e+00 -5.336150665226229606e+00 -5.893759174674833901e+00 -6.259130161675336979e+00 -6.654483258163137904e+00 -6.660182109835501407e+00 -6.917252172007512634e+00 -7.191843241056556479e+00 -7.423375662373182138e+00 -7.423375662373182138e+00 -7.658181582178268165e+00 -7.883081115092687163e+00 -7.925486159891175220e+00 -7.925486159891175220e+00 -8.029363385806210118e+00 -8.117772154139867524e+00 -8.246062578020813660e+00 -8.188712751959020153e+00 -8.303075796433020628e+00 -8.438338508819544614e+00 -8.424441962571219022e+00 -8.517486204128646321e+00 -8.695858003458722507e+00 -8.789852600214391742e+00 -8.768015374112675175e+00 -8.906884787403887671e+00 -9.065703251839790866e+00 -9.194671224907569496e+00 -9.194671224907569496e+00 -9.222044139662052942e+00 -9.295741322682294694e+00 -9.366092174152107930e+00 -9.312587896742602567e+00 -9.382594791299343484e+00 -9.455547079803709565e+00 -9.504944454794305386e+00 -9.557682040871029017e+00 -9.617274070768834449e+00 -9.639772652233819628e+00
4.937027630342913476e+00 4.937027630342913476e+00 4.945517740125167094e+00 4.879960690439492765e+00 4.809134814704522753e+00 4.899991481611901456e+00 4.968345276898217477e+00 4.802876805574634922e+00 4.464171883892772641e+00 4.406448218390099036e+00 4.160698876739401086e+00 3.808960078427019003e+00 3.488638993001186517e+00 3.488638993001186517e+00 3.441994333492449432e+00 3.251551709970634807e+00 3.042098396947388927e+00 3.083888515567345223e+00 3.007285410844696472e+00 2.877942057041874335e+00 2.778977783706928495e+00 2.780404233531442504e+00 2.757428625482131412e+00 2.809575231881541679e+00 2.958612773843817934e+00 2.958612773843817934e+00 2.897195296172480283e+00 2.625748322305662796e+00 2.443766888250654468e+00 2.368252555578380658e+00 2.251288985398801401e+00 2.195606620159354261e+00 2.087643717588210102e+00 2.157392585178409483e+00 2.070502224445757822e+00 1.995463715736673915e+00 2.029488972400303126e+00 1.948461645754336669e+00 1.882681044528857095e+00 1.765418953621535225e+00 1.765418953621535225e+00 1.562044261193103800e+00 1.190938627295314411e+00 9.145394765253681557e-01 8.092715870992770455e-01 4.584806690156857378e-01 2.447025272038304555e-01 -4.443823881542534326e-02 -1.307501979554466787e-01 -2.402804306491730379e-01 -3.116786143119447128e-01 -4.197161579927805586e-01 -4.197161579927805586e-01 -6.749184518722330939e-01 -1.112786056732745887e+00 -1.629628397667367334e+00 -1.819818071808156024e+00 -2.690281205844084589e+00 -3.322224251473448131e+00 -3.640923408430778885e+00 -3.749732325695824375e+00 -4.040006626357051545e+00 -4.201250615475321304e+00 -4.031152113242844059e+00 -4.165483232499006760e+00 -3.735475601656983002e+00 -2.780087347482631088e+00 -2.357879922298816489e+00 -2.357879922298816489e+00 -2.473636225579309844e+00 -2.807331460255653166e+00 -2.807331460255653166e+00 -3.205315616716422511e+00 -3.606643598513698201e+00 -3.891784020141058953e+00 -4.003564300620033656e+00 -4.497526666682254870e+00 -4.880804667331698710e+00 -5.421797444479577344e+00 -5.607792498828242600e+00 -5.960992016155782558e+00 -6.377132228952117288e+00 -6.684676638424279282e+00 -6.684676638424279282e+00 -7.034872869297411846e+00 -7.321926681025523465e+00 -7.514386251608530465e+00 -7.589543945269308090e+00 -7.809704212070180063e+00 -7.930953524217503769e+00 -7.941946298739596344e+00 -7.885736187032605926e+00 -7.986268130072607718e+00 -8.073725950210366875e+00 -8.165113120439061234e+00 -8.165113120439061234e+00 -8.250794032544318313e+00 -8.407670618184157618e+00 -8.517486204128646321e+00 -8.530374470244039387e+00 -8.653310718772029730e+00 -8.768015374112675175e+00 -8.898116275884197179e+00 -8.933912990882213023e+00 -9.082031607072226009e+00 -9.144714369513836871e+00 -9.203029883439750591e+00 -9.203029883439750591e+00 -9.252767515141352206e+00 -9.320346248974724190e+00 -9.320346248974724190e+00 -9.371617318287475129e+00 -9.434330354022208098e+00 -9.557682040871029017e+00 -9.580080044222217595e+00 -9.599442203299556553e+00
4.969997742634751248e+00 4.939830876484624156e+00 4.965598274491872743e+00 4.965598274491872743e+00 4.868688985204824071e+00 5.043131963757640612e+00 4.968345276898217477e+00 4.932117606858341219e+00 4.609171811001811392e+00 4.406448218390099036e+00 4.327817016979639497e+00 4.027053955446953992e+00 3.684798466761306734e+00 3.594766097394964000e+00 3.587168991862053513e+00 3.376814725330810063e+00 3.235575078663139870e+00 3.128812770872340998e+00 3.128812770872340998e+00 3.083464818684316100e+00 2.890618149488419775e+00 2.780404233531442504e+00 2.812495840279742865e+00 2.886053681518969682e+00 2.861079529617948758e+00 3.117857046985161862e+00 3.023500467613651654e+00 2.721572917684047077e+00 2.578831631350080755e+00 2.338330729441696398e+00 2.360172644551099097e+00 2.250242146361914664e+00 2.179628587863266187e+00 2.134895534445090171e+00 2.134895534445090171e+00 2.058809304384332517e+00 2.039846226547496588e+00 1.986144411751465944e+00 2.071993830772908218e+00 1.823034085053917064e+00 1.756683372829688006e+00 1.759905662016441941e+00 1.599923772714194392e+00 1.061622556866255396e+00 6.908310227417073790e-01 4.261752467130157096e-01 4.261752467130157096e-01 1.100420012481911763e-01 -1.542406972742287607e-01 -1.542406972742287607e-01 -1.952043818496464467e-01 -3.446194621108170653e-01 -4.623606765574553856e-01 -5.194297458139434109e-01 -8.501116005880087201e-01 -1.225798088598446300e+00 -2.065135420633363861e+00 -2.277773475108598511e+00 -2.854853347953087983e+00 -3.440461178372764994e+00 -3.813385873975296381e+00 -3.813385873975296381e+00 -4.050040680354137557e+00 -4.274805973471378806e+00 -4.165483232499006760e+00 -4.016412317447330516e+00 -3.173784682152649417e+00 -2.578381488919688991e+00 -2.350597205545579271e+00 -2.441695627517624700e+00 -2.553759672585535156e+00 -2.874884737386765199e+00 -3.321607546335010319e+00 -3.321607546335010319e+00 -3.697607072716056820e+00 -4.185900197189807770e+00 -4.497526666682254870e+00 -4.766321950311515288e+00 -5.214586534844236176e+00 -5.607792498828242600e+00 -6.039700733283394740e+00 -6.125522755098248062e+00 -6.410251501669231189e+00 -6.782162610400613190e+00 -6.883727468642754310e+00 -7.094386993532512342e+00 -7.413455068467122544e+00 -7.679086590064446938e+00 -7.679086590064446938e+00 -7.710954727257537833e+00 -7.741524879629748668e+00 -7.885736187032605926e+00 -7.823926334625188161e+00 -7.910803105999276497e+00 -8.036529156196911217e+00 -8.146642577662346341e+00 -8.141076675693954101e+00 -8.282526709445994229e+00 -8.392999622868382303e+00 -8.520270259289899784e+00 -8.520270259289899784e+00 -8.635230200374484966e+00 -8.793702591613572039e+00 -8.933912990882213023e+00 -8.963194782915572034e+00 -9.055096557953513425e+00 -9.131304925066475064e+00 -9.226823355697671758e+00 -9.189085062976715790e+00 -9.245065688482856814e+00 -9.335057309805966597e+00 -9.389590391464928132e+00 -9.389590391464928132e+00 -9.517472517522122644e+00 -9.587545588959390130e+00 -9.599442203299556553e+00
5.000114507851642465e+00 4.961113781740417394e+00 4.953077287626169500e+00 4.911666054428406980e+00 4.926931297308025925e+00 5.023040741361906036e+00 5.054635302565386290e+00 4.809198234638687453e+00 4.694335982554641795e+00 4.526018430751937771e+00 4.281445051960750980e+00 3.962957706436297300e+00 3.962957706436297300e+00 3.827793889512848935e+00 3.609247962950180799e+00 3.429865910831620290e+00 3.486197437854230863e+00 3.331824422586336709e+00 3.212277334155018149e+00 3.076213457309783905e+00 3.028117975636566150e+00 2.859300067234745057e+00 2.926247712040394688e+00 2.910386776027352962e+00 2.937353779700111467e+00 3.116025194637723317e+00 2.795204169307409447e+00 2.795204169307409447e+00 2.617689169685434969e+00 2.515535397876303314e+00 2.360172644551099097e+00 2.317360267251810324e+00 2.253867201871651016e+00 2.216354165186252612e+00 2.141258731425993656e+00 2.198242852438107686e+00 2.122957637147065757e+00 2.067799486069858972e+00 1.969591296356779875e+00 1.969591296356779875e+00 1.826455281280888743e+00 1.876410130398801002e+00 1.599923772714194392e+00 1.401391634182981738e+00 8.675136627912445331e-01 6.512871612438411173e-01 4.376270832138521305e-01 3.421179958016540290e-01 6.690665384682631389e-02 -1.359433379858400182e-01 -2.301794252956529951e-01 -2.301794252956529951e-01 -3.976274993698851179e-01 -5.456609227337259060e-01 -8.501116005880087201e-01 -9.796569957098532067e-01 -1.649163201304698845e+00 -2.277773475108598511e+00 -2.489499943405860449e+00 -3.134867124094657065e+00 -3.546508633652619036e+00 -3.863249172674720455e+00 -3.927900951430306264e+00 -4.119777817992786417e+00 -4.209699258527017207e+00 -3.612381455056755009e+00 -3.612381455056755009e+00 -3.074606110665998315e+00 -2.534544613695485005e+00 -2.441695627517624700e+00 -2.483565926247703892e+00 -2.762990614440422377e+00 -2.982441294242606844e+00 -3.413347686069457598e+00 -3.548009235274952822e+00 -3.870000892058522712e+00 -4.275968400569309047e+00 -4.849781729917518547e+00 -4.849781729917518547e+00 -5.332014012519076473e+00 -5.817442511027058671e+00 -6.125522755098248062e+00 -6.267502577765334593e+00 -6.645656597770411622e+00 -6.883727468642754310e+00 -7.214888994917236786e+00 -7.275897150889649723e+00 -7.443019840778642759e+00 -7.606784897203737295e+00 -7.614207380694277383e+00 -7.614207380694277383e+00 -7.693230410440357048e+00 -7.784989856391130836e+00 -7.910803105999276497e+00 -7.942199542713845872e+00 -8.038254466386391073e+00 -8.141076675693954101e+00 -8.184697082453906702e+00 -8.300983731037561597e+00 -8.433697701155661974e+00 -8.559540781621954864e+00 -8.541860829130197175e+00 -8.669035847513967497e+00 -8.850651071155391847e+00 -8.968012754999767466e+00 -8.968012754999767466e+00 -9.060052726724428851e+00 -9.157741256939187835e+00 -9.189085062976715790e+00 -9.198929171920594783e+00 -9.314423080911122810e+00 -9.332148715934739158e+00 -9.426830718822824196e+00 -9.513281520743985809e+00 -9.559400154179412468e+00 -9.595256421108066647e+00
4.957515265844759433e+00 4.927965708838795145e+00 4.955746604663699983e+00 4.952524207946178869e+00 5.000226914911502618e+00 5.000226914911502618e+00 5.013471276550845346e+00 4.857390871669191590e+00 4.694335982554641795e+00 4.685009598566773015e+00 4.482247555403050754e+00 4.330865454229440914e+00 4.015050928208574454e+00 4.115312507113790375e+00 3.894956784737757971e+00 3.699807655280101137e+00 3.534340941645380596e+00 3.534340941645380596e+00 3.420067079250109110e+00 3.231678947848753314e+00 3.028117975636566150e+00 3.013537874521078130e+00 2.996921785640320302e+00 2.910386776027352962e+00 3.008353234496086603e+00 3.038583173005902083e+00 3.033981410651701349e+00 2.781085948556142107e+00 2.642698883338777005e+00 2.642698883338777005e+00 2.521337987095126465e+00 2.329219907832694059e+00 2.253867201871651016e+00 2.285890374617972398e+00 2.264325011922535325e+00 2.198242852438107686e+00 2.254217191335788684e+00 2.144578277108787567e+00 2.095144630274529352e+00 1.941077118014847613e+00 1.912562939672914908e+00 1.887046822544322655e+00 1.825601731940526662e+00 1.273591907671686174e+00 1.273591907671686174e+00 8.375165919154050620e-01 5.716660588511770502e-01 3.421179958016540290e-01 2.493155970154382062e-01 -2.635872821163749019e-02 -1.498239567676246109e-01 -2.870927552611254319e-01 -3.376049821096362424e-01 -4.484766085498778088e-01 -6.759030674531618654e-01 -1.117585760353076552e+00 -1.117585760353076552e+00 -1.855055955862022765e+00 -2.664467331177950538e+00 -3.134867124094657065e+00 -3.262694401230906927e+00 -3.694637586931956541e+00 -3.927900951430306264e+00 -4.195083470085663180e+00 -4.222191853567679232e+00 -4.148082465436143451e+00 -3.622665966732175669e+00 -3.135417059897297243e+00 -3.135417059897297243e+00 -2.483121527106050053e+00 -2.579614829081857241e+00 -2.579614829081857241e+00 -2.789825627580096779e+00 -3.264126308400439935e+00 -3.548009235274952822e+00 -3.673672769556523221e+00 -4.086042758725216828e+00 -4.433564183483594157e+00 -4.982423307242762611e+00 -5.090979870887608172e+00 -5.437805845176095332e+00 -5.926520929833252183e+00 -6.351751564889399404e+00 -6.351751564889399404e+00 -6.752964088119703057e+00 -7.082814497196116221e+00 -7.275897150889649723e+00 -7.303717781984017776e+00 -7.422796582537776189e+00 -7.518501981616027230e+00 -7.634459961228672320e+00 -7.565702689491338617e+00 -7.665856396410470452e+00 -7.816867077843684619e+00 -7.963177678185417108e+00 -7.963177678185417108e+00 -8.051607034826215425e+00 -8.169779050182425451e+00 -8.326515213554403161e+00 -8.326515213554403161e+00 -8.465889383591148842e+00 -8.582606572080614171e+00 -8.708316593579610299e+00 -8.764914210835655695e+00 -8.862913334135265941e+00 -8.970339364945921545e+00 -8.998512609910292781e+00 -9.088659158180703912e+00 -9.149321499715465933e+00 -9.238715713254778805e+00 -9.289147686765343082e+00 -9.304431063225731435e+00 -9.427316233290849112e+00 -9.541276529943935714e+00 -9.541276529943935714e+00 -9.607468160788744882e+00
4.929530650702488082e+00 4.927965708838795145e+00 4.983809055247516717e+00 4.978183731717820137e+00 4.957603144254809635e+00 4.989832512007708942e+00 4.924495873856133521e+00 4.924495873856133521e+00 4.779500154107471310e+00 4.737463090821365519e+00 4.737463090821365519e+00 4.603900598006093858e+00 4.405250722537923380e+00 4.115312507113790375e+00 4.204802531203459814e+00 3.976254553722570417e+00 3.742349033863646923e+00 3.564063461639007446e+00 3.595383540100474562e+00 3.424486718167120358e+00 3.202086559548514622e+00 3.011654904768705787e+00 3.011654904768705787e+00 2.971332872889535182e+00 2.965741092994184314e+00 3.038583173005902083e+00 2.999658407251607262e+00 2.789010016519500201e+00 2.750149584196844632e+00 2.696651502944017675e+00 2.693333526789851273e+00 2.493440334732427655e+00 2.346384632894396916e+00 2.337748562556562604e+00 2.337748562556562604e+00 2.337057480787323005e+00 2.250780434026062871e+00 2.144578277108787567e+00 2.110740051444482734e+00 2.025204089191145584e+00 1.912562939672914908e+00 1.909047267762830291e+00 1.820403229992433092e+00 1.654758845906409759e+00 1.106868131184501447e+00 1.023746022586968785e+00 7.629857745286399151e-01 4.761569714389790042e-01 2.367619147546513036e-01 2.367619147546513036e-01 -6.669609019092780089e-02 -2.295660484114337430e-01 -3.376049821096362424e-01 -3.359847230878776347e-01 -5.321421983071916717e-01 -8.084276216444664653e-01 -1.505953720489257908e+00 -1.630637513642545944e+00 -2.096600268474254403e+00 -2.826249419851550648e+00 -3.413733435777444036e+00 -3.413733435777444036e+00 -3.692705596804352730e+00 -4.095801108089176523e+00 -4.222191853567679232e+00 -4.242374987322828694e+00 -4.071547251311701920e+00 -3.377084895146746035e+00 -2.718492021845391182e+00 -2.525441893733511023e+00 -2.444058329834505550e+00 -2.612437196428173625e+00 -2.916805387461601562e+00 -3.029668225355946820e+00 -3.333780662101974990e+00 -3.728733175188909232e+00 -4.230078153951719599e+00 -4.230078153951719599e+00 -4.784624952473181203e+00 -5.192457257453911623e+00 -5.612754465904242096e+00 -5.731548211964906159e+00 -6.220474501970643111e+00 -6.497677095245165013e+00 -6.615997475499290736e+00 -6.945205858076577421e+00 -7.139263437315432448e+00 -7.387281830132611304e+00 -7.273043447362154801e+00 -7.395831401333319732e+00 -7.484066515377874929e+00 -7.566202148103358560e+00 -7.566202148103358560e+00 -7.722537464360621051e+00 -7.873476875296573141e+00 -7.913942513387823396e+00 -7.963813130992287270e+00 -8.114270084308200737e+00 -8.208967839206740891e+00 -8.329356054743609405e+00 -8.364352106275269705e+00 -8.448491457885909384e+00 -8.622930595545650334e+00 -8.789257286905096223e+00 -8.789257286905096223e+00 -8.885582171938329665e+00 -9.028834249154799707e+00 -9.088659158180703912e+00 -9.107782404517186237e+00 -9.204247971295096420e+00 -9.289147686765343082e+00 -9.369270028217368207e+00 -9.393047966150342987e+00 -9.498274213839984270e+00 -9.625580219169398433e+00 -9.676510903311422496e+00
5.038113956107182823e+00 4.900109758263258897e+00 4.960770563438281933e+00 4.978183731717820137e+00 4.966711438580691862e+00 4.961883755777790839e+00 4.972046961707322410e+00 4.875479111790851583e+00 4.861703628174734781e+00 4.849247346526196267e+00 4.683050058845349639e+00 4.726638345262218266e+00 4.726638345262218266e+00 4.393416335158640607e+00 4.247227831718136670e+00 3.976254553722570417e+00 3.977515593291475859e+00 3.799076421782216162e+00 3.595383540100474562e+00 3.398305610190824222e+00 3.376546791778116674e+00 3.173645819449442129e+00 3.046398976902624955e+00 3.065983738368608158e+00 3.010364857093865254e+00 2.977873457206686503e+00 2.888215413455445635e+00 2.888215413455445635e+00 2.800747522420222957e+00 2.877810752515496340e+00 2.693333526789851273e+00 2.643505542809063247e+00 2.467630474371650617e+00 2.322549957912027452e+00 2.389296213517852596e+00 2.429498978121984010e+00 2.381391660945050059e+00 2.229550233003356752e+00 2.133680697974072782e+00 2.241186932844422941e+00 2.060259940150960034e+00 1.887749108214051397e+00 1.845128269057888737e+00 1.845128269057888737e+00 1.403727108747445440e+00 9.558881625374500146e-01 7.057050344885020809e-01 6.647857592144111871e-01 5.221557873039401887e-01 1.476583903651777496e-01 -7.786069286786227728e-02 -1.380323586751903697e-01 -2.719053960101405765e-01 -2.858147225142474435e-01 -5.097464073899973247e-01 -5.097464073899973247e-01 -1.223471845794875446e+00 -1.672303415855432629e+00 -1.672303415855432629e+00 -2.496714152615838955e+00 -3.044575630961743773e+00 -3.450114646749699254e+00 -3.537197378365162681e+00 -3.922101038492038505e+00 -4.071316330381673509e+00 -4.114564213311982854e+00 -4.057824293398347493e+00 -3.954332314783332691e+00 -2.970197943216671632e+00 -2.401480714969550956e+00 -2.401480714969550956e+00 -2.400920524186860749e+00 -2.779578191896889816e+00 -3.029668225355946820e+00 -3.138455869137912302e+00 -3.638940633533275015e+00 -3.921849608567738787e+00 -4.426347114189168153e+00 -4.585937823553323689e+00 -4.902267287090679382e+00 -5.388391807577448844e+00 -5.797064123695886195e+00 -5.797064123695886195e+00 -6.295147632308870200e+00 -6.589573567297794199e+00 -6.945205858076577421e+00 -6.951137728445248243e+00 -7.162904887916691443e+00 -7.273043447362154801e+00 -7.345890622346304077e+00 -7.353425268172546048e+00 -7.482354685115325310e+00 -7.597204999490458910e+00 -7.628207850877559260e+00 -7.753540315747721401e+00 -7.789630560389257496e+00 -7.978312403642002337e+00 -7.978312403642002337e+00 -8.111240038021486853e+00 -8.236122289239057537e+00 -8.364352106275269705e+00 -8.355122086641623369e+00 -8.537544597511690370e+00 -8.667832186862659327e+00 -8.757813913270762640e+00 -8.800824978930737785e+00 -8.928419810385650024e+00 -9.019577059422219989e+00 -9.116945049205009255e+00 -9.116945049205009255e+00 -9.233053867867898390e+00 -9.367652572537743083e+00 -9.393047966150342987e+00 -9.471301881020266933e+00 -9.594685342359857927e+00 -9.650694256103394153e+00
4.939233095057396383e+00 4.926814352894965943e+00 4.953739575182595445e+00 4.980460200270792726e+00 4.982076339596750003e+00 4.946755330784110782e+00 4.938738608558447929e+00 4.887894672577845157e+00 4.943496206960788619e+00 4.943496206960788619e+00 4.840322535481538679e+00 4.880308319129055938e+00 4.741441104713308263e+00 4.649469380910959515e+00 4.387935651832184369e+00 4.185460449407330863e+00 4.030199502008121826e+00 4.060598923970146323e+00 3.806644853270181539e+00 3.591644297329077418e+00 3.360348728266766116e+00 3.360348728266766116e+00 3.195513501026599368e+00 3.122479798416361252e+00 2.972067775306477699e+00 3.027467777384107883e+00 2.938824839211780837e+00 2.823768772072434263e+00 2.794636265833273292e+00 2.947402524330789753e+00 2.849585812821982422e+00 2.588373034940942397e+00 2.661339858672779890e+00 2.520716705922387835e+00 2.446243346301833821e+00 2.462670506669723203e+00 2.462670506669723203e+00 2.358832566439943879e+00 2.326288114444603483e+00 2.241186932844422941e+00 2.232476645549104965e+00 2.016116427033311620e+00 1.876965822072198531e+00 1.758929628008288448e+00 1.670291930381577084e+00 1.297362987124716982e+00 9.248836447377215553e-01 5.945710618249013812e-01 5.945710618249013812e-01 4.123899237285855723e-01 6.575192355912141962e-02 -1.380323586751903697e-01 -1.343432969003374444e-01 -2.371311419381116614e-01 -3.296498935039917644e-01 -5.930953061182261399e-01 -6.658059745733690971e-01 -1.499846700496969554e+00 -1.871425985500847267e+00 -2.660429114335733480e+00 -2.660429114335733480e+00 -3.246161555352888861e+00 -3.711672415467984099e+00 -3.922101038492038505e+00 -3.916475221429753795e+00 -4.024033935015776997e+00 -4.057824293398347493e+00 -3.557295868895260060e+00 -3.472703393541768158e+00 -2.816764860948097748e+00 -2.478724004351986032e+00 -2.447371358725403567e+00 -2.471181410673784384e+00 -2.795029390639289790e+00 -3.268894753261875952e+00 -3.268894753261875952e+00 -3.677988879043333270e+00 -4.115737042609255880e+00 -4.585937823553323689e+00 -4.624034148103540076e+00 -5.097968787690031256e+00 -5.487932916869296740e+00 -5.965912104482558931e+00 -6.001445276313926769e+00 -6.328138870427689966e+00 -6.708312934015715712e+00 -6.916302356449603117e+00 -6.916302356449603117e+00 -7.054288662799089948e+00 -7.174550908494798485e+00 -7.353425268172546048e+00 -7.389243497098705760e+00 -7.528145978557119200e+00 -7.628207850877559260e+00 -7.783776072407728286e+00 -7.665318607390691596e+00 -7.876399327458969424e+00 -8.027506549836166627e+00 -8.082594346769255367e+00 -8.082594346769255367e+00 -8.262814828959390567e+00 -8.409748021213911073e+00 -8.537544597511690370e+00 -8.570750162889664736e+00 -8.661993329816059628e+00 -8.800824978930737785e+00 -8.858327010861005490e+00 -8.950494960663734290e+00 -9.054195183509536449e+00 -9.180579650490793497e+00 -9.148509519567747716e+00 -9.193277871162344184e+00 -9.358779699009835085e+00 -9.531477830348181968e+00 -9.531477830348181968e+00 -9.568218860914836199e+00
4.941826136390082169e+00 4.938047742463109735e+00 4.945342417471205287e+00 4.972566535533500698e+00 4.967859770575925538e+00 4.946755330784110782e+00 4.907685486051930113e+00 4.895062783282988050e+00 4.877589786732420940e+00 4.964409322907716415e+00 4.935367050012168910e+00 4.779744033731420316e+00 4.847492172669255694e+00 4.613176347103602915e+00 4.613176347103602915e+00 4.285106882576466880e+00 4.266605238620947205e+00 4.060598923970146323e+00 4.054978406005362856e+00 3.809251917498472473e+00 3.591837426381391474e+00 3.386146852211151526e+00 3.441722473754625256e+00 3.284309419225262427e+00 3.128517766367691522e+00 3.042776620858195002e+00 3.042776620858195002e+00 2.933932806069891708e+00 2.905358989222126986e+00 2.947402524330789753e+00 2.944175884400461296e+00 2.770242430604939798e+00 2.661339858672779890e+00 2.536106387999143230e+00 2.569831583166348743e+00 2.472863189131039530e+00 2.471346218065910705e+00 2.427540294036248714e+00 2.427540294036248714e+00 2.404417378375725445e+00 2.126997780988783671e+00 2.016116427033311620e+00 2.056151639292234101e+00 1.949834554416977284e+00 1.670291930381577084e+00 1.552534325748627486e+00 1.155533396232807819e+00 8.716160537844535039e-01 6.720390669285158936e-01 6.069554320392235303e-01 3.180869687665425216e-01 3.239446161294009391e-02 -1.946636914912437955e-01 -1.946636914912437955e-01 -2.544695712869619042e-01 -4.785703974755356471e-01 -6.658059745733690971e-01 -8.223742901029778007e-01 -1.460704835032934801e+00 -2.066746907690093948e+00 -2.780899418307992033e+00 -2.941324338174879038e+00 -3.414281216243488348e+00 -3.738756459750955496e+00 -3.924989439074662023e+00 -3.924989439074662023e+00 -4.002525818687614034e+00 -3.766619291915049850e+00 -3.472703393541768158e+00 -3.248618322592458085e+00 -2.703090059343680629e+00 -2.447371358725403567e+00 -2.532336981268398457e+00 -2.624521464974050922e+00 -2.900216771117886339e+00 -3.390158881308521721e+00 -3.738590678901741349e+00 -3.738590678901741349e+00 -4.267547831973177885e+00 -4.697018930127804914e+00 -4.697018930127804914e+00 -5.201732322222594185e+00 -5.661825022542134711e+00 -6.001445276313926769e+00 -6.017742355763000539e+00 -6.469605891967554534e+00 -6.696323721936300544e+00 -6.879555658516899541e+00 -6.836242880888088180e+00 -7.040683035591657202e+00 -7.190796446249675178e+00 -7.353001192554108556e+00 -7.353001192554108556e+00 -7.549923092692145232e+00 -7.690213553651758183e+00 -7.665318607390691596e+00 -7.788985523925648025e+00 -7.901138869540486276e+00 -7.976444809359525934e+00 -8.151754717184886090e+00 -8.162791838257144050e+00 -8.261752715397337354e+00 -8.449081650278744249e+00 -8.626987888930385040e+00 -8.626987888930385040e+00 -8.716067785923144129e+00 -8.881334930562942986e+00 -8.950494960663734290e+00 -9.000607962501888437e+00 -9.140414085471945782e+00 -9.178139641109019919e+00 -9.351642476343048571e+00 -9.324885473119323365e+00 -9.540866082392225778e+00 -9.568725603974336025e+00 -9.712525662630675072e+00
4.956827508299590512e+00 4.953181488053348680e+00 4.929914271504129530e+00 4.917252265214855811e+00 4.917252265214855811e+00 4.923314120861591370e+00 4.909609781028407838e+00 4.895062783282988050e+00 4.895123514529922559e+00 4.961897220129653618e+00 4.935367050012168910e+00 4.883728495148115023e+00 4.924895425984574082e+00 4.827944640214610672e+00 4.545182747003343238e+00 4.352279034630531562e+00 4.352279034630531562e+00 4.312088999986130489e+00 4.026660665206152956e+00 4.026660665206152956e+00 3.798571913118115262e+00 3.622651050557025076e+00 3.441722473754625256e+00 3.502635100081916253e+00 3.277324042602178356e+00 3.138652252806950926e+00 3.005507666361941777e+00 3.029711766809644491e+00 2.947103537213189739e+00 3.002086977521369882e+00 2.953580780971135411e+00 2.953580780971135411e+00 2.855550659363108146e+00 2.704131456445670878e+00 2.569831583166348743e+00 2.603556778333554256e+00 2.544330561549365655e+00 2.502539927661915797e+00 2.481590784273113748e+00 2.513537413873036641e+00 2.360984917718225606e+00 2.168801594885615192e+00 2.090653473501120629e+00 2.090653473501120629e+00 1.834742661948115305e+00 1.439933948755758530e+00 1.155533396232807819e+00 1.075986608780067133e+00 7.289546206618473523e-01 6.069554320392235303e-01 3.144835271936277099e-01 1.914773548146236348e-01 -6.432532668388872554e-02 -1.908767592328244334e-01 -3.020376885094933628e-01 -3.020376885094933628e-01 -5.190003004472983905e-01 -9.824839008291542664e-01 -9.824839008291542664e-01 -1.547027579254912411e+00 -2.433292642376440718e+00 -2.941324338174879038e+00 -3.066646066468789567e+00 -3.559060800869832342e+00 -3.773930732232944507e+00 -3.933503656719571140e+00 -4.059209458464300369e+00 -4.125038592136713866e+00 -3.844751538050942496e+00 -3.163874132885594381e+00 -3.163874132885594381e+00 -2.493822193263946385e+00 -2.332787596256997720e+00 -2.624521464974050922e+00 -2.735121430395011100e+00 -3.136171621124016262e+00 -3.420663743812780044e+00 -3.821279462223824197e+00 -3.931462729414731516e+00 -4.441197632361053138e+00 -4.806402959012720189e+00 -5.254208707646821352e+00 -5.340682419284183524e+00 -5.688250616858330666e+00 -6.056900598298108562e+00 -6.437890051798671465e+00 -6.437890051798671465e+00 -6.589311794807654721e+00 -6.842517341540195197e+00 -6.995632626503793361e+00 -7.065599943017643270e+00 -7.311906686997014404e+00 -7.384193421482573960e+00 -7.378841787359345261e+00 -7.593477320962198185e+00 -7.541006654392124808e+00 -7.771927724830097972e+00 -7.774771189244805036e+00 -7.858130623450217733e+00 -8.067387145130716419e+00 -8.168383344153049563e+00 -8.168383344153049563e+00 -8.356255561233286500e+00 -8.549098441889668720e+00 -8.579121314163183243e+00 -8.631310592915550473e+00 -8.784518003507633566e+00 -8.881412861905250367e+00 -9.030956472864529516e+00 -9.088534466831257319e+00 -9.070133939612462726e+00 -9.321580005042246597e+00 -9.428271522629461998e+00 -9.428271522629461998e+00 -9.543516066501808837e+00 -9.724223384943760706e+00
4.956827508299590512e+00 4.971407339450386154e+00 4.911033483934312827e+00 4.964672870796210447e+00 4.944438018022654369e+00 4.903755604011549529e+00 4.900416311734203667e+00 4.906340134896470140e+00 4.939274090487178803e+00 4.939274090487178803e+00 4.971178088597175027e+00 4.871888463473162290e+00 4.924895425984574082e+00 4.933684587416580669e+00 4.647926156724785152e+00 4.433793373041543084e+00 4.440659016290823935e+00 4.475614485386021357e+00 4.310271416224447094e+00 4.026161991720122124e+00 3.799840485075770324e+00 3.799840485075770324e+00 3.668472657416965710e+00 3.500874180151927639e+00 3.277324042602178356e+00 3.252916867003074142e+00 3.097339765610431783e+00 3.029711766809644491e+00 2.998752850321917407e+00 3.081356026371998347e+00 3.031069610203414921e+00 2.954773096239228458e+00 2.992703517428480176e+00 3.008456087267262102e+00 2.734637988751878801e+00 2.575134041076886593e+00 2.575134041076886593e+00 2.612722536532465778e+00 2.602192214351320310e+00 2.513537413873036641e+00 2.553274465274609550e+00 2.303112593070714809e+00 2.225852200193062735e+00 2.100755542318388347e+00 2.051083600065439771e+00 1.802939329974594163e+00 1.339515551490642054e+00 9.777306612318028556e-01 8.942127216811663892e-01 7.132701561204328744e-01 4.769234406983611230e-01 1.201091410496276102e-01 1.201091410496276102e-01 -1.192037746662749781e-01 -2.517015747809110970e-01 -3.630217309337578357e-01 -3.844942487725091507e-01 -6.748183784557744147e-01 -1.121208468552215010e+00 -1.826527464644542409e+00 -2.038234625623282170e+00 -2.624912546139040792e+00 -3.214053401551874245e+00 -3.642980832755291942e+00 -3.642980832755291942e+00 -3.830869991126938157e+00 -4.125829161634581688e+00 -4.125829161634581688e+00 -4.040297582000436982e+00 -3.554241781056574290e+00 -2.937404769215752331e+00 -2.758601986675898843e+00 -2.322585642651314952e+00 -2.421558462451816496e+00 -2.876134778745973453e+00 -2.926175451980970177e+00 -3.180020535360680078e+00 -3.560314570437055792e+00 -4.136865282652062881e+00 -4.136865282652062881e+00 -4.499195190072500239e+00 -4.989372879938009930e+00 -5.340682419284183524e+00 -5.398323475256726844e+00 -5.792933922077412312e+00 -6.221697609445545396e+00 -6.398494084773883372e+00 -6.349837447496485154e+00 -6.632285474111125900e+00 -6.810870592137700186e+00 -7.032867261170115292e+00 -7.032867261170115292e+00 -7.208138870219606531e+00 -7.427070470141826419e+00 -7.593477320962198185e+00 -7.462147203151315189e+00 -7.718985414120401956e+00 -7.774771189244805036e+00 -7.915370573540279509e+00 -8.031088449521181616e+00 -8.090739915795683856e+00 -8.263931172802440273e+00 -8.401464628551662983e+00 -8.401464628551662983e+00 -8.531691132801153543e+00 -8.737876167838223296e+00 -8.737876167838223296e+00 -8.828772405399147871e+00 -8.997200084773925965e+00 -9.088534466831257319e+00 -9.050945561656069671e+00 -9.275655006798455560e+00 -9.306677244487826073e+00 -9.548332877327220913e+00 -9.467264847054250865e+00 -9.654233594766873594e+00
