3.293808316559202476e-01 5.114896139388707130e-01 7.387470330530681029e-01 7.485625655497042397e-01 8.534110516731227003e-01 9.353947677968246222e-01 9.737504362800457614e-01 1.058298291354969001e+00 1.130166451891070567e+00 1.130166451891070567e+00 1.163642992754193140e+00 1.191444575354768887e+00 1.195609227781292194e+00 1.193753649965028973e+00 1.224302541036299541e+00 1.240556822813057014e+00 1.259087126328496842e+00 1.282041723884422613e+00 1.270308161236588518e+00 1.275362031200317769e+00 1.316640369112907827e+00 1.316640369112907827e+00 1.339034745242407620e+00 1.304093479317500082e+00 1.255424855556445340e+00 1.171973179612627813e+00 9.528670333058373298e-01 8.435647129202735739e-01 5.103620685814298508e-01 3.044273973944887635e-01 1.875979909747565177e-01 2.929599126563665196e-02 -3.968734279974663326e-01 -3.968734279974663326e-01 -1.257084043400710449e+00 -2.350373079113690089e+00 -2.639158764279756042e+00 -2.847740040566430153e+00 -3.107871503774806587e+00 -3.168954733923109224e+00 -3.275211439926823065e+00 -3.350729777632746931e+00 -3.394121052854430332e+00 -3.271376081944757708e+00 -3.112942759349548449e+00 -3.047714350997653199e+00 -2.875156496972362863e+00 -2.768348519250970252e+00 -2.768348519250970252e+00 -2.740797011033140329e+00 -2.678554189203016023e+00 -2.596809920996888010e+00 -2.499043944634833814e+00 -2.570778366168036566e+00 -2.661813938490367626e+00 -3.116431280920924252e+00 -3.451857645025824262e+00 -3.655729379878796870e+00 -4.349478248699226057e+00 -4.965420787282196713e+00 -4.965420787282196713e+00 -5.426726683089921011e+00 -5.777233235196213457e+00 -5.858337407357807614e+00 -6.083861042740558389e+00 -6.359415964758394324e+00 -6.430268378157122378e+00 -6.667096414856798603e+00 -6.784429000766873941e+00 -6.846311690398039218e+00 -7.059314872205143310e+00 -7.247596542720463830e+00 -7.247596542720463830e+00 -7.426979382529330209e+00 -7.615005786333664872e+00 -7.629671867138273278e+00 -7.726519550697224403e+00 -7.906686240257740472e+00 -7.944558893082816375e+00 -8.026407368982493296e+00 -8.145257499819635427e+00 -8.182259154757097974e+00 -8.319948498528093594e+00 -8.408710255584152193e+00 -8.438593545437775845e+00 -8.538890347582700713e+00 -8.643928439457056356e+00 -8.643928439457056356e+00 -8.712463031476088915e+00 -8.801806127257512102e+00 -8.834884687499894085e+00 -8.906067841178845867e+00 -8.988453265736536579e+00 -9.006273651797881641e+00 -9.083141540007707349e+00 -9.128505938792633501e+00 -9.152815302886303073e+00 -9.245075173036148897e+00 -9.290879826172592004e+00 -9.290879826172592004e+00 -9.357269239184899945e+00 -9.441098244306985521e+00 -9.480395715460600670e+00 -9.518768705625966220e+00 -9.559769127068257433e+00 -9.589710191021570296e+00 -9.633627302848649876e+00 -9.678195045735968449e+00 -9.763383114028130194e+00 -9.797024572114043650e+00 -9.851659484808392264e+00 -9.851659484808392264e+00 -9.913546522552531215e+00 -9.973762152644349399e+00 -9.973762152644349399e+00 -1.005743933011097901e+01
4.730576025081264513e-01 7.253313307687271339e-01 7.387470330530681029e-01 7.851580826103369271e-01 8.744669425497896276e-01 9.353947677968246222e-01 1.020016661445999118e+00 1.070279828682979772e+00 1.096595630452703585e+00 1.146223829137217098e+00 1.177848192970936569e+00 1.177848192970936569e+00 1.187555374907016903e+00 1.199752197063017611e+00 1.224302541036299541e+00 1.223432972621667947e+00 1.256540179231566245e+00 1.282041723884422613e+00 1.276111007466305569e+00 1.289524080246764015e+00 1.301744496899559289e+00 1.329543548267731135e+00 1.341606232763657758e+00 1.328848904249772200e+00 1.222695101062357237e+00 1.054178649577822924e+00 1.054178649577822924e+00 7.953486124874702412e-01 4.520147617343335811e-01 3.044273973944887635e-01 2.214353756331587930e-01 -3.728964588819607545e-02 -2.327468035929107226e-01 -6.635191260539676783e-01 -1.429174799912408700e+00 -1.950815438878223951e+00 -2.706131588233416707e+00 -3.010793450557376350e+00 -3.010793450557376350e+00 -3.218109978810374194e+00 -3.320288061215406206e+00 -3.350729777632746931e+00 -3.326592767207912971e+00 -3.168644405342137649e+00 -3.112942759349548449e+00 -2.924500606300426409e+00 -2.824974989195408792e+00 -2.781328421072316814e+00 -2.709114354505467226e+00 -2.688705178178602218e+00 -2.688705178178602218e+00 -2.581038900915643808e+00 -2.517612923168907724e+00 -2.517612923168907724e+00 -2.796786074784963994e+00 -3.242082924107830166e+00 -3.451857645025824262e+00 -3.820474651263000787e+00 -4.471731563778300611e+00 -4.753953375852438157e+00 -5.276065231104155373e+00 -5.528680794742344418e+00 -5.677559958959933262e+00 -5.961572218450227112e+00 -6.246663618062424206e+00 -6.246663618062424206e+00 -6.491880781693753377e+00 -6.710150412811776377e+00 -6.784429000766873941e+00 -6.930647432035911493e+00 -7.091107715393228261e+00 -7.176810684950340580e+00 -7.362533856657637266e+00 -7.465678568531607162e+00 -7.523869674686229914e+00 -7.702192369394563087e+00 -7.818824699115666021e+00 -7.818824699115666021e+00 -7.989405714045030749e+00 -8.108255844882171104e+00 -8.145257499819635427e+00 -8.227105975719311459e+00 -8.349472421710467884e+00 -8.408710255584152193e+00 -8.519272318217096185e+00 -8.575274098481013851e+00 -8.594892127846618379e+00 -8.694457079070062377e+00 -8.744384807471581311e+00 -8.769188751518601777e+00 -8.858002285055299296e+00 -8.969437803264741049e+00 -9.013299082016438035e+00 -9.026898428928895157e+00 -9.119650481183313673e+00 -9.189370625511774193e+00 -9.189370625511774193e+00 -9.261756118758130540e+00 -9.319202340435188248e+00 -9.345086052677785915e+00 -9.388724117230131228e+00 -9.461985280426738143e+00 -9.499602742035097691e+00 -9.537943703060308920e+00 -9.583137145771193133e+00 -9.598521980424123967e+00 -9.636635029379874595e+00 -9.756445265537520228e+00 -9.756445265537520228e+00 -9.812075293042358481e+00 -9.866157152616320758e+00 -9.907135863699064515e+00 -9.926877061509763678e+00 -9.988572604652116382e+00 -1.005353038791167819e+01 -1.006718987945968813e+01
5.840233266599124118e-01 5.977039627079269168e-01 7.965284086252901741e-01 8.432358463082002542e-01 8.432358463082002542e-01 9.425162947228833410e-01 1.025694890851466923e+00 1.070279828682979772e+00 1.109743832752923209e+00 1.147901012206247184e+00 1.157379252939586545e+00 1.176861233383152960e+00 1.181569640706669144e+00 1.192418082839729054e+00 1.217710449248249116e+00 1.245491552670218161e+00 1.245491552670218161e+00 1.279861871363614290e+00 1.279730292084282794e+00 1.289524080246764015e+00 1.303953971707030091e+00 1.327530474046760833e+00 1.341606232763657758e+00 1.258784256714982064e+00 1.180758469467880545e+00 1.132992893603778750e+00 9.074399958312722170e-01 7.562113514348813847e-01 5.946506512407787604e-01 2.322285756503766896e-01 1.252389282576289731e-01 1.252389282576289731e-01 -2.882466990461637346e-01 -9.898156818417482850e-01 -1.429174799912408700e+00 -2.056173196307701012e+00 -2.889385503981894754e+00 -2.939124313401638489e+00 -3.177100002794942313e+00 -3.300959840552426083e+00 -3.301950154540952642e+00 -3.315553060910382044e+00 -3.216243303390209363e+00 -3.216243303390209363e+00 -3.044230230881591837e+00 -2.860898694099993200e+00 -2.824974989195408792e+00 -2.770232355812917824e+00 -2.690130864785024833e+00 -2.706167102345372832e+00 -2.631633899540510857e+00 -2.546476172404349647e+00 -2.514275171005031950e+00 -2.663105822782817267e+00 -3.069402458834424863e+00 -3.069402458834424863e+00 -3.596246657931671642e+00 -4.228874401828027096e+00 -4.471731563778300611e+00 -4.868844013792509529e+00 -5.374355509321146585e+00 -5.769862346373557216e+00 -5.863453167520184195e+00 -6.046080188457720439e+00 -6.283992802355801821e+00 -6.409674409329096711e+00 -6.526264812509700697e+00 -6.764516832076264308e+00 -6.831216847563904793e+00 -7.017000451562152463e+00 -7.131494013890682382e+00 -7.212945739099845710e+00 -7.395393088902252998e+00 -7.574229367311980710e+00 -7.574229367311980710e+00 -7.685817304790306892e+00 -7.873988712056484651e+00 -7.937773389761692222e+00 -7.996183539654206918e+00 -8.119257244829412912e+00 -8.183920800112105098e+00 -8.305665134089228019e+00 -8.368043558284949057e+00 -8.424357866776739812e+00 -8.549301546441789412e+00 -8.631275878744931518e+00 -8.631275878744931518e+00 -8.725356180876566725e+00 -8.802312894298811585e+00 -8.834512699922360213e+00 -8.881686589045965974e+00 -9.002793785192157117e+00 -9.013299082016438035e+00 -9.094243835998653935e+00 -9.156159422358921773e+00 -9.164453377732721506e+00 -9.230677583445519474e+00 -9.316643024038642196e+00 -9.316643024038642196e+00 -9.367181812941995034e+00 -9.440583426972885661e+00 -9.440583426972885661e+00 -9.515498282239068573e+00 -9.569873176997983677e+00 -9.583137145771193133e+00 -9.614160822151095687e+00 -9.668748732047728112e+00 -9.703566283681254845e+00 -9.812106260297756677e+00 -9.826301534823778994e+00 -9.870890358504068374e+00 -9.924287132081403229e+00 -9.968730706261728969e+00 -9.968730706261728969e+00 -1.007702424063969815e+01 -1.008887373537853094e+01
5.840233266599124118e-01 7.324080363828601170e-01 7.974088168943002097e-01 8.310614612066630214e-01 8.958772264023233678e-01 9.502123479635740111e-01 9.971880598927905792e-01 1.084241250671875711e+00 1.140227794636122116e+00 1.140227794636122116e+00 1.164450052788119860e+00 1.189400272860475116e+00 1.181569640706669144e+00 1.196637755453298979e+00 1.226833470412495242e+00 1.232187094879643841e+00 1.257380581953605914e+00 1.280911304379762639e+00 1.283989962262126028e+00 1.282604039010497798e+00 1.333655999258952507e+00 1.333655999258952507e+00 1.328869125583887811e+00 1.242693039190100768e+00 1.180758469467880545e+00 1.094799606414032844e+00 8.680821233284407024e-01 7.562113514348813847e-01 3.725805192460071025e-01 1.598013938734725303e-01 7.062183974782614004e-02 -1.118993675503682367e-01 -5.433679501155027625e-01 -1.104439812141186250e+00 -1.497580483768191639e+00 -2.730930399478885828e+00 -3.030904818923067623e+00 -3.030904818923067623e+00 -3.249807228454933750e+00 -3.417680334606933990e+00 -3.417680334606933990e+00 -3.298829337387822136e+00 -3.096444315432568040e+00 -3.033802300871469626e+00 -2.913354701024344795e+00 -2.802063956085000029e+00 -2.783331628514046585e+00 -2.708265744334218184e+00 -2.663458311658959410e+00 -2.670101186458447629e+00 -2.573760740884239340e+00 -2.488706877568159115e+00 -2.488706877568159115e+00 -2.675737626226340815e+00 -3.146823115313051034e+00 -3.323515963080719615e+00 -3.744847749520712643e+00 -4.360174988346741998e+00 -4.609582349406579738e+00 -5.204556952601996578e+00 -5.481462706367095983e+00 -5.621500868976429643e+00 -5.951220791798705889e+00 -6.204290809219357605e+00 -6.204290809219357605e+00 -6.475044834447248654e+00 -6.662208252135624953e+00 -6.764516832076264308e+00 -6.881933129391386572e+00 -7.051136784545597891e+00 -7.131494013890682382e+00 -7.321899376010100546e+00 -7.428023666089546673e+00 -7.485997450608447679e+00 -7.630854769176011132e+00 -7.749488358806051025e+00 -7.807915195680325660e+00 -7.962613690790281140e+00 -8.054286493908298539e+00 -8.054286493908298539e+00 -8.196166471711880064e+00 -8.334440686726411585e+00 -8.368043558284949057e+00 -8.442245100255426848e+00 -8.548680360404631529e+00 -8.605818173071185129e+00 -8.719653009567219115e+00 -8.756255282683069296e+00 -8.775872315020198045e+00 -8.869022975750832316e+00 -8.962786579657427311e+00 -8.962786579657427311e+00 -9.039912320096469500e+00 -9.120535142515992177e+00 -9.156159422358921773e+00 -9.200627834293392482e+00 -9.261965357433339818e+00 -9.276473964632804936e+00 -9.347524854697784491e+00 -9.389277573206204153e+00 -9.419106152747307448e+00 -9.482872316546492542e+00 -9.577411334157842404e+00 -9.577411334157842404e+00 -9.606505164474123504e+00 -9.661593669026615316e+00 -9.668748732047728112e+00 -9.731579793367995279e+00 -9.813104288252219476e+00 -9.826301534823778994e+00 -9.885706323246974847e+00 -9.941438400463743719e+00 -9.942595306755094953e+00 -1.000384807060703274e+01 -1.009401120537717134e+01 -1.007784506864065577e+01
7.386556880489194565e-01 7.549275764728546889e-01 8.479336451247946327e-01 8.479336451247946327e-01 9.007376507763662499e-01 1.007918321394301264e+00 1.054063153764085436e+00 1.080720474664212727e+00 1.145870379921090310e+00 1.157140495438466532e+00 1.190145052511776491e+00 1.198034630988543681e+00 1.191276366853345703e+00 1.216380549020285473e+00 1.225800215465623566e+00 1.228144139343727570e+00 1.253852764693169419e+00 1.285258300111521201e+00 1.285258300111521201e+00 1.292908453063732921e+00 1.328943958562002869e+00 1.336614521214537277e+00 1.331698677700693390e+00 1.214404937082690372e+00 1.147954135210488946e+00 9.685651750524884029e-01 8.254961919122885128e-01 7.172581977845281509e-01 3.230164429258122194e-01 9.006123258598158765e-02 9.006123258598158765e-02 -1.864351270426038709e-01 -6.797987531697906594e-01 -1.104439812141186250e+00 -1.756327235549951959e+00 -2.770882343633881639e+00 -2.966464065425284957e+00 -3.220416575431241046e+00 -3.389531216132247504e+00 -3.397719329064256666e+00 -3.390830749682277379e+00 -3.157658430613132339e+00 -3.157658430613132339e+00 -2.928142722948171794e+00 -2.790729775860205208e+00 -2.802063956085000029e+00 -2.741008027466552477e+00 -2.661010363829434677e+00 -2.663458311658959410e+00 -2.587759360700057965e+00 -2.517473019132688616e+00 -2.501052192200665214e+00 -2.575039195770743028e+00 -2.776214180471703319e+00 -2.971998967023454341e+00 -3.483677152777892694e+00 -4.153765831051148716e+00 -4.153765831051148716e+00 -4.778457143262212270e+00 -5.324389156731283990e+00 -5.481462706367095983e+00 -5.685852837465730225e+00 -6.019986155218832735e+00 -6.109956184924249634e+00 -6.365793487589388455e+00 -6.531516799324516676e+00 -6.564480229555980095e+00 -6.801453212302049245e+00 -6.971944213136776369e+00 -6.971944213136776369e+00 -7.145026999552110958e+00 -7.344985935512773345e+00 -7.428023666089546673e+00 -7.499501136547435998e+00 -7.657380110664295358e+00 -7.749488358806051025e+00 -7.886803257270004863e+00 -7.980281712456008592e+00 -8.053394021050616303e+00 -8.159646120080040532e+00 -8.263339258675879151e+00 -8.263339258675879151e+00 -8.419827431248528171e+00 -8.511090693476793589e+00 -8.548680360404631529e+00 -8.621332723507498130e+00 -8.747845768236002684e+00 -8.756255282683069296e+00 -8.801649917854565075e+00 -8.895143044860416737e+00 -8.906830108798120094e+00 -9.037505819271773433e+00 -9.062065337502062334e+00 -9.091659717165207155e+00 -9.179548496491637621e+00 -9.257523911357450785e+00 -9.257523911357450785e+00 -9.290998676119723854e+00 -9.372928290230094106e+00 -9.389277573206204153e+00 -9.446055650836495232e+00 -9.502320147367221637e+00 -9.530451163152207528e+00 -9.601802650935661987e+00 -9.632994297167602582e+00 -9.634363613002426163e+00 -9.702471236903051022e+00 -9.777559283157902570e+00 -9.777559283157902570e+00 -9.838667554980167651e+00 -9.905255493877628936e+00 -9.941438400463743719e+00 -9.958642564539189834e+00 -1.001912353656194732e+01 -1.009401120537717134e+01 -1.011055759129737552e+01
7.743996128249119870e-01 8.060106657945086406e-01 7.921961201061945568e-01 8.544465426621999926e-01 9.143794488857985847e-01 9.604461823244052621e-01 1.060747746952774850e+00 1.120320492333537699e+00 1.120320492333537699e+00 1.165305519640538190e+00 1.169863532388372596e+00 1.198034630988543681e+00 1.188562697400924906e+00 1.225443901422440751e+00 1.225800215465623566e+00 1.242787348930731062e+00 1.276248469190172541e+00 1.285057319998168746e+00 1.280512376107312278e+00 1.308994435871720929e+00 1.308994435871720929e+00 1.330974646073851186e+00 1.288615955225702603e+00 1.214404937082690372e+00 1.126350295835603976e+00 9.105186746994935465e-01 8.254961919122885128e-01 6.779185902919404594e-01 2.825358087697810161e-01 7.978960047428287905e-02 -1.047823763112788915e-02 -2.622534497457604807e-01 -4.255492149506163724e-01 -1.208955347050796991e+00 -2.465866894352926941e+00 -2.465866894352926941e+00 -3.059240657159924659e+00 -3.382136911053049033e+00 -3.389531216132247504e+00 -3.546941144621806874e+00 -3.401191443651106372e+00 -3.236325624980724847e+00 -3.030215345548701311e+00 -2.872427672417305455e+00 -2.793040312167838657e+00 -2.725057209053987073e+00 -2.658565597777675205e+00 -2.658565597777675205e+00 -2.588113894185300801e+00 -2.537217349983669656e+00 -2.517473019132688616e+00 -2.460320145949621562e+00 -2.664646606557832254e+00 -2.776214180471703319e+00 -3.257517571389660027e+00 -3.573845356485401581e+00 -3.875341023603799506e+00 -4.537433119413869065e+00 -5.100113677216280728e+00 -5.100113677216280728e+00 -5.531606728154324415e+00 -5.880027500643869587e+00 -5.880027500643869587e+00 -6.163684012532891110e+00 -6.409623369624668499e+00 -6.531516799324516676e+00 -6.623889604804819697e+00 -6.831331157635811557e+00 -6.882282759927326410e+00 -7.052948630717645884e+00 -7.186073407564743221e+00 -7.270428568787666634e+00 -7.438559067898157906e+00 -7.596722256616015301e+00 -7.596722256616015301e+00 -7.737897479361044439e+00 -7.889403583221164418e+00 -7.980281712456008592e+00 -8.026880335933476829e+00 -8.165703516240819582e+00 -8.222957727473316325e+00 -8.366547666428781227e+00 -8.423612145766449899e+00 -8.463405659299169770e+00 -8.571223952305734528e+00 -8.685741350049562826e+00 -8.685741350049562826e+00 -8.770089687146887414e+00 -8.856790910780897974e+00 -8.895143044860416737e+00 -8.927997181787006298e+00 -9.058524282986095244e+00 -9.062065337502062334e+00 -9.138737176153821196e+00 -9.196102364061150780e+00 -9.224159323504805386e+00 -9.281773845350123509e+00 -9.361246764609983728e+00 -9.361246764609983728e+00 -9.417398204706476150e+00 -9.486728393999499076e+00 -9.486728393999499076e+00 -9.543513650604078080e+00 -9.618315663338844246e+00 -9.651380536263975074e+00 -9.651380536263975074e+00 -9.717957908920972443e+00 -9.792993245928942159e+00 -9.832045204686597373e+00 -9.847927487850089534e+00 -9.916817072163498281e+00 -9.954625402164102965e+00 -9.993076396641864534e+00 -1.001892079731771545e+01 -1.010234682948465235e+01 -1.011958895512227485e+01
8.157760599654855227e-01 8.157760599654855227e-01 8.340714359398837541e-01 8.664406282711585305e-01 9.143794488857985847e-01 9.513461031945997792e-01 1.040095433151821513e+00 1.094983408721977636e+00 1.140522203129217926e+00 1.146864541864362819e+00 1.171647858375682860e+00 1.193679946108866297e+00 1.214324801144279320e+00 1.214324801144279320e+00 1.238031571009571952e+00 1.267596664036108045e+00 1.276248469190172541e+00 1.272927942464755713e+00 1.287369739973166283e+00 1.293713719204123036e+00 1.316396291878045410e+00 1.277866750324873069e+00 1.292463397079337106e+00 1.192354581509870393e+00 9.778898420737808239e-01 9.778898420737808239e-01 7.588951205198302130e-01 4.534679273895642071e-01 2.825358087697810161e-01 2.020368217326614646e-01 -7.408712153616953122e-02 -2.622534497457604807e-01 -8.080177154452510280e-01 -1.383063826447073152e+00 -1.957704735472007629e+00 -2.883155871955125349e+00 -3.289472932580921771e+00 -3.289472932580921771e+00 -3.529544869597236456e+00 -3.625577379080106688e+00 -3.625577379080106688e+00 -3.218262616027878664e+00 -2.900352287744051072e+00 -2.872427672417305455e+00 -2.690353932210956422e+00 -2.731860292750570185e+00 -2.644658006883161327e+00 -2.605547607807683352e+00 -2.491418623055249970e+00 -2.515740984328742602e+00 -2.484694794127488393e+00 -2.467405956996678640e+00 -2.467405956996678640e+00 -2.883381545079600095e+00 -3.357075617383434185e+00 -3.573845356485401581e+00 -4.026343065409831112e+00 -4.685059511814039013e+00 -4.893406684146619057e+00 -5.395817910007490781e+00 -5.611169458261208831e+00 -5.742350768550552154e+00 -6.073542761773069287e+00 -6.375395847796729853e+00 -6.375395847796729853e+00 -6.568606831889902686e+00 -6.717187819138645821e+00 -6.831331157635811557e+00 -6.903385741128750475e+00 -7.120911185171044266e+00 -7.186073407564743221e+00 -7.348888562174330730e+00 -7.408354504308396926e+00 -7.640497345641436233e+00 -7.703477284153890992e+00 -7.783048571874229715e+00 -7.895935753596868167e+00 -7.961408044765172498e+00 -8.116418834326301734e+00 -8.204344842373737734e+00 -8.244726373576302336e+00 -8.379806704749345414e+00 -8.478333555966933943e+00 -8.478333555966933943e+00 -8.587853940607004688e+00 -8.697920223861441258e+00 -8.757229867770261578e+00 -8.779276705282130777e+00 -8.875221588159462272e+00 -8.912495318019942658e+00 -9.006136143784306825e+00 -9.073635579421367225e+00 -9.077702643227645751e+00 -9.151181662837736042e+00 -9.231285476191519734e+00 -9.231285476191519734e+00 -9.293374352700194407e+00 -9.374346268059900567e+00 -9.382498047084338211e+00 -9.430664570473400232e+00 -9.496760387086480293e+00 -9.520895585193002830e+00 -9.610141393469289639e+00 -9.626991471790883992e+00 -9.651492774101564365e+00 -9.695548900580947205e+00 -9.752608115657714905e+00 -9.752608115657714905e+00 -9.840932598004350496e+00 -9.892867630683628732e+00 -9.892867630683628732e+00 -9.957810146349695302e+00 -1.000180937952284843e+01 -1.001892079731771545e+01 -1.009844170266778640e+01 -1.011290054710813457e+01
7.653847696476524520e-01 7.980829872393913060e-01 8.325796678659762584e-01 8.325796678659762584e-01 9.029313055368473062e-01 9.968039958078402929e-01 1.040095433151821513e+00 1.090757438618811914e+00 1.139481737720162258e+00 1.146864541864362819e+00 1.177990197110827975e+00 1.209363210419750700e+00 1.209713123090703002e+00 1.235284159150586092e+00 1.232241468763008996e+00 1.260135350549591804e+00 1.261624763650366576e+00 1.276066561158776924e+00 1.276066561158776924e+00 1.290508358667187494e+00 1.277684219225441842e+00 1.277866750324873069e+00 1.244624568980160273e+00 1.129315198170159462e+00 1.053733122074049566e+00 8.344244189430078951e-01 6.880279434722011977e-01 6.120487111634782540e-01 3.430325826987540294e-01 7.114709099413493720e-02 7.114709099413493720e-02 -2.951754155743835373e-01 -9.983499137502602760e-01 -1.383063826447073152e+00 -1.976437134760592240e+00 -2.997740837548950488e+00 -3.169551583566520669e+00 -3.434068479168572718e+00 -3.602633324711984830e+00 -3.659744584204498885e+00 -3.385631110735659810e+00 -3.056470242887350253e+00 -2.879016314605694848e+00 -2.724633483092025799e+00 -2.692305043669954490e+00 -2.616443045563741521e+00 -2.616443045563741521e+00 -2.467904867690262627e+00 -2.476470296042494468e+00 -2.476470296042494468e+00 -2.536587134707156910e+00 -2.538193901385438433e+00 -2.688637737651533133e+00 -3.029983076323536473e+00 -3.561828149397279653e+00 -3.738211124143372199e+00 -4.386207417741778691e+00 -4.672804618742655514e+00 -4.971656712814915835e+00 -5.468685656700019493e+00 -5.793088753899539256e+00 -5.793088753899539256e+00 -6.114711257569254599e+00 -6.329957549981984677e+00 -6.427706239034667313e+00 -6.538385463405427700e+00 -6.748709274790826385e+00 -6.844110784388012902e+00 -7.003322329310636363e+00 -7.125704854607837646e+00 -7.245188183188351339e+00 -7.381920914182103388e+00 -7.497366938997943819e+00 -7.497366938997943819e+00 -7.700660923669885527e+00 -7.830463462428562949e+00 -7.895935753596868167e+00 -7.982785136166493878e+00 -8.132577999465080865e+00 -8.204344842373737734e+00 -8.339982964253207953e+00 -8.393600481326318530e+00 -8.437405922343426568e+00 -8.544689417374085494e+00 -8.647311249134679301e+00 -8.647311249134679301e+00 -8.766613967304522248e+00 -8.835515985572774511e+00 -8.835515985572774511e+00 -8.929847591179465027e+00 -9.021435389165459284e+00 -9.073635579421367225e+00 -9.093570551762169885e+00 -9.163626149521649111e+00 -9.212656231630667492e+00 -9.278483160529647833e+00 -9.304974860050268859e+00 -9.316584538324979903e+00 -9.392067803938580539e+00 -9.471200856081843256e+00 -9.471200856081843256e+00 -9.542299292199137639e+00 -9.613230408178804254e+00 -9.626991471790883992e+00 -9.669991251035526147e+00 -9.708244939285325614e+00 -9.728474562396304037e+00 -9.806582825026664452e+00 -9.841838454812354087e+00 -9.855783562612723259e+00 -9.920259333940377289e+00 -9.983764864333943834e+00 -9.983764864333943834e+00 -1.001796509355880005e+01 -1.008999308333596723e+01 -1.011290054710813457e+01
7.294867202756960545e-01 7.843347617707676633e-01 8.062231997213258339e-01 8.667186190437460303e-01 9.024834473572596050e-01 9.511899803064086667e-01 1.034985452070443568e+00 1.110327679446970306e+00 1.132777417360632199e+00 1.147376950523705919e+00 1.184426221600441753e+00 1.207435145751851735e+00 1.207435145751851735e+00 1.220051500983486470e+00 1.239353652173880826e+00 1.244458192827319731e+00 1.237283896158882124e+00 1.250800361343817890e+00 1.271491123197191708e+00 1.293737801049680503e+00 1.270905362963757224e+00 1.247238941748823438e+00 1.200740082447966373e+00 9.967954961622352839e-01 9.967954961622352839e-01 7.785017645180217771e-01 5.482273045091413666e-01 5.482273045091413666e-01 2.743580562386196409e-01 4.384510520209362883e-03 -1.156283954960817401e-01 -3.307537527255342003e-01 -1.056823956234686168e+00 -1.506855776468066788e+00 -2.571062071705420671e+00 -3.071891535109425586e+00 -3.216488280828280644e+00 -3.481669572116118605e+00 -3.792573664948110324e+00 -3.792573664948110324e+00 -3.352104844177883791e+00 -3.013902441030598567e+00 -2.879016314605694848e+00 -2.678465141696541707e+00 -2.497970594857883420e+00 -2.556458780367067973e+00 -2.484458765190849849e+00 -2.383938176552311550e+00 -2.445442746769436404e+00 -2.493080462228327132e+00 -2.562744097325929893e+00 -2.562744097325929893e+00 -2.788785002831026372e+00 -3.343025928289763193e+00 -3.561828149397279653e+00 -3.897266853748499571e+00 -4.448186846036071174e+00 -4.672804618742655514e+00 -5.258253913815791769e+00 -5.542437999306482510e+00 -5.673827361389068180e+00 -5.973192000706434079e+00 -6.166313183953565868e+00 -6.241517838515756367e+00 -6.448160853824512984e+00 -6.657798626473955039e+00 -6.657798626473955039e+00 -6.851784560875653796e+00 -7.045994093258450164e+00 -7.125704854607837646e+00 -7.249292101118339993e+00 -7.406947909599168156e+00 -7.440803607202693293e+00 -7.608163094420707040e+00 -7.718959249843470261e+00 -7.764991171260258618e+00 -7.917312844998189547e+00 -8.072275223714136416e+00 -8.072275223714136416e+00 -8.226113488476723745e+00 -8.349795040309212268e+00 -8.393600481326318530e+00 -8.451199698920401460e+00 -8.558420424850819330e+00 -8.603991788230969107e+00 -8.710099097673317914e+00 -8.775998066838782918e+00 -8.788214222244311813e+00 -8.891404488827257424e+00 -8.969364730329125734e+00 -8.969364730329125734e+00 -9.073672984706593780e+00 -9.135280907925151794e+00 -9.163626149521649111e+00 -9.229210099200180650e+00 -9.291138572597908762e+00 -9.304974860050268859e+00 -9.388061022115655518e+00 -9.401637560792826420e+00 -9.443930936240326091e+00 -9.506792380173463286e+00 -9.561844577544054147e+00 -9.568136778794681163e+00 -9.636129165425220577e+00 -9.688410900289046168e+00 -9.688410900289046168e+00 -9.738991215871637408e+00 -9.819984989167183542e+00 -9.841838454812354087e+00 -9.863639637375356983e+00 -9.921551893848837622e+00 -9.963928885835604987e+00 -1.001054236240382878e+01 -1.001981360098693408e+01 -1.009453657585092046e+01 -1.010404073182729867e+01
7.507014945140875195e-01 7.882282129119224656e-01 7.981507795578063336e-01 8.645078525738191244e-01 9.375723861721456664e-01 9.375723861721456664e-01 1.056154764709416050e+00 1.114740095751466598e+00 1.132777417360632199e+00 1.155227155274294093e+00 1.197442687142177276e+00 1.206321942102642097e+00 1.208335940714054590e+00 1.210703406863482989e+00 1.228200666529426055e+00 1.237825293292748707e+00 1.230109599490444516e+00 1.230109599490444516e+00 1.249946598601756831e+00 1.296666680093062185e+00 1.270905362963757224e+00 1.244301179249650113e+00 1.164877290019450395e+00 1.095343999217183617e+00 8.789102761790394958e-01 7.595449274884120694e-01 6.564159322338984914e-01 3.249625205185305288e-01 8.149544197175517812e-02 8.149544197175517812e-02 -1.798402944805949089e-01 -5.002972770382682066e-01 -1.056823956234686168e+00 -1.717011257834818228e+00 -2.794113857280643654e+00 -3.071891535109425586e+00 -3.322544873537657928e+00 -3.685112033966585265e+00 -3.644996070430480017e+00 -3.786738812099903040e+00 -3.776031615446311385e+00 -3.201780464675421101e+00 -2.816413912732203428e+00 -2.478146534441665771e+00 -2.478146534441665771e+00 -2.362497563762449460e+00 -2.379120636219977492e+00 -2.383938176552311550e+00 -2.411061548284872735e+00 -2.475730752368270338e+00 -2.519237424847100115e+00 -2.617665140075077890e+00 -2.891475940278725787e+00 -3.145468269457250443e+00 -3.700161488802692134e+00 -4.292676003898678871e+00 -4.292676003898678871e+00 -4.831960588536880152e+00 -5.374227099593125168e+00 -5.542437999306482510e+00 -5.724073674931466904e+00 -6.034033855002858715e+00 -6.166313183953565868e+00 -6.368324419462259023e+00 -6.462598962272426917e+00 -6.569349094311141002e+00 -6.780259374610603018e+00 -7.014809138969120283e+00 -7.014809138969120283e+00 -7.167218697911655667e+00 -7.313586549853337893e+00 -7.406947909599168156e+00 -7.475870299745178471e+00 -7.646829833523030473e+00 -7.718959249843470261e+00 -7.819910301652114981e+00 -7.938689936399510927e+00 -8.004162227567814369e+00 -8.185731957274160919e+00 -8.262184158274999746e+00 -8.305989599292106007e+00 -8.407394257903295198e+00 -8.508189349302462290e+00 -8.508189349302462290e+00 -8.619558364877134338e+00 -8.722277971485196346e+00 -8.775998066838782918e+00 -8.797010774391265997e+00 -8.904027535557624162e+00 -8.943685270197359927e+00 -9.036734634546613520e+00 -9.074611935050921119e+00 -9.112093401724401076e+00 -9.176070636205562181e+00 -9.249166036241252442e+00 -9.249166036241252442e+00 -9.316575367400341534e+00 -9.401775776171412247e+00 -9.401637560792826420e+00 -9.457197302007250173e+00 -9.516824373260446279e+00 -9.561844577544054147e+00 -9.615610140199329692e+00 -9.645266859059557163e+00 -9.665937784283013201e+00 -9.719749893930801576e+00 -9.768450985165506140e+00 -9.768450985165506140e+00 -9.842744311620361231e+00 -9.903046609038380410e+00 -9.903046609038380410e+00 -9.970047625321514673e+00 -1.001927534528481090e+01 -1.009063144903405274e+01 -1.009063144903405274e+01 -1.009472248486353685e+01
7.054344114897194151e-01 7.882282129119224656e-01 8.005067134681679297e-01 8.336768931207700906e-01 8.896526420836088356e-01 1.001310278792473474e+00 1.099839355452488565e+00 1.099839355452488565e+00 1.142973381844601066e+00 1.172611221646479240e+00 1.197442687142177276e+00 1.207724762220117709e+00 1.201065452807329459e+00 1.210703406863482989e+00 1.217171288937425100e+00 1.241752520895098133e+00 1.245454803949432865e+00 1.226655517021011388e+00 1.237442452076631838e+00 1.217741454976172033e+00 1.283867223236101918e+00 1.206248677066665387e+00 1.206248677066665387e+00 1.050217343447529261e+00 8.528928362660644913e-01 7.595449274884120694e-01 6.044331464482107785e-01 2.471161065521208511e-01 1.483793665177018384e-01 -9.917572727870140395e-03 -2.272143208322791597e-01 -3.818062501086810778e-01 -1.116185349263107085e+00 -2.478538618055382337e+00 -2.478538618055382337e+00 -3.204715654067864072e+00 -3.645258971123767289e+00 -3.685112033966585265e+00 -3.950707775803357524e+00 -4.124573811166788673e+00 -3.776031615446311385e+00 -3.101262760289958731e+00 -2.759096031559256978e+00 -2.545600100033730051e+00 -2.325525976341692225e+00 -2.282878068000874450e+00 -2.282878068000874450e+00 -2.336091931308773351e+00 -2.433449359979702908e+00 -2.433449359979702908e+00 -2.463840145425288064e+00 -2.806279655693037167e+00 -2.891475940278725787e+00 -3.164121938406774248e+00 -3.864986834017399175e+00 -4.072852299566104506e+00 -4.676668241149698702e+00 -5.059835200861183324e+00 -5.215734331037686466e+00 -5.608586758669458661e+00 -5.909686504277351204e+00 -5.909686504277351204e+00 -6.217915110337878026e+00 -6.419948044764465678e+00 -6.462598962272426917e+00 -6.621442492465048346e+00 -6.789032852831989651e+00 -6.900118200836425686e+00 -7.088665857206265741e+00 -7.180401969265984619e+00 -7.268095007083981152e+00 -7.432532352037327428e+00 -7.574700417202591574e+00 -7.574700417202591574e+00 -7.738117190418307700e+00 -7.933338241220084797e+00 -7.938689936399510927e+00 -8.025539318969135749e+00 -8.208288682625038746e+00 -8.262184158274999746e+00 -8.363588816886187161e+00 -8.421188034480270090e+00 -8.522592693091459282e+00 -8.572151432327554943e+00 -8.673289774761862247e+00 -8.734456845297074779e+00 -8.788049758491911945e+00 -8.871932771995078681e+00 -8.920161916919891354e+00 -8.955672592598485693e+00 -9.052033879927769533e+00 -9.130616251686634044e+00 -9.130616251686634044e+00 -9.188928899767050851e+00 -9.259214362904426565e+00 -9.303793984666171468e+00 -9.328175874750412433e+00 -9.415490530227167199e+00 -9.411383096937219861e+00 -9.496444536788530399e+00 -9.526856366347427496e+00 -9.579789318937713460e+00 -9.617989872219855130e+00 -9.688795274677286073e+00 -9.688795274677286073e+00 -9.731254848576279315e+00 -9.776372419919400869e+00 -9.829539876878023108e+00 -9.843650168428364822e+00 -9.908377860478301713e+00 -9.926068209152203892e+00 -9.995585146885348493e+00 -1.002714514321103678e+01 -1.001882607751087306e+01 -1.009720172712027519e+01 -1.013493539945584665e+01
5.207833821005725117e-01 7.101403200959527373e-01 7.578514513024122712e-01 8.336768931207700906e-01 8.795328782850153626e-01 1.001397958910194008e+00 1.054004107135074531e+00 1.121083074359970677e+00 1.156682396776423483e+00 1.164646809211451473e+00 1.185711886926458458e+00 1.200448826363226029e+00 1.200448826363226029e+00 1.213198089314045713e+00 1.227321459372465062e+00 1.241752520895098133e+00 1.217545533916978062e+00 1.233048507327839438e+00 1.237442452076631838e+00 1.293875562647151423e+00 1.239274585930417061e+00 1.221280192293068279e+00 1.120516712682123384e+00 9.334758288286035821e-01 9.334758288286035821e-01 6.788994857196765098e-01 4.226361091710497120e-01 4.226361091710497120e-01 1.585812139015319311e-01 -5.959038288166952635e-02 -2.272143208322791597e-01 -4.166216429002813637e-01 -1.315950303740086591e+00 -1.706100190813764961e+00 -2.932217110770839241e+00 -3.376217961345826968e+00 -3.505500119888464994e+00 -3.832506869455225562e+00 -4.073163608288463244e+00 -4.073163608288463244e+00 -4.056439256721052544e+00 -3.351702807115036986e+00 -2.759096031559256978e+00 -2.465761115998402087e+00 -2.222058893916688316e+00 -2.258518945991672133e+00 -2.258455183996507021e+00 -2.260363877636025531e+00 -2.342143827300294578e+00 -2.378148310927347353e+00 -2.586586554682170469e+00 -2.914068132825373247e+00 -3.093353316098834238e+00 -3.564381516087975932e+00 -4.205491850643813478e+00 -4.205491850643813478e+00 -4.840942392660821270e+00 -5.289667812721788209e+00 -5.482543256333955561e+00 -5.671605744251511538e+00 -5.976181123454368915e+00 -6.094629365955094968e+00 -6.224749327100151497e+00 -6.438148169117571484e+00 -6.556161198057361972e+00 -6.708711998476533545e+00 -6.826579822020399035e+00 -6.922794159300035943e+00 -7.142866457623914478e+00 -7.287196995932697874e+00 -7.287196995932697874e+00 -7.439327222629177783e+00 -7.617309786587595610e+00 -7.678560162931225896e+00 -7.773041933714707419e+00 -7.952603319583524843e+00 -7.993997507426563232e+00 -8.152852384477743186e+00 -8.232172493834868376e+00 -8.275977934851974638e+00 -8.377382593463163829e+00 -8.478787252074351244e+00 -8.478787252074351244e+00 -8.585882439804290556e+00 -8.687739705777666188e+00 -8.734456845297074779e+00 -8.803735422383692111e+00 -8.890882818118473807e+00 -8.920161916919891354e+00 -9.017927606971884558e+00 -9.067333125308921993e+00 -9.079291717052070609e+00 -9.168318432135770024e+00 -9.262317834339208744e+00 -9.262317834339208744e+00 -9.316449396734434174e+00 -9.365231907594937510e+00 -9.365231907594937510e+00 -9.423382420722427710e+00 -9.509581881542580106e+00 -9.526856366347427496e+00 -9.595398327921873971e+00 -9.620369604240380568e+00 -9.654925334562472372e+00 -9.732064112420452773e+00 -9.745624015017407160e+00 -9.760024522822305926e+00 -9.839094764588864450e+00 -9.879275739581235172e+00 -9.879275739581235172e+00 -9.930903792040012945e+00 -9.983153049533456169e+00 -1.002714514321103678e+01 -1.001783855403481205e+01 -1.010658675853349564e+01 -1.008540423789977680e+01
5.865431798891027615e-01 5.229478307992563302e-01 7.233210619384636830e-01 8.318543532086534187e-01 9.386537873580367286e-01 9.386537873580367286e-01 1.056836639466729677e+00 1.142331304197619302e+00 1.156682396776423483e+00 1.163943020897204805e+00 1.181773555093188710e+00 1.195134710539357048e+00 1.205923281067050157e+00 1.197573097606798198e+00 1.221221844267855072e+00 1.226722599888270926e+00 1.226537180885200584e+00 1.226537180885200584e+00 1.242040154296062404e+00 1.257136042015513100e+00 1.168678854116647070e+00 1.168678854116647070e+00 1.069587095537915866e+00 8.488318872056129782e-01 7.637073854669222950e-01 5.980653272763458705e-01 3.472987673470784298e-01 2.389805059472892568e-01 1.690451372759825543e-02 -1.369099834597215237e-01 -2.857659420747415968e-01 -8.152526504721743228e-01 -1.860538752208635849e+00 -1.860538752208635849e+00 -3.048926599452823183e+00 -3.565022503363805662e+00 -3.565022503363805662e+00 -3.812407487831801944e+00 -4.037692058926990235e+00 -4.151665325274351837e+00 -3.845963593688967563e+00 -3.089396658348491975e+00 -2.851017038162189987e+00 -2.202380010516173936e+00 -2.172711688343696768e+00 -2.223985239720126295e+00 -2.250047507190190643e+00 -2.265682823520477562e+00 -2.265682823520477562e+00 -2.542801760259051580e+00 -2.885996961460758570e+00 -2.914068132825373247e+00 -3.208738837211060346e+00 -3.745054970086509893e+00 -3.963945642577181072e+00 -4.594400281032479327e+00 -4.832580475739560733e+00 -5.061124144230674915e+00 -5.486779046768916146e+00 -5.866309976184322927e+00 -5.866309976184322927e+00 -6.117501981092290819e+00 -6.331097135253941133e+00 -6.438148169117571484e+00 -6.544606559688096681e+00 -6.749516354739060198e+00 -6.826579822020399035e+00 -7.015333853234935191e+00 -7.164332041436606957e+00 -7.236094553661295059e+00 -7.394694195247290658e+00 -7.556059410243965324e+00 -7.556059410243965324e+00 -7.710615284496202371e+00 -7.849880506489838261e+00 -7.849880506489838261e+00 -7.996512825091060428e+00 -8.188367052817762115e+00 -8.232172493834868376e+00 -8.289771711428951306e+00 -8.391176370040138721e+00 -8.434981811057244983e+00 -8.536386469668434174e+00 -8.599613447281026168e+00 -8.650691518169466576e+00 -8.746635719108951434e+00 -8.814603878685174365e+00 -8.814603878685174365e+00 -8.938564694749967288e+00 -9.037723352289752654e+00 -9.067333125308921993e+00 -9.084984073635403945e+00 -9.186624489530673898e+00 -9.209396142922223305e+00 -9.269262689567600688e+00 -9.329104808802696880e+00 -9.336882238643624987e+00 -9.429142915273473591e+00 -9.483730033541100113e+00 -9.483730033541100113e+00 -9.536888359434410489e+00 -9.607952074780829577e+00 -9.620369604240380568e+00 -9.666443188967690503e+00 -9.752549913199429099e+00 -9.745624015017407160e+00 -9.784293854673297375e+00 -9.848649652299704016e+00 -9.844556025236370189e+00 -9.913709111918224792e+00 -9.935739374927821999e+00 -9.982285104293337596e+00 -1.003284301372932674e+01 -1.008282119540032085e+01 -1.008282119540032085e+01 -1.007608599093601320e+01
4.122865510903448993e-01 4.957112999175125045e-01 7.203445480833605696e-01 7.864655056208961215e-01 9.047404302448806002e-01 9.994887478181881946e-01 1.107294319684613892e+00 1.124538966766134074e+00 1.142212755304166327e+00 1.163164496787387092e+00 1.181765179107541863e+00 1.181765179107541863e+00 1.192738929866014930e+00 1.202360106606597423e+00 1.202360106606597423e+00 1.213713231900070966e+00 1.200421575820001197e+00 1.227490588174531938e+00 1.210681645391358474e+00 1.234851535315812932e+00 1.200009010655182839e+00 1.094196781916698669e+00 1.044201458385797254e+00 9.557130935425590668e-01 7.085791623729440492e-01 4.614452312033289205e-01 4.614452312033289205e-01 2.005435247026503831e-01 -1.094403681661135913e-02 -1.369099834597215237e-01 -4.216263988800884044e-01 -9.017777359441111473e-01 -1.251561257677185957e+00 -2.560097187296729970e+00 -3.270298609981855620e+00 -3.443054224346193237e+00 -3.726439381335274970e+00 -3.947039951751907694e+00 -3.947039951751907694e+00 -4.181381377269584476e+00 -3.437103923636943392e+00 -3.089396658348491975e+00 -2.642965680798279315e+00 -2.097299838483602130e+00 -2.172711688343696768e+00 -2.195039912083598388e+00 -2.185768896918171222e+00 -2.222297316004176793e+00 -2.479296633240432701e+00 -2.658309604478430899e+00 -2.758627221593846102e+00 -3.026461776727456865e+00 -3.531013776787892411e+00 -3.531013776787892411e+00 -4.134229967322387900e+00 -4.670537764204224729e+00 -4.832580475739560733e+00 -5.092751740462004406e+00 -5.514965716719783195e+00 -5.683890280816044971e+00 -6.010254635084428365e+00 -6.142055613008395198e+00 -6.224170776363566304e+00 -6.445741942665627278e+00 -6.672452887457721360e+00 -6.672452887457721360e+00 -6.868446855832216258e+00 -7.055619050700595807e+00 -7.164332041436606957e+00 -7.257560137473985762e+00 -7.413100436262957338e+00 -7.474626459782938603e+00 -7.604730955390869518e+00 -7.698473894209967305e+00 -7.742921141174919697e+00 -7.905576411020282634e+00 -8.085431330810950001e+00 -8.085431330810950001e+00 -8.233811158498708593e+00 -8.347370929023032460e+00 -8.391176370040138721e+00 -8.448775587634219875e+00 -8.550180246245409066e+00 -8.599613447281026168e+00 -8.666315365278213889e+00 -8.758814592920829867e+00 -8.819421086275472277e+00 -8.908695032584351026e+00 -8.964755182591140681e+00 -8.989095764165359270e+00 -9.082632370690074453e+00 -9.166443523916081304e+00 -9.166443523916081304e+00 -9.225001168460448042e+00 -9.278969930934824362e+00 -9.329104808802696880e+00 -9.344831303825593238e+00 -9.442714347035389366e+00 -9.435381744507633783e+00 -9.522719226296628037e+00 -9.546920352521393482e+00 -9.610486359041093607e+00 -9.624801182271809807e+00 -9.738086154139141470e+00 -9.738086154139141470e+00 -9.760085145306781840e+00 -9.792215289427192104e+00 -9.848649652299704016e+00 -9.845461882044375557e+00 -9.919040363358146095e+00 -9.935739374927821999e+00 -9.970720952181563845e+00 -1.003854088424761493e+01 -1.001685103055875103e+01 -1.011713462047754852e+01 -1.012317546125896328e+01
6.254284013611532966e-01 4.721142435068579335e-01 5.133817422120759977e-01 8.077225508816743282e-01 8.077225508816743282e-01 9.841546121094651989e-01 1.093406872122917983e+00 1.124538966766134074e+00 1.140869705462492112e+00 1.160616324490753914e+00 1.177565216555979566e+00 1.182944348733756756e+00 1.182815535529747386e+00 1.202520930501052243e+00 1.211464111052315662e+00 1.201381571795260950e+00 1.201381571795260950e+00 1.183612633036827955e+00 1.173334989908061843e+00 1.234851535315812932e+00 1.203172124001004262e+00 1.103055523772188629e+00 1.044201458385797254e+00 8.958157629484213569e-01 6.984511876047408974e-01 5.768263817033894014e-01 3.156224601962221432e-01 1.472410921905895065e-01 3.282992265660456682e-02 -1.795785569713728713e-01 -6.575359087087268017e-01 -6.575359087087268017e-01 -1.514245192092424253e+00 -2.917039337265936894e+00 -3.270298609981855620e+00 -3.606633545052049250e+00 -3.910723953962684796e+00 -3.928881952857296245e+00 -4.136104505394711417e+00 -4.053160731088887303e+00 -3.817744482996732192e+00 -3.007422142511320118e+00 -2.184642622404791457e+00 -2.184642622404791457e+00 -2.088456602859721123e+00 -2.132691132077005669e+00 -2.185768896918171222e+00 -2.250211564042775780e+00 -2.548005304598440546e+00 -2.658309604478430899e+00 -2.916157476847466068e+00 -3.232028906361734677e+00 -3.366715320892925689e+00 -3.928540392269160186e+00 -4.512099418865203049e+00 -4.512099418865203049e+00 -4.947360694829352035e+00 -5.369574671087131712e+00 -5.514965716719783195e+00 -5.782860942853628394e+00 -6.046614623562438950e+00 -6.142055613008395198e+00 -6.268092747833992284e+00 -6.488678864594088935e+00 -6.583839211315695827e+00 -6.791383388550876532e+00 -6.910313889644032592e+00 -6.987377356925372318e+00 -7.185797625249298548e+00 -7.350788233511366343e+00 -7.350788233511366343e+00 -7.504582121267396211e+00 -7.669975801898115009e+00 -7.698473894209967305e+00 -7.806667898789653393e+00 -7.943833509119537339e+00 -8.008986593056890868e+00 -8.152597341546254484e+00 -8.235950166364995439e+00 -8.271417618184742082e+00 -8.404970146617113613e+00 -8.506374805228302804e+00 -8.506374805228302804e+00 -8.613344454757763557e+00 -8.717415852954289335e+00 -8.758814592920829867e+00 -8.835106750167252443e+00 -8.918638275277947614e+00 -8.964755182591140681e+00 -9.050996704994554776e+00 -9.099473505889877245e+00 -9.105764421096459671e+00 -9.203451204832736821e+00 -9.295425569478236838e+00 -9.289519649010831159e+00 -9.341760220870957809e+00 -9.406315395027018411e+00 -9.456285778797305142e+00 -9.447381068292841633e+00 -9.535856571050679520e+00 -9.623479455341119149e+00 -9.623479455341119149e+00 -9.638733760526003280e+00 -9.756397929779645040e+00 -9.768886960057807656e+00 -9.774546275596158296e+00 -9.800136724181086834e+00 -9.859055929701252552e+00 -9.894593231253384857e+00 -9.924371614798067398e+00 -9.941556455708239426e+00 -9.965538306861720486e+00 -1.001847155920112087e+01 -1.001847155920112087e+01 -1.012768248242160318e+01 -1.011729549216052071e+01
6.254284013611532966e-01 5.914769560342728605e-01 3.237397858891248315e-01 6.171496872369025555e-01 8.872328256046385642e-01 9.741185103126812628e-01 1.059752983168998242e+00 1.119838858307107055e+00 1.154940164375720668e+00 1.154940164375720668e+00 1.167017368556235946e+00 1.186070150538893309e+00 1.182815535529747386e+00 1.195977539733472650e+00 1.223227876776091350e+00 1.230106959903850772e+00 1.190139009612751764e+00 1.168399576462859635e+00 1.148235180125622978e+00 1.232861091616918037e+00 1.168814739282017845e+00 1.168814739282017845e+00 9.981101690872035137e-01 7.809391764641013811e-01 6.984511876047408974e-01 5.472022670917805476e-01 2.557102881806342931e-01 1.472410921905895065e-01 -7.245281844716840169e-02 -2.255403746664433884e-01 -3.887034809368204447e-01 -1.096861247579930199e+00 -2.293730207045969749e+00 -2.293730207045969749e+00 -3.249847565102288893e+00 -3.744823931512367921e+00 -3.744823931512367921e+00 -4.056641501586521592e+00 -4.048849298383158768e+00 -4.053160731088887303e+00 -3.715684746329481314e+00 -2.625018845366986486e+00 -2.397345478283002596e+00 -2.068491912131944943e+00 -2.023974888914960246e+00 -2.079613367235839672e+00 -2.179592947490242238e+00 -2.263922518273823847e+00 -2.263922518273823847e+00 -2.684066483326081443e+00 -3.029505175128533345e+00 -3.232028906361734677e+00 -3.497681317637965304e+00 -4.055748685085627692e+00 -4.291953602084300101e+00 -4.835912712183628948e+00 -5.146391121502562171e+00 -5.224183625454480229e+00 -5.646397601712259018e+00 -5.967253078521450149e+00 -5.967253078521450149e+00 -6.182626460390770795e+00 -6.394129882659591146e+00 -6.629546894857131889e+00 -6.629546894857131889e+00 -6.817085826872673948e+00 -7.029244390737188652e+00 -7.098363033304954328e+00 -7.197065926534518709e+00 -7.370449137771226233e+00 -7.414483853447932482e+00 -7.478258723330008628e+00 -7.655808242216773252e+00 -7.720362164466178179e+00 -7.878284112131376915e+00 -8.001800463998918644e+00 -8.009838528459257034e+00 -8.177935012030989270e+00 -8.319302991183736395e+00 -8.319302991183736395e+00 -8.441977720270370966e+00 -8.533831264033924668e+00 -8.563974022822383958e+00 -8.627075462234499170e+00 -8.732253926542600908e+00 -8.771117500506040443e+00 -8.832196982979080957e+00 -8.928581517971544201e+00 -8.990945670432312298e+00 -9.064270057699356897e+00 -9.126544768557515397e+00 -9.126544768557515397e+00 -9.219065838973669713e+00 -9.309498272623589088e+00 -9.289519649010831159e+00 -9.354415632939220515e+00 -9.426235284760400290e+00 -9.456285778797305142e+00 -9.510262765074946500e+00 -9.548993915804729227e+00 -9.557201871158701678e+00 -9.662895807539744197e+00 -9.690059408350089498e+00 -9.690059408350089498e+00 -9.764667976340028588e+00 -9.801960715266563540e+00 -9.800136724181086834e+00 -9.861344901786702977e+00 -9.902251977089459700e+00 -9.924371614798067398e+00 -9.948418760409779793e+00 -9.967604745610266548e+00 -1.004423875476590311e+01 -1.008120342463801578e+01 -1.013823034436565784e+01 -1.006794363112961577e+01
6.207784075818876257e-01 4.639550652722849722e-01 3.237397858891248315e-01 4.303582518041165761e-01 8.649489356434212350e-01 9.741185103126812628e-01 1.081529725134811271e+00 1.102261964087035473e+00 1.127367585363581837e+00 1.148402504139513614e+00 1.142836534234289880e+00 1.179245935589710248e+00 1.185643489564053743e+00 1.214624536836421465e+00 1.214624536836421465e+00 1.228203740814506117e+00 1.193684931702260643e+00 1.168399576462859635e+00 1.121582948753807818e+00 1.219798248923645190e+00 1.200029174124791043e+00 1.071364089139613007e+00 9.499023275747546791e-01 8.630015972516452694e-01 6.455577098456124485e-01 3.700496640459945419e-01 3.700496640459945419e-01 8.531069117029019266e-02 -1.618486556714994473e-01 -2.255403746664433884e-01 -4.655520955223350632e-01 -1.317781799256561692e+00 -2.579997301443453850e+00 -2.954883393588914053e+00 -3.328244371888863462e+00 -3.709750504900347856e+00 -3.874638417176750060e+00 -4.049052852883532339e+00 -3.938249752334166853e+00 -3.941631849483349548e+00 -3.157916570786763355e+00 -2.312793413333228187e+00 -2.312793413333228187e+00 -1.935475379970098997e+00 -2.213335070689689044e+00 -2.101096416941630629e+00 -2.244947803097252947e+00 -2.295116372826232709e+00 -2.419437135547304774e+00 -2.719758166219381046e+00 -3.178269211305804642e+00 -3.399897829104967961e+00 -3.771114606198910479e+00 -4.127458616841014560e+00 -4.415617716297996154e+00 -4.960565071867896414e+00 -5.395910527816475621e+00 -5.395910527816475621e+00 -5.705964932403515988e+00 -6.003826444790386851e+00 -6.097955952329053630e+00 -6.209179548350175715e+00 -6.440488646549160201e+00 -6.552637065959553198e+00 -6.703252755240101557e+00 -6.811470590976573369e+00 -6.937756806519305819e+00 -7.133831854891291790e+00 -7.253890412328658499e+00 -7.253890412328658499e+00 -7.446299529630262093e+00 -7.591847138042670196e+00 -7.655808242216773252e+00 -7.742592898848835503e+00 -7.931846737458983831e+00 -8.001800463998918644e+00 -8.090747221245182530e+00 -8.208054816168562695e+00 -8.226563960057605485e+00 -8.388816610834698650e+00 -8.457471736806942531e+00 -8.457471736806942531e+00 -8.577780578139092782e+00 -8.696990299471089259e+00 -8.696990299471089259e+00 -8.782742337749480654e+00 -8.843485539911712934e+00 -8.928581517971544201e+00 -9.009807987677849184e+00 -9.075183626944197002e+00 -9.117115905605837511e+00 -9.197104999246134227e+00 -9.228891006136439756e+00 -9.250220755673234763e+00 -9.301765493977923072e+00 -9.356694874407718743e+00 -9.356694874407718743e+00 -9.469857210559219141e+00 -9.522403489130486065e+00 -9.548993915804729227e+00 -9.567623715983506472e+00 -9.690968155436371134e+00 -9.652666338780196753e+00 -9.760471231821854943e+00 -9.760442329592347477e+00 -9.791599182901846277e+00 -9.810735178315439953e+00 -9.847273595660386292e+00 -9.847273595660386292e+00 -9.929702866237990477e+00 -1.000064132275106843e+01 -9.967604745610266548e+00 -1.004993662528419307e+01 -1.008552795242174227e+01 -1.013823034436565784e+01 -1.010685288093667467e+01
6.022368400470070604e-01 5.365717739321635982e-01 4.129315647583382543e-01 6.368450647330365921e-01 8.234907241975624181e-01 9.424328534052699435e-01 1.067859288686981545e+00 1.113884469210718597e+00 1.113884469210718597e+00 1.133606142830254404e+00 1.137510058505437627e+00 1.166978765680679153e+00 1.187890683372820666e+00 1.217252652504247079e+00 1.229845571137587745e+00 1.200115528785113739e+00 1.183181244199821958e+00 1.153726787192161263e+00 1.226636684442383052e+00 1.170517864842450129e+00 1.170517864842450129e+00 1.033615312949523135e+00 7.985043116970359511e-01 7.985043116970359511e-01 5.785748300190535209e-01 3.112793251459724519e-01 1.838255397338468544e-01 1.224149518449245411e-02 -2.254363742920841851e-01 -3.311990928186272498e-01 -8.371098107691454793e-01 -1.593911298668137189e+00 -2.048515608592622605e+00 -3.131154653873134741e+00 -3.631164226393526206e+00 -3.631164226393526206e+00 -3.834306633765601102e+00 -3.921111674404049730e+00 -3.938249752334166853e+00 -3.907803643701008411e+00 -2.940090859029183434e+00 -2.437918239948006160e+00 -2.008520896016248614e+00 -1.968019819786233748e+00 -1.978597960976670178e+00 -2.156943460686050251e+00 -2.318717258555512473e+00 -2.318717258555512473e+00 -2.579351047508588568e+00 -3.051737709742786908e+00 -3.178269211305804642e+00 -3.429357129768131784e+00 -3.903043148227749448e+00 -4.127458616841014560e+00 -4.739859312448793993e+00 -5.053002235412778376e+00 -5.227485678112453016e+00 -5.547407152110116257e+00 -5.716968188695481956e+00 -5.868410207094299835e+00 -6.135243823369346039e+00 -6.356336957924729525e+00 -6.356336957924729525e+00 -6.589736532239674816e+00 -6.752708769974279157e+00 -6.811470590976573369e+00 -6.951583180105082249e+00 -7.140694870188269761e+00 -7.228398265284623925e+00 -7.358521219884495146e+00 -7.463034156593511881e+00 -7.530748439724922250e+00 -7.661643194588579675e+00 -7.847525152104758206e+00 -7.847525152104758206e+00 -7.999885443551277397e+00 -8.141960768089944622e+00 -8.208054816168562695e+00 -8.276031308195271663e+00 -8.397231121678554899e+00 -8.427351429242747827e+00 -8.531885580192254181e+00 -8.591470578145615988e+00 -8.636870756892299994e+00 -8.743420439151602608e+00 -8.855462591457248678e+00 -8.855462591457248678e+00 -8.938896488601022483e+00 -9.033924311020754772e+00 -9.075183626944197002e+00 -9.122150406014940316e+00 -9.201314821398652199e+00 -9.228891006136439756e+00 -9.312038490884424036e+00 -9.307197361899497423e+00 -9.363271224275022675e+00 -9.435560831315715546e+00 -9.477387600588290439e+00 -9.472622245673658625e+00 -9.561537143525265847e+00 -9.646126203637869878e+00 -9.646126203637869878e+00 -9.663172414976704871e+00 -9.762120793750099779e+00 -9.760442329592347477e+00 -9.808835124122943228e+00 -9.820307831339542659e+00 -9.863496816764797614e+00 -9.909246854426983830e+00 -9.932825402366486145e+00 -9.955839148672737338e+00 -9.970429667851073319e+00 -1.003446791141167616e+01 -1.003446791141167616e+01 -1.013555175734688696e+01 -1.010504572937450618e+01
6.389917965357679863e-01 6.389917965357679863e-01 4.919111502939453318e-01 4.922805363596685080e-01 8.234907241975624181e-01 8.829940985606224979e-01 1.017339696466128318e+00 1.097109016695364314e+00 1.119630496979667988e+00 1.126665129912861607e+00 1.140640775763448023e+00 1.165234001115950546e+00 1.201200381232197856e+00 1.201200381232197856e+00 1.206814681502658138e+00 1.213160538884816120e+00 1.183181244199821958e+00 1.146177709698334990e+00 1.136453281912164659e+00 1.189622104252756163e+00 1.092442739847735211e+00 9.563428679823696710e-01 8.923150117713091189e-01 6.535366276946349418e-01 4.039022506563754167e-01 4.039022506563754167e-01 1.265366392956036035e-01 -1.663316872410848246e-01 -2.254363742920841851e-01 -4.992328856997672037e-01 -1.372224373439689060e+00 -1.593911298668137189e+00 -2.764059400976362824e+00 -2.996504005096276124e+00 -3.319772638900801542e+00 -3.729063146770667192e+00 -3.712472479539531189e+00 -3.863186365436739322e+00 -3.929360010219702382e+00 -3.435315214126696048e+00 -3.435315214126696048e+00 -2.286943527881496685e+00 -2.012415626281218284e+00 -1.968019819786233748e+00 -2.013252890028965236e+00 -2.145117612539729546e+00 -2.333281775277637582e+00 -2.454908336946197256e+00 -2.693072347209769735e+00 -2.873783277296844130e+00 -3.269734836405185696e+00 -3.766397254526385296e+00 -3.766397254526385296e+00 -4.247438082676513460e+00 -4.872031253689542929e+00 -5.053002235412778376e+00 -5.315702903620159958e+00 -5.572666626882156748e+00 -5.716968188695481956e+00 -6.016650045070740305e+00 -6.141165579782905226e+00 -6.250335293310804730e+00 -6.470630525160982138e+00 -6.685215846653553839e+00 -6.685215846653553839e+00 -6.848462392538202437e+00 -7.041164537024939385e+00 -7.140694870188269761e+00 -7.242487876540253389e+00 -7.343103532196336936e+00 -7.463034156593511881e+00 -7.526387879800585878e+00 -7.708478451637656548e+00 -7.771943321077565692e+00 -7.931171851606270806e+00 -8.007186824930997204e+00 -8.068506898393300375e+00 -8.213056398806292790e+00 -8.347602493579547200e+00 -8.347602493579547200e+00 -8.437771306515077896e+00 -8.544333691755035431e+00 -8.591470578145615988e+00 -8.645204490389215124e+00 -8.753326357585937245e+00 -8.792371878906921623e+00 -8.865576026286337452e+00 -8.949281973393846457e+00 -9.016176203644757692e+00 -9.083444092948138149e+00 -9.153230842978917536e+00 -9.153230842978917536e+00 -9.233943462039885475e+00 -9.307735880280016971e+00 -9.307197361899497423e+00 -9.368703092196597026e+00 -9.438424366030833568e+00 -9.477387600588290439e+00 -9.533759408498990950e+00 -9.572208566411255504e+00 -9.579383980242171859e+00 -9.698617701871885544e+00 -9.713003766078212919e+00 -9.713003766078212919e+00 -9.756526138284032257e+00 -9.827942147020408470e+00 -9.827951276946320647e+00 -9.874175809050830921e+00 -9.910964144505660656e+00 -9.967713388862177837e+00 -9.967713388862177837e+00 -9.978067025499750997e+00 -1.003730285558640745e+01 -1.008855636064065031e+01 -1.013495195453274889e+01 -1.011068665481690054e+01
7.161861176632673409e-01 5.749428108147365268e-01 3.775246948449657580e-01 3.775246948449657580e-01 8.023366448487772029e-01 9.303023794579616812e-01 1.017339696466128318e+00 1.065035880829275250e+00 1.106653008498455826e+00 1.126665129912861607e+00 1.144651162128684785e+00 1.176893636283931066e+00 1.185148109960148410e+00 1.190762410230608914e+00 1.184875660337781911e+00 1.196376710501069418e+00 1.167004919556547726e+00 1.157861909672657230e+00 1.157861909672657230e+00 1.147887085424226239e+00 1.020606473416480142e+00 9.563428679823696710e-01 8.133687924578854034e-01 5.983303548399450111e-01 5.013887601126146842e-01 2.266206658900067894e-01 4.933908112363816906e-02 -4.663527324832586474e-02 -3.448701857021942985e-01 -1.102187890237430468e+00 -1.102187890237430468e+00 -1.976720599395227485e+00 -2.737101250697941524e+00 -2.996504005096276124e+00 -3.188656279845915709e+00 -3.566035075656541764e+00 -3.712472479539531189e+00 -3.836951761358289303e+00 -3.750513002272970020e+00 -3.752651884723386289e+00 -2.739979626343658659e+00 -2.004914515435408884e+00 -2.004914515435408884e+00 -1.957363089833878522e+00 -2.093972617251532053e+00 -2.093972617251532053e+00 -2.345719897527707598e+00 -2.592247663377402311e+00 -2.693072347209769735e+00 -3.022933806955985681e+00 -3.407506884973781069e+00 -3.553759925634972561e+00 -4.056916298320008885e+00 -4.373931482812698945e+00 -4.577795516567367606e+00 -5.104238052673975901e+00 -5.440885233393725429e+00 -5.440885233393725429e+00 -5.725508104201984416e+00 -6.024346718026432512e+00 -6.141165579782905226e+00 -6.244290096514249377e+00 -6.481765499280154330e+00 -6.602794758330136737e+00 -6.777203305824906820e+00 -6.872456148451057345e+00 -6.968116967477982371e+00 -7.170290261219777861e+00 -7.293874596031392876e+00 -7.293874596031392876e+00 -7.480356668808242127e+00 -7.661582276431998295e+00 -7.708478451637656548e+00 -7.795179591171728539e+00 -7.970190390638236089e+00 -8.085250164219507596e+00 -8.147904682859090642e+00 -8.227754204463050058e+00 -8.343497533733918559e+00 -8.390634420124497339e+00 -8.497196805364456651e+00 -8.556622304213831853e+00 -8.603759190604412410e+00 -8.706533248154730842e+00 -8.763232276020271883e+00 -8.802264476331579601e+00 -8.887749583472682957e+00 -9.022544419611664424e+00 -9.022544419611664424e+00 -9.091704558952077520e+00 -9.164331458964820598e+00 -9.205524643551168396e+00 -9.235890560003845451e+00 -9.306214357459296593e+00 -9.334090876646104817e+00 -9.387223361426565660e+00 -9.441287900745955142e+00 -9.483829762645061834e+00 -9.540029301795504679e+00 -9.591625551383158310e+00 -9.591625551383158310e+00 -9.699452004763514879e+00 -9.719920264633200802e+00 -9.764051987070910599e+00 -9.762871740236809259e+00 -9.844667097286967206e+00 -9.827951276946320647e+00 -9.864890711377952925e+00 -9.913871516593109945e+00 -9.938231930282281468e+00 -1.001203964240056266e+01 -1.004663156951521330e+01 -1.004663156951521330e+01 -1.009093357292496940e+01 -1.008496281104856607e+01 -1.011068665481690054e+01
7.329059635798751415e-01 5.906819862687824330e-01 5.102270834544105904e-01 4.577979445998948682e-01 7.669360017113464600e-01 8.360551956631185888e-01 9.830813503361215400e-01 1.093223702793885588e+00 1.093223702793885588e+00 1.132753032486718769e+00 1.170666580984516481e+00 1.176893636283931066e+00 1.187429603514772225e+00 1.188272952073752720e+00 1.184875660337781911e+00 1.183940075137613013e+00 1.184846018377277099e+00 1.173558414478381051e+00 1.163264909816214443e+00 1.108446266370540556e+00 1.108446266370540556e+00 8.954426003707942616e-01 6.823005444066398972e-01 6.823005444066398972e-01 4.362427654821115497e-01 1.645270646132337700e-01 4.933908112363816906e-02 -1.384690689917107698e-01 -6.652672950227064286e-01 -9.478251902398575623e-01 -1.705142894775093954e+00 -2.194281248966561293e+00 -2.611549808829646935e+00 -3.061568449118592827e+00 -3.449416690094369020e+00 -3.449416690094369020e+00 -3.537236180653082318e+00 -3.597587102245665136e+00 -3.750513002272970020e+00 -3.657796791400249159e+00 -2.787891479413548979e+00 -2.420103381471398141e+00 -1.961461681587559847e+00 -1.997809592496872622e+00 -2.204972306618412148e+00 -2.307379221119136403e+00 -2.546322182515686094e+00 -2.722810512411413697e+00 -2.907808851345480505e+00 -3.280374647014155265e+00 -3.645637171122789066e+00 -3.645637171122789066e+00 -4.168355781003922900e+00 -4.677549517457657124e+00 -4.861247590292766318e+00 -5.154636476161856606e+00 -5.489304249537494407e+00 -5.624369267606887490e+00 -5.781882872934264839e+00 -6.031191058841637087e+00 -6.163819159689423621e+00 -6.371824598541074636e+00 -6.490909661105584760e+00 -6.607708649388886357e+00 -6.778348888336774181e+00 -6.982893527502875841e+00 -6.982893527502875841e+00 -7.169990379391423474e+00 -7.308261363897829099e+00 -7.372282899660891786e+00 -7.505832475557226324e+00 -7.695346306292053740e+00 -7.767297519663594052e+00 -7.909876370449653749e+00 -8.003582302099351509e+00 -8.075104354232635728e+00 -8.162458305861303387e+00 -8.296360647343338002e+00 -8.296360647343338002e+00 -8.402923032583295537e+00 -8.509485417823251296e+00 -8.556622304213831853e+00 -8.616047803063208832e+00 -8.709310768795470281e+00 -8.763232276020271883e+00 -8.863448856411690002e+00 -8.909923140659028462e+00 -8.959667458186672206e+00 -9.057500806478511635e+00 -9.132879959405100223e+00 -9.132879959405100223e+00 -9.209734465703686368e+00 -9.272259743784349695e+00 -9.272259743784349695e+00 -9.363021650357506331e+00 -9.402586173671153347e+00 -9.441287900745955142e+00 -9.490271924701836781e+00 -9.546299195092020184e+00 -9.582795460030650858e+00 -9.643633570321210158e+00 -9.700286307655140661e+00 -9.670721856808080830e+00 -9.765983180391724972e+00 -9.833770446157391376e+00 -9.833770446157391376e+00 -9.835594722553095082e+00 -9.875569703663988008e+00 -9.913871516593109945e+00 -9.943951700129341376e+00 -1.001567037879986444e+01 -9.985704383148432228e+00 -1.004013779976113696e+01 -1.009331078520928848e+01 -1.012926984609156733e+01 -1.012124099147937528e+01
6.280513954795599041e-01 6.280513954795599041e-01 4.757380209913515401e-01 4.476950506516912398e-01 7.669360017113464600e-01 8.873389361585541923e-01 1.026910169015598395e+00 1.066266581065189456e+00 1.105875316459836277e+00 1.110209969350785864e+00 1.140438275167651172e+00 1.189716836478471151e+00 1.190871162376144099e+00 1.195789534153183231e+00 1.193732128160773787e+00 1.172472323453573884e+00 1.189993449427075412e+00 1.189993449427075412e+00 1.181543011760699535e+00 1.070412679013363899e+00 9.791276819427683353e-01 8.691066122388900750e-01 6.461998486857640778e-01 5.012647916850135887e-01 2.416950794044543105e-01 7.114363046718727435e-02 -2.093815028044758789e-02 -3.309459608333296665e-01 -1.011662425657927189e+00 -1.011662425657927189e+00 -1.783529478937410317e+00 -2.746391692063112622e+00 -2.746391692063112622e+00 -3.219215671851078486e+00 -3.398178813594820546e+00 -3.450658459182177396e+00 -3.600078916630711667e+00 -3.710275413780317777e+00 -3.667279793416592160e+00 -3.151635853522001707e+00 -2.575048321739129342e+00 -2.211303947630676614e+00 -1.991770040956968968e+00 -2.071345015039273818e+00 -2.071345015039273818e+00 -2.362759519031451649e+00 -2.623863636961032419e+00 -2.722810512411413697e+00 -3.033196940659736107e+00 -3.450522396798766600e+00 -3.538255811787145433e+00 -3.955777061774313985e+00 -4.295157122302714292e+00 -4.450550816593490389e+00 -4.947019415802328623e+00 -5.353338441610664411e+00 -5.353338441610664411e+00 -5.672788283750657357e+00 -5.934724350254091618e+00 -6.031191058841637087e+00 -6.207744338593909283e+00 -6.380968760366504178e+00 -6.490909661105584760e+00 -6.693948329703111710e+00 -6.797291944320630108e+00 -6.889271150239427932e+00 -7.083469535924887595e+00 -7.256211341029606743e+00 -7.256211341029606743e+00 -7.401462267125445749e+00 -7.564844898809150564e+00 -7.564844898809150564e+00 -7.765620594505444174e+00 -7.934270090521682306e+00 -8.003582302099351509e+00 -8.091294251028450901e+00 -8.173859622969589012e+00 -8.226943775693781546e+00 -8.355786146192714980e+00 -8.415211645042091959e+00 -8.462348531432670740e+00 -8.568910916672630051e+00 -8.661871957383048937e+00 -8.661871957383048937e+00 -8.773206189073395223e+00 -8.881360745532500545e+00 -8.909923140659028462e+00 -8.970052942979496180e+00 -9.067029604676530852e+00 -9.099949953750458675e+00 -9.175432074950723660e+00 -9.213944287856206117e+00 -9.237837657967800098e+00 -9.313672964969089918e+00 -9.379566828039745729e+00 -9.379566828039745729e+00 -9.444151435461076716e+00 -9.488886293111002956e+00 -9.546299195092020184e+00 -9.593321316681317157e+00 -9.642387253662880298e+00 -9.700286307655140661e+00 -9.721473081230307400e+00 -9.767914373712535792e+00 -9.773177216800718270e+00 -9.862974772470078477e+00 -9.843238168159871293e+00 -9.890300334654998693e+00 -9.920325805987488366e+00 -9.990564997245101608e+00 -9.990564997245101608e+00 -9.993341740797111683e+00 -1.004297274393587003e+01 -1.009331078520928848e+01 -1.012358773765038755e+01 -1.013179532814184824e+01
5.801927601010026248e-01 4.416299398342057314e-01 4.514597830169859161e-01 4.797485074184927867e-01 6.935467592197512854e-01 9.707313274335833686e-01 1.054055969945107973e+00 1.054055969945107973e+00 1.091257386384469008e+00 1.122300570890369054e+00 1.122300570890369054e+00 1.183879457016325354e+00 1.192377726024012263e+00 1.195789534153183231e+00 1.185161008961638007e+00 1.167121045874012886e+00 1.129758704104446787e+00 1.195526775700762157e+00 1.128670691868815634e+00 1.118872810284477604e+00 9.785728997013045660e-01 7.428610839761778939e-01 7.428610839761778939e-01 4.519440025002384731e-01 1.654101947723202459e-01 7.114363046718727435e-02 -9.291808597665895952e-02 -4.046167795005558565e-01 -4.641332186254560344e-01 -1.244000244595338422e+00 -1.923009991090764981e+00 -2.418167703844282812e+00 -3.179071040516302293e+00 -3.484049234494969838e+00 -3.484049234494969838e+00 -3.449251849637733791e+00 -3.748272040824815576e+00 -3.710275413780317777e+00 -3.745332437048666030e+00 -2.885609882460079767e+00 -2.575048321739129342e+00 -2.007645881846109592e+00 -1.979728581010713251e+00 -2.067020675160274212e+00 -2.208428939152438097e+00 -2.382426016580908801e+00 -2.520546731444491151e+00 -2.883725879237181378e+00 -3.357451123153214478e+00 -3.357451123153214478e+00 -3.598488271274799644e+00 -4.121738126795142065e+00 -4.295157122302714292e+00 -4.636232027220776430e+00 -5.071696696805627624e+00 -5.240942239569344352e+00 -5.536326188154641947e+00 -5.719257780123519375e+00 -5.838257641666544373e+00 -6.117631980139574210e+00 -6.316440465827817263e+00 -6.316440465827817263e+00 -6.500053822931015191e+00 -6.707621609174758248e+00 -6.797291944320630108e+00 -6.909238517398225810e+00 -7.119989495522593970e+00 -7.169690497563070863e+00 -7.341674844448353277e+00 -7.438820890747332548e+00 -7.521026273387377614e+00 -7.716312955420401742e+00 -7.908014216338451696e+00 -7.908014216338451696e+00 -7.994417984671404298e+00 -8.143304026443184185e+00 -8.173859622969589012e+00 -8.238653792119801977e+00 -8.361681236697990016e+00 -8.415211645042091959e+00 -8.474637143891467161e+00 -8.581199529131424697e+00 -8.628336415522005254e+00 -8.717168257320818014e+00 -8.783785413922954532e+00 -8.825024690526609206e+00 -8.932096697845372191e+00 -9.030564801278664788e+00 -9.030564801278664788e+00 -9.108038900873289379e+00 -9.186532690936626722e+00 -9.213944287856206117e+00 -9.246141377373643166e+00 -9.318834398150137588e+00 -9.368575321024280811e+00 -9.417948985915739257e+00 -9.447014970176198290e+00 -9.496714086758611728e+00 -9.552405914371327356e+00 -9.615180233664068155e+00 -9.615180233664068155e+00 -9.701120610546769996e+00 -9.723025897827413999e+00 -9.767914373712535792e+00 -9.783482693364625504e+00 -9.873940650437207367e+00 -9.843238168159871293e+00 -9.886248695950023091e+00 -9.920941948895357854e+00 -9.949688032845374508e+00 -1.001930111519916622e+01 -1.003675915471556834e+01 -1.003675915471556834e+01 -1.009568799749360579e+01 -1.013556609079302540e+01 -1.019258583795345530e+01
7.706408941689362191e-01 5.290416648107965081e-01 4.332161444375455250e-01 4.797485074184927867e-01 6.945633850618994076e-01 8.770903716248352744e-01 9.863133382843088937e-01 1.077725671581535316e+00 1.089128788162464057e+00 1.104096569611231482e+00 1.162008230297828293e+00 1.190187146143604213e+00 1.190187146143604213e+00 1.184401986295211984e+00 1.165390806921821731e+00 1.167121045874012886e+00 1.161635926678030728e+00 1.116878792386639230e+00 1.128670691868815634e+00 1.066941070926836321e+00 9.089934190438163641e-01 8.349559896293641259e-01 5.510267238848788329e-01 3.670320424808662940e-01 2.655580914630600864e-01 -1.278563736865546974e-02 -2.589618425823109193e-01 -2.589618425823109193e-01 -4.562011732715280932e-01 -1.365228157147481136e+00 -1.923009991090764981e+00 -2.658308656129069636e+00 -3.328532048289195799e+00 -3.420887669231554185e+00 -3.664564861732427126e+00 -3.856763658622518243e+00 -3.785589325053986709e+00 -3.714473043675778463e+00 -3.325389320408674187e+00 -3.325389320408674187e+00 -2.325201152916380742e+00 -1.979314343861217962e+00 -1.979728581010713251e+00 -2.066122997972840380e+00 -2.288480782925787160e+00 -2.382426016580908801e+00 -2.726474033477389369e+00 -2.963889505523731760e+00 -3.195676047889904670e+00 -3.503459727001931867e+00 -3.927973850097999708e+00 -3.927973850097999708e+00 -4.429545120655337342e+00 -4.850608471423306867e+00 -5.071696696805627624e+00 -5.296989240811729616e+00 -5.562659416585897354e+00 -5.719257780123519375e+00 -5.863113522874899175e+00 -6.128348597050538693e+00 -6.236312039071877145e+00 -6.424420755383248860e+00 -6.532465253684275552e+00 -6.619019212713969758e+00 -6.844259812556817479e+00 -7.062791337344533460e+00 -7.062791337344533460e+00 -7.218771021863468640e+00 -7.379837091392070114e+00 -7.438820890747332548e+00 -7.549041053996980999e+00 -7.739146615300820820e+00 -7.780655831456389393e+00 -7.929784996256080909e+00 -8.013607145325030601e+00 -8.056330352889050417e+00 -8.199319754263342475e+00 -8.308745305607668996e+00 -8.308745305607668996e+00 -8.427500257500886605e+00 -8.534062642740845916e+00 -8.581199529131424697e+00 -8.640625027980799899e+00 -8.727747482170375548e+00 -8.836404797624124896e+00 -8.899272634653307534e+00 -8.954270255031717696e+00 -9.032879001838175270e+00 -9.074537534100533875e+00 -9.143609512795260130e+00 -9.190831619568443855e+00 -9.218154110008724089e+00 -9.288071716794329191e+00 -9.325242763775111854e+00 -9.370489746314298429e+00 -9.433311798160328721e+00 -9.502386055597478176e+00 -9.502386055597478176e+00 -9.558058652757816631e+00 -9.626484805049519977e+00 -9.641140937004550437e+00 -9.701954913438395778e+00 -9.724578714424520598e+00 -9.769845567033348388e+00 -9.851253498702906342e+00 -9.884906528404336257e+00 -9.850881613766645728e+00 -9.896927688236056397e+00 -9.955424365561407640e+00 -9.955424365561407640e+00 -1.002293185159846978e+01 -1.002909305366083181e+01 -1.004580768811059954e+01 -1.009806520977792488e+01 -1.016947124336460462e+01 -1.014234966480432476e+01
6.054297821842178351e-01 5.207777664963856301e-01 4.075289397434955219e-01 4.766195885410681177e-01 8.008482171652729908e-01 8.008482171652729908e-01 9.481571349286266326e-01 1.070036817605575230e+00 1.089128788162464057e+00 1.115879749224017337e+00 1.161722680842459443e+00 1.197653011828752279e+00 1.186356014889863975e+00 1.160932632076814075e+00 1.162910378673519984e+00 1.145860573252887038e+00 1.102258858732269475e+00 1.102258858732269475e+00 1.052922778570107409e+00 9.858825501647526801e-01 9.089934190438163641e-01 7.206284081905902639e-01 4.628489923955133589e-01 3.670320424808662940e-01 9.533599825056020272e-02 -4.255001830991011341e-02 -1.719384107275892248e-01 -3.953694701222873475e-01 -1.067844473050824305e+00 -1.067844473050824305e+00 -2.107918369268843239e+00 -3.188090048027139467e+00 -3.188090048027139467e+00 -3.528352231433977693e+00 -3.784225136818454516e+00 -3.856763658622518243e+00 -3.817920372588460509e+00 -3.357223078734573818e+00 -3.305499414278232351e+00 -2.724663197735484932e+00 -2.452879861058560262e+00 -2.142240574437725975e+00 -2.020450164463231779e+00 -2.194599162928190239e+00 -2.194599162928190239e+00 -2.487916673240957444e+00 -2.781234183553724648e+00 -2.963889505523731760e+00 -3.158471719279541290e+00 -3.589593747581669270e+00 -3.757767567170668510e+00 -4.211188623740365955e+00 -4.457977822453543126e+00 -4.860974954763563005e+00 -5.057290279248445763e+00 -5.427428093291706723e+00 -5.582256841082113397e+00 -5.722685181978507174e+00 -5.979119584504590357e+00 -6.216915978107264706e+00 -6.216915978107264706e+00 -6.438136573215382796e+00 -6.648123583845626072e+00 -6.733487516719509181e+00 -6.841998854421410314e+00 -7.033473525367184287e+00 -7.138974518208310194e+00 -7.206037415360385445e+00 -7.403150369980372680e+00 -7.465654289084923789e+00 -7.608366244188765393e+00 -7.763673629245742447e+00 -7.817915408961393808e+00 -7.928427832173794876e+00 -8.102905710207377155e+00 -8.102905710207377155e+00 -8.230077229894751767e+00 -8.339502781239078288e+00 -8.355220351462856243e+00 -8.426236438924700423e+00 -8.546351255199642338e+00 -8.593488141590221119e+00 -8.678539424376882749e+00 -8.738326707019934858e+00 -8.794364638772513842e+00 -8.911814893923560632e+00 -8.984258756140015123e+00 -8.984258756140015123e+00 -9.082045463524536899e+00 -9.148974289490338307e+00 -9.190831619568443855e+00 -9.222363932161242062e+00 -9.295977703299319828e+00 -9.325242763775111854e+00 -9.390430563882894432e+00 -9.448674610404916407e+00 -9.449878504891319864e+00 -9.501971995774118440e+00 -9.594516816982208596e+00 -9.594516816982208596e+00 -9.639894620346218801e+00 -9.680808395867410709e+00 -9.724578714424520598e+00 -9.771776760354160984e+00 -9.853394895027081546e+00 -9.884906528404336257e+00 -9.858525059373423716e+00 -9.907606680522091480e+00 -9.921558091803227342e+00 -1.000550110800779180e+01 -1.002656258799777156e+01 -1.000861645609446882e+01 -1.004864263228533261e+01 -1.011480594226377860e+01 -1.011480594226377860e+01 -1.015290400146679772e+01
6.041698756673923310e-01 5.207777664963856301e-01 4.216860817808264494e-01 4.820791077062627772e-01 6.562144725073573159e-01 8.729568721758895755e-01 9.757510305350419744e-01 1.017119438944202869e+00 1.083650827106894088e+00 1.131812676598452638e+00 1.131812676598452638e+00 1.178050394268639112e+00 1.173988199631639029e+00 1.160932632076814075e+00 1.156295529727045857e+00 1.122673137480359129e+00 1.107003227612839202e+00 1.056056399730829209e+00 1.062141031625814191e+00 1.007244289858128639e+00 8.297611300068461482e-01 5.755599106618003447e-01 3.974965320789344836e-01 2.765057319897249455e-01 4.010432880664287214e-02 -1.865801043930578329e-01 -1.865801043930578329e-01 -4.595911820781076185e-01 -1.199158351937225087e+00 -1.655956807115559926e+00 -2.257078319639871378e+00 -3.174722057312644008e+00 -3.388274734468083249e+00 -3.656090047947804234e+00 -3.779578367615151091e+00 -3.916813401893072033e+00 -3.499232796673670709e+00 -2.967852918072073187e+00 -2.967852918072073187e+00 -2.475107365150947647e+00 -2.172508210215090774e+00 -1.969577678249634811e+00 -2.025433396031677713e+00 -2.228909983338908773e+00 -2.405445913273600134e+00 -2.582550497593440575e+00 -2.938762910112623139e+00 -3.020667637437792319e+00 -3.447595349289787059e+00 -3.670768733274643481e+00 -3.862362929174385950e+00 -4.257168573279914270e+00 -4.664659015449814206e+00 -4.664659015449814206e+00 -5.077198565825871590e+00 -5.453431973166236624e+00 -5.582256841082113397e+00 -5.713737961093134921e+00 -5.974595428860156154e+00 -6.095125646134281538e+00 -6.340395399847747804e+00 -6.487265099790059608e+00 -6.572355823559023591e+00 -6.765630373459574187e+00 -6.950510192123310560e+00 -6.950510192123310560e+00 -7.153824770279011425e+00 -7.313607904809166449e+00 -7.403150369980372680e+00 -7.492487687422515918e+00 -7.641400889486218873e+00 -7.763673629245742447e+00 -7.917004705414832699e+00 -7.944366987587137885e+00 -8.009393861320949881e+00 -8.179720957696885009e+00 -8.300168743382620562e+00 -8.300168743382620562e+00 -8.409594294726947084e+00 -8.499364609968356632e+00 -8.499364609968356632e+00 -8.605776754049017541e+00 -8.686873157873799656e+00 -8.738326707019934858e+00 -8.804943863622073152e+00 -8.921347676353470035e+00 -8.976443812218063201e+00 -9.035193202397685752e+00 -9.089553392948539923e+00 -9.124216795118950785e+00 -9.193034007186822620e+00 -9.266712642823527801e+00 -9.266712642823527801e+00 -9.333148750280102490e+00 -9.406037720436573935e+00 -9.448674610404916407e+00 -9.459876702014188510e+00 -9.508514847105676182e+00 -9.563711391144309459e+00 -9.637789376434973576e+00 -9.638648303687890717e+00 -9.702789216330025113e+00 -9.726131531021628973e+00 -9.810190395767181215e+00 -9.810190395767181215e+00 -9.889337817738478975e+00 -9.907612149123156797e+00 -9.907606680522091480e+00 -9.929186234941393963e+00 -1.000896702499274937e+01 -1.002656258799777156e+01 -1.003349926665956993e+01 -1.005147757646006390e+01 -1.010111707575720175e+01 -1.016791608534302327e+01 -1.019929720524260119e+01
6.181168567709167672e-01 4.444905645160723284e-01 4.280305865136145860e-01 5.400830001747466413e-01 5.400830001747466413e-01 9.373522075595561720e-01 1.042568749989056798e+00 1.067275220087417820e+00 1.066648501100795343e+00 1.087815536508380365e+00 1.131772169774190706e+00 1.172588990696310951e+00 1.164903634567156621e+00 1.169351097281870810e+00 1.132594062323397655e+00 1.141215528984339089e+00 1.141215528984339089e+00 1.117037773393499966e+00 9.977552321096855303e-01 9.977552321096855303e-01 7.944898547549044121e-01 5.331686497177923201e-01 3.974965320789344836e-01 2.174307567169871114e-01 -3.300175666633643756e-02 -8.640721897933023588e-02 -3.989491591438042994e-01 -6.361902789558517846e-01 -8.793563625988192189e-01 -1.868772334132682733e+00 -2.885724069799426861e+00 -2.885724069799426861e+00 -3.315379189273731875e+00 -3.638736208321615262e+00 -3.779578367615151091e+00 -3.835112516872185573e+00 -3.900987082945809536e+00 -3.296544633239467004e+00 -2.791540912200762836e+00 -2.225114566664439852e+00 -2.204993865734938829e+00 -1.976406218238911716e+00 -2.177068128291191229e+00 -2.177068128291191229e+00 -2.460799201656500568e+00 -2.817011614175682688e+00 -2.938762910112623139e+00 -3.145015404552855998e+00 -3.479385798698082510e+00 -3.670768733274643481e+00 -4.049782282127130983e+00 -4.271014596611570902e+00 -4.513196586399276455e+00 -4.916040109304304906e+00 -5.314291735464399480e+00 -5.314291735464399480e+00 -5.609905498060104634e+00 -5.870762965827126756e+00 -5.870762965827126756e+00 -6.131620433594148878e+00 -6.356093056611983094e+00 -6.487265099790059608e+00 -6.612246393433773406e+00 -6.794031556481527900e+00 -6.874141711161473545e+00 -7.096517183804187390e+00 -7.114030328546937731e+00 -7.224065439637961106e+00 -7.421178394257946564e+00 -7.615375185898353827e+00 -7.615375185898353827e+00 -7.783187037019988708e+00 -7.903346284976368707e+00 -7.944366987587137885e+00 -8.026470384604605712e+00 -8.177170901477797571e+00 -8.247347136386766309e+00 -8.370260256870489357e+00 -8.440351770358356376e+00 -8.479685808214814102e+00 -8.569239728975784232e+00 -8.665202252898392743e+00 -8.665202252898392743e+00 -8.748905931869494168e+00 -8.859165011819156277e+00 -8.921347676353470035e+00 -8.976535680836121855e+00 -9.037507402957198011e+00 -9.089553392948539923e+00 -9.154339066185418261e+00 -9.195236394805201385e+00 -9.226573754313760034e+00 -9.303883689804310464e+00 -9.341054736785093127e+00 -9.368982524845380411e+00 -9.463576295550106821e+00 -9.507544150529884774e+00 -9.507544150529884774e+00 -9.569148840761249275e+00 -9.649093947820427175e+00 -9.638648303687890717e+00 -9.703623519221652671e+00 -9.727684347618733796e+00 -9.773707953674971805e+00 -9.848895359210226630e+00 -9.889877963612068612e+00 -9.866168504980198151e+00 -9.917481009963539762e+00 -9.965761744293013535e+00 -9.965761744293013535e+00 -1.002904961958844510e+01 -1.005208879358164431e+01 -1.005147757646006390e+01 -1.010432728117872081e+01 -1.016580609505962229e+01 -1.016345833812927069e+01
6.181168567709167672e-01 4.682345843987458234e-01 4.111657481709849460e-01 5.476383516339254909e-01 7.558374131851477440e-01 8.182916487073060852e-01 9.508092542491893839e-01 1.049828190663648408e+00 1.070840405618280311e+00 1.070840405618280311e+00 1.114154171282770944e+00 1.163727725300327975e+00 1.164903634567156621e+00 1.163466874494986980e+00 1.166481610768058896e+00 1.116358890979592067e+00 1.181231171762799237e+00 1.129669122702952277e+00 1.068598980184907177e+00 8.946132108791924331e-01 6.655313226199534027e-01 6.655313226199534027e-01 3.641326626465353766e-01 3.597807131189872942e-02 -3.300175666633643756e-02 -1.661348996086407792e-01 -4.790659290344258525e-01 -6.361902789558517846e-01 -1.504344173980355581e+00 -2.139568512353443808e+00 -2.518337207759233642e+00 -3.146379318711689077e+00 -3.243876866800484482e+00 -3.470647432934603760e+00 -3.673514203718964310e+00 -3.927896314947656897e+00 -3.927896314947656897e+00 -4.000425811613449234e+00 -2.708089651356610617e+00 -2.225114566664439852e+00 -2.042180798533305808e+00 -2.001163632413520688e+00 -2.097283162608489349e+00 -2.365581690385123448e+00 -2.579844528788989955e+00 -2.695260318238742681e+00 -3.026066710837215012e+00 -3.369838759687273200e+00 -3.369838759687273200e+00 -3.667016412974008599e+00 -4.081804454353552991e+00 -4.271014596611570902e+00 -4.556549408272850599e+00 -4.980083159348669852e+00 -5.149483395779002493e+00 -5.459619741250019587e+00 -5.658902679986420381e+00 -5.766930502794096469e+00 -6.027787970561119479e+00 -6.255561473746505285e+00 -6.255561473746505285e+00 -6.477017092176649449e+00 -6.737227687077486316e+00 -6.794031556481527900e+00 -6.906284567901539440e+00 -7.075038785930007457e+00 -7.114030328546937731e+00 -7.263467596549300076e+00 -7.439206418535522225e+00 -7.520814929389827874e+00 -7.674435534783674129e+00 -7.802700444794232304e+00 -7.915704125362991839e+00 -7.961443510870793716e+00 -8.108573781622075316e+00 -8.108573781622075316e+00 -8.255110798667793404e+00 -8.362617293437292432e+00 -8.440351770358356376e+00 -8.486835828222822897e+00 -8.571972137234400435e+00 -8.629751237547310438e+00 -8.694792352046750494e+00 -8.759485156719053478e+00 -8.815523088471632462e+00 -8.932152546931671822e+00 -8.997323798999989464e+00 -8.997323798999989464e+00 -9.097061322372541170e+00 -9.159703842880499991e+00 -9.195236394805201385e+00 -9.231458520587745298e+00 -9.311789676309299324e+00 -9.341054736785093127e+00 -9.416275648545363808e+00 -9.477132687163470237e+00 -9.509315243061569944e+00 -9.515057698437233924e+00 -9.594001013001797418e+00 -9.660398519205880774e+00 -9.637401987029560857e+00 -9.685193937871099834e+00 -9.775639146995784401e+00 -9.775639146995784401e+00 -9.850854012950946981e+00 -9.874374606835269574e+00 -9.874374606835269574e+00 -9.925030123278954619e+00 -9.969584736812555192e+00 -1.000550918137708933e+01 -1.003124515336318545e+01 -1.007067832050371869e+01 -1.005316520409210845e+01 -1.010783948076040772e+01 -1.016435153317916296e+01 -1.017401267479174720e+01
5.805414687540680907e-01 4.085534971759702261e-01 4.111657481709849460e-01 4.147734536993958887e-01 7.691079117322647818e-01 8.182916487073060852e-01 9.117809014001881929e-01 1.043163092367652256e+00 1.060141017332656643e+00 1.077088959371042654e+00 1.105818808269990461e+00 1.150246362809035139e+00 1.150751389848103656e+00 1.134448503943579212e+00 1.134448503943579212e+00 1.194921020265845790e+00 1.158399780165664250e+00 1.129669122702952277e+00 1.025936687130002190e+00 8.346588687321946365e-01 7.528394743729707184e-01 5.232422376673315778e-01 3.228566839078021999e-01 1.674751398353598320e-01 -1.103930394869873655e-01 -3.738419870622896046e-01 -3.738419870622896046e-01 -8.539148452703224645e-01 -1.798607870117058471e+00 -2.139568512353443808e+00 -2.708680585739421609e+00 -3.085719990396942336e+00 -3.243876866800484482e+00 -3.516800429570339226e+00 -3.723201074855087889e+00 -3.945202729663203289e+00 -4.092825243013470171e+00 -3.228800240715364644e+00 -3.228800240715364644e+00 -2.063373282420922994e+00 -2.031838505154039076e+00 -2.001163632413520688e+00 -2.211966196651132144e+00 -2.425007247151306444e+00 -2.579844528788989955e+00 -2.762787342975976834e+00 -3.077331126242365045e+00 -3.245440477165269400e+00 -3.526733883921846502e+00 -3.714813508722281554e+00 -3.899132924330579897e+00 -4.355065407132048705e+00 -4.770979650516755655e+00 -4.770979650516755655e+00 -5.147361677196629515e+00 -5.481701600778485783e+00 -5.658902679986420381e+00 -5.819543137977231773e+00 -6.057986245875142117e+00 -6.157391344521970566e+00 -6.381532904064746603e+00 -6.467847465841627397e+00 -6.589212969854669311e+00 -6.817647643467285690e+00 -7.060366727717961588e+00 -7.128221442249504491e+00 -7.184843947096304362e+00 -7.377751260538277123e+00 -7.547332694677917786e+00 -7.547332694677917786e+00 -7.707400190928131778e+00 -7.888065111182608113e+00 -7.908220787565201526e+00 -8.019085362781297022e+00 -8.132918470924925813e+00 -8.187340716728254364e+00 -8.313751717814826137e+00 -8.392449111470037693e+00 -8.420252371962556381e+00 -8.536838757776983755e+00 -8.612909359853949454e+00 -8.645241831633427410e+00 -8.787524049611715071e+00 -8.831537347506897007e+00 -8.831537347506897007e+00 -8.942424800643419047e+00 -9.005787700748387081e+00 -9.039821603516708493e+00 -9.103980978823125625e+00 -9.165057935750901663e+00 -9.197438782423578374e+00 -9.282524615833509074e+00 -9.319695662814289960e+00 -9.348960723290083763e+00 -9.418190073835384979e+00 -9.483232352758500738e+00 -9.483232352758500738e+00 -9.521600549768789890e+00 -9.602049908671038025e+00 -9.660398519205880774e+00 -9.636308724488031885e+00 -9.687386708872944396e+00 -9.729237164215842171e+00 -9.830747323755460343e+00 -9.853185448172002481e+00 -9.890418109485656473e+00 -9.916918463282003771e+00 -9.945636630062807626e+00 -9.945636630062807626e+00 -1.000205133776142929e+01 -1.002812837148902148e+01 -1.007067832050371869e+01 -1.005086701014810480e+01 -1.010435625000872228e+01 -1.016435153317916296e+01 -1.018456701145422016e+01
4.813462342320115050e-01 4.655225468539517797e-01 4.156389970428844283e-01 5.170875293484620272e-01 5.170875293484620272e-01 8.980131588282129762e-01 1.021953435333906146e+00 1.043163092367652256e+00 1.052238737367048760e+00 1.068929358742104485e+00 1.105818808269990461e+00 1.147195373066359547e+00 1.137939532757744399e+00 1.148560839615056173e+00 1.143881286706278644e+00 1.181325098697188825e+00 1.181325098697188825e+00 1.088089230475820068e+00 9.097769820543966102e-01 9.097769820543966102e-01 6.920174036545565510e-01 4.811554535038023439e-01 3.228566839078021999e-01 1.166851267114040469e-01 -1.891192405614149641e-01 -2.580956041730639305e-01 -6.313276231947905215e-01 -9.932270699751279963e-01 -1.449020539931007212e+00 -2.440821008751022703e+00 -2.979279321693411031e+00 -2.979279321693411031e+00 -3.197536733095470929e+00 -3.517413333789553676e+00 -3.951456927911643824e+00 -3.951456927911643824e+00 -4.225242241629715956e+00 -3.013132524131930001e+00 -2.460794411560331962e+00 -2.035183377686037520e+00 -2.041639584124122830e+00 -2.143747038710450692e+00 -2.415247924204583896e+00 -2.470626600311192078e+00 -2.611935774999431636e+00 -2.940416551561797931e+00 -3.233894898962871522e+00 -3.233894898962871522e+00 -3.526206030625639087e+00 -3.936368863557408559e+00 -4.140728192833134536e+00 -4.392662984156826766e+00 -4.796033600043575262e+00 -4.994461235588818937e+00 -5.173975913816169836e+00 -5.503850567837032415e+00 -5.676442697381322233e+00 -5.958727652455452883e+00 -6.071079268656074390e+00 -6.163532118037196028e+00 -6.383594034554080920e+00 -6.582307236472889400e+00 -6.582307236472889400e+00 -6.803234241987706099e+00 -7.031464487848070988e+00 -7.128221442249504491e+00 -7.196612677800961144e+00 -7.384977783236992721e+00 -7.460762213784897234e+00 -7.659198200769985476e+00 -7.735505020665478071e+00 -7.817467854490871559e+00 -7.955689660760776327e+00 -8.099972638065052521e+00 -8.099972638065052521e+00 -8.193351441926662204e+00 -8.326824063567720202e+00 -8.392449111470037693e+00 -8.434249342701123808e+00 -8.539239684626792837e+00 -8.612909359853949454e+00 -8.724325625428189568e+00 -8.801510393457217418e+00 -8.783067196472291727e+00 -8.914871487934505012e+00 -8.976955986194948167e+00 -8.976955986194948167e+00 -9.056170714274244915e+00 -9.140712696777654855e+00 -9.165057935750901663e+00 -9.205537521488796671e+00 -9.299120839552825757e+00 -9.319695662814289960e+00 -9.346057248539210605e+00 -9.415349251230731298e+00 -9.479591177949927783e+00 -9.510890740792802944e+00 -9.518476840713377740e+00 -9.586332933474791318e+00 -9.658842831574247612e+00 -9.706916948637719145e+00 -9.706916948637719145e+00 -9.735312513469370543e+00 -9.829586033766387843e+00 -9.853185448172002481e+00 -9.885134838171435234e+00 -9.915580279683004150e+00 -9.932579236594371253e+00 -9.976200525354027349e+00 -9.986545322033601124e+00 -1.003540423203608967e+01 -1.008538627816362343e+01 -1.010960925175874969e+01 -1.010960925175874969e+01 -1.016011124545134514e+01 -1.020374679200032197e+01
4.813462342320115050e-01 4.866357195929825741e-01 5.000111301533761710e-01 6.947266472624271660e-01 8.704337322619748463e-01 9.747439454290887095e-01 1.006464029646999103e+00 1.032793783365328233e+00 1.052070205860894836e+00 1.071443104060596063e+00 1.100122038390958679e+00 1.130333968464068750e+00 1.130860779448757736e+00 1.130860779448757736e+00 1.121961368915149748e+00 1.176680346945721212e+00 1.139698321315248952e+00 1.041553689205999111e+00 8.784402628285323811e-01 7.936778115722379345e-01 5.552164165441638710e-01 3.652569650428641457e-01 2.660613120992476599e-01 -8.993212317650847720e-02 -3.350174506521046425e-01 -3.350174506521046425e-01 -8.265182594751234735e-01 -1.621777653871165237e+00 -2.080097434018094660e+00 -2.509517945362770064e+00 -3.009892273415022856e+00 -3.121718882475554846e+00 -3.321958443405008232e+00 -3.597759126367930271e+00 -3.708928131914285942e+00 -4.130236416710563851e+00 -4.686251232687273394e+00 -4.473746163742362114e+00 -2.301607568580622321e+00 -1.966443755058612242e+00 -1.966443755058612242e+00 -2.127618589115457315e+00 -2.426708923078950253e+00 -2.470626600311192078e+00 -2.664459724047539169e+00 -2.969092026863435763e+00 -3.122238797409182087e+00 -3.393439705558464858e+00 -3.598355893320085208e+00 -3.783203301121464968e+00 -4.186502694950974046e+00 -4.618830183144181589e+00 -4.618830183144181589e+00 -5.002498401528413297e+00 -5.348692121522507392e+00 -5.503850567837032415e+00 -5.680175899463983491e+00 -5.985174190709170006e+00 -6.071079268656074390e+00 -6.276759786211229653e+00 -6.405510129997848523e+00 -6.497178886138883946e+00 -6.730355477507455220e+00 -6.932316844931124322e+00 -6.932316844931124322e+00 -7.099855723399528529e+00 -7.311438186700769393e+00 -7.311438186700769393e+00 -7.481885380371400274e+00 -7.643258046552434237e+00 -7.735505020665478071e+00 -7.827798947034657395e+00 -7.973010514819794281e+00 -8.011535280830168304e+00 -8.165624742518541979e+00 -8.222150000937483938e+00 -8.274425709035089227e+00 -8.409067398623186307e+00 -8.508025261130299555e+00 -8.508025261130299555e+00 -8.638684851441359669e+00 -8.741583174388143362e+00 -8.801510393457217418e+00 -8.793501117836031611e+00 -8.918979992317769501e+00 -8.952005965131810683e+00 -9.021853064227833841e+00 -9.079188333357446794e+00 -9.107076279436810751e+00 -9.168975277074371988e+00 -9.245068275513990130e+00 -9.245068275513990130e+00 -9.322918710170672085e+00 -9.386969563286566398e+00 -9.415349251230731298e+00 -9.474619492756694683e+00 -9.512574532883853351e+00 -9.518476840713377740e+00 -9.603611507292090010e+00 -9.645930139657721725e+00 -9.632446891740649164e+00 -9.686476818686493573e+00 -9.747984506250418235e+00 -9.776924383848296429e+00 -9.837770051569151519e+00 -9.897814523336410986e+00 -9.897814523336410986e+00 -9.946793491937388154e+00 -9.979244616707955373e+00 -9.986545322033601124e+00 -1.002400662113312180e+01 -1.008123049951440464e+01 -1.005843376080667539e+01 -1.010413326004480794e+01 -1.014323322902453128e+01 -1.017655416483121833e+01
