4.351034402251955591e+00 4.404780111866926973e+00 4.410554826437387277e+00 4.557431329029385303e+00 4.695100517743689750e+00 4.649973929738775880e+00 4.248686997861194747e+00 4.107403968373742664e+00 3.680270437975998288e+00 2.971719996926753815e+00 2.222233314271436555e+00 2.222233314271436555e+00 1.910952617251920227e+00 1.713708297655637480e+00 1.625233932623159294e+00 1.575729636886022966e+00 1.489363841883983408e+00 1.411764779446479157e+00 1.333353882006169888e+00 1.142524898873429340e+00 1.111846347150796666e+00 8.865853786154651583e-01 7.348840976887250909e-01 7.380679630235712496e-01 -1.121066443558705189e-01 -5.421525631272721135e-01 -5.421525631272721135e-01 -4.854133395166747578e-01 -2.474555105963500146e-01 -2.228128532163795028e-01 -5.179663678963916107e-01 -5.899867062233415949e-01 -5.542851564191231262e-01 -1.495476749168349828e+00 -2.156535710412493145e+00 -3.277995732602169365e+00 -3.940255682454900210e+00 -3.814822130004780654e+00 -3.732541406018132335e+00 -3.750349347420510959e+00 -3.732197781393843172e+00 -3.640859707404375367e+00 -3.640859707404375367e+00 -3.494683128221704571e+00 -2.900140404529841121e+00 -2.684434102539418276e+00 -2.611334067853986252e+00 -1.388225771043692269e+00 -2.986537598058320309e-01 1.027562629070433387e+00 1.320327762228983959e+00 1.494980699370637378e+00 1.869280818450480330e+00 2.130928728202057698e+00 2.130928728202057698e+00 2.219129989015252491e+00 2.286856731374849350e+00 2.286856731374849350e+00 2.345784280252964038e+00 2.305544228375625337e+00 2.363757058677548706e+00 2.268758121751230483e+00 2.108979652698511842e+00 2.107842818898648662e+00 1.885047118072802785e+00 8.946014408137210605e-01 7.531338677112520141e-01 2.106350102742962360e-01 -3.128361562835864640e-01 -3.128361562835864640e-01 -1.034674012581533464e+00 -1.370714932033997968e+00 -1.441575811220346059e+00 -1.447212024619975779e+00 -8.923711619770248182e-01 -8.455872685971184133e-01 -8.075860783942357957e-01 -8.763516219962874665e-01 -7.770353715818549833e-01 -8.106653201559913535e-01 -8.867429859512541146e-01 -8.867429859512541146e-01 -1.026687727162871377e+00 -1.236974583446040388e+00 -1.166591616601564629e+00 -1.473102359112699489e+00 -1.689755513242265472e+00 -1.708562648240927739e+00 -1.943832196979734306e+00 -2.194165203169617051e+00 -2.174137954276432971e+00 -2.729914028743996468e+00 -3.011613744302480633e+00 -3.067055736757372753e+00 -3.306919540021656001e+00 -3.602740357527065562e+00 -3.602740357527065562e+00 -3.864137834974147978e+00 -4.153497849511819773e+00 -4.251953297247000663e+00 -4.488766523019479315e+00 -4.794880585119235761e+00 -4.868968736802803399e+00 -5.081764482443735353e+00 -5.325242661999205041e+00 -5.400162621655962170e+00 -5.648464128801625961e+00 -5.911479588642128746e+00 -5.911479588642128746e+00 -6.259420045345104100e+00 -6.528466983073906604e+00 -6.615947246078221156e+00 -6.675620463128117521e+00 -6.835793567007076632e+00 -6.955841403765135489e+00 -7.079873252320280308e+00
4.383318852098081919e+00 4.256452309701407088e+00 4.487951304589399726e+00 4.567905143786280320e+00 4.582794643229953557e+00 4.614558112817215729e+00 4.379291141880726101e+00 3.830294833972675228e+00 3.830294833972675228e+00 3.093022447054447177e+00 2.372766032608573994e+00 2.072376210529571328e+00 1.943833559883787920e+00 1.729320222756062675e+00 1.639259377067573853e+00 1.517359374758464163e+00 1.458989112630905582e+00 1.404628548387924170e+00 1.212526161729457153e+00 1.014566060936459735e+00 1.014566060936459735e+00 7.783150959549351988e-01 3.287785999835831086e-01 1.599007194709894386e-01 -2.930669826497805386e-01 -3.257988094419979053e-01 -4.112426538549709965e-01 -2.911787573328795675e-01 -3.032324358854247004e-01 -5.553826192544377705e-01 -6.990338617613779393e-01 -8.563292683741562383e-01 -8.081937748203820160e-01 -1.100555611178545945e+00 -2.366660056005777335e+00 -2.366660056005777335e+00 -3.796897455512335817e+00 -3.803847548035104165e+00 -3.732541406018132335e+00 -3.644433191234930813e+00 -3.570831101883296554e+00 -3.655678098307233004e+00 -2.829863140943213118e+00 -2.249581822042070467e+00 -3.355950350297453255e+00 -3.124568970143300817e+00 -1.435367288071083269e+00 -1.435367288071083269e+00 -1.457172268358057909e-01 1.140571301686644112e+00 1.320327762228983959e+00 1.648696466966176555e+00 1.955226960682775683e+00 2.054938688665322033e+00 2.180972471111931821e+00 2.192604456777316191e+00 2.240425681762775678e+00 2.303371267116883558e+00 2.261819268876417155e+00 2.261819268876417155e+00 2.216829850282812764e+00 2.098107600089647917e+00 2.108979652698511842e+00 1.632704930535048948e+00 7.090027306255219930e-01 8.946014408137210605e-01 2.115930039952753083e-01 -2.699645292098185045e-01 -2.878133953296257430e-01 -9.243277457375664863e-01 -1.473822703423037339e+00 -1.354559720097101128e+00 -1.463380539881908859e+00 -9.167869541750985896e-01 -9.167869541750985896e-01 -8.848533436509632422e-01 -8.936307332005055670e-01 -8.763516219962874665e-01 -9.468032575951879082e-01 -9.516263918218414997e-01 -9.657358782075278203e-01 -1.052241423477841442e+00 -1.206433151763552702e+00 -1.217028719849505336e+00 -1.447212485937884097e+00 -1.688370546502829805e+00 -1.688370546502829805e+00 -1.939235328837005223e+00 -2.143063263664504170e+00 -2.194165203169617051e+00 -2.513827558396138251e+00 -2.791797079416344030e+00 -3.011613744302480633e+00 -3.293004953782023847e+00 -3.405134665045238762e+00 -3.502700454515662809e+00 -3.786353830757759109e+00 -4.095041484183784775e+00 -4.095041484183784775e+00 -4.362828409238140637e+00 -4.717067609473700074e+00 -4.794880585119235761e+00 -4.974393685843547352e+00 -5.220777081610201265e+00 -5.325242661999205041e+00 -5.496410099927372173e+00 -5.800445660449524254e+00 -5.839151621932406222e+00 -6.125874840002669686e+00 -6.266115075923675448e+00 -6.415048408619007603e+00 -6.589011699327695482e+00 -6.761285648624049571e+00 -6.761285648624049571e+00 -7.065685174453673056e+00 -7.167535782310991088e+00
4.284707405433501037e+00 4.419405491222724081e+00 4.476136586475940149e+00 4.528952004054740854e+00 4.582794643229953557e+00 4.559486620065223761e+00 4.382595784869713462e+00 4.147202005101203959e+00 3.502080837352543607e+00 3.203970521770662661e+00 2.776052063254056179e+00 2.092385119426714013e+00 1.821720596941135639e+00 1.821720596941135639e+00 1.641068515980294240e+00 1.514288210122686218e+00 1.458989112630905582e+00 1.371128493260588943e+00 1.133084162986405241e+00 1.053126874701004745e+00 7.805126018037729096e-01 4.230148420304050694e-01 3.554139257760398629e-01 -4.690790404837762440e-01 -4.133045137010175063e-01 -4.133045137010175063e-01 -2.665657249704790344e-01 -2.297803024230582469e-01 -3.032324358854247004e-01 -2.905055230890938867e-01 -7.198709464319260620e-01 -8.563292683741562383e-01 -7.203275992750357570e-01 -1.231151440938950570e+00 -1.871472919216227826e+00 -3.326664309009542020e+00 -3.818138525089362467e+00 -3.818138525089362467e+00 -3.626440274769125782e+00 -3.523396113515636863e+00 -3.570831101883296554e+00 -3.134075098100221446e+00 -1.829938756773728636e+00 -2.249581822042070467e+00 -2.068762265743757212e+00 -1.795159469924976881e+00 -1.768922370261056809e+00 -2.960485524852671801e-01 8.708798200488636621e-01 1.049969271646874036e+00 1.468940006423836930e+00 1.903787194660183868e+00 1.903787194660183868e+00 2.106347488717609906e+00 2.153816256444454069e+00 2.192604456777316191e+00 2.205551630164514165e+00 2.221015013043500019e+00 2.211493945844597686e+00 2.161752629380580881e+00 2.066657337542740613e+00 2.081101752850478714e+00 2.056320669152910785e+00 9.877969122004452984e-01 9.877969122004452984e-01 1.682314489086683407e-01 -3.386298339995221784e-01 -2.699645292098185045e-01 -9.214278940511453353e-01 -1.514884117235898442e+00 -1.473822703423037339e+00 -1.617721716539105570e+00 -1.053017964993695044e+00 -9.529923172139544985e-01 -9.140909248814257371e-01 -9.145809361305758944e-01 -9.145809361305758944e-01 -9.517738925319856325e-01 -9.826804545878411457e-01 -9.826804545878411457e-01 -1.036491740463528766e+00 -1.147532113141092491e+00 -1.206433151763552702e+00 -1.390064730748174382e+00 -1.665631908447297249e+00 -1.677121209818775327e+00 -1.919765369092503171e+00 -2.103875926990187661e+00 -2.147215311376896807e+00 -2.441812984095129035e+00 -2.749671039603124534e+00 -2.749671039603124534e+00 -3.076472312809883647e+00 -3.300150090396368086e+00 -3.405134665045238762e+00 -3.625626011716622799e+00 -3.966161657047298394e+00 -3.991997770058329564e+00 -4.229766206587372679e+00 -4.520982142805094028e+00 -4.630746287407422557e+00 -4.891177769362228034e+00 -5.130595425519026698e+00 -5.130595425519026698e+00 -5.465979061008531481e+00 -5.730922571155176115e+00 -5.800445660449524254e+00 -5.974274479021213224e+00 -6.211182389054986430e+00 -6.462299836126684127e+00 -6.502402935527274330e+00 -6.598851712572777473e+00 -6.887730746156829120e+00 -6.976707960305251532e+00 -7.142486238352912409e+00 -7.258106950195235996e+00
4.415603301944207359e+00 4.365476281510145995e+00 4.454499242943018800e+00 4.454499242943018800e+00 4.504819881554668726e+00 4.474317729566394064e+00 4.382595784869713462e+00 4.186743952550152414e+00 3.571426420919252553e+00 3.203970521770662661e+00 2.444597454303320649e+00 2.131147940572195587e+00 1.951806937143327980e+00 1.722292104514866029e+00 1.569587307614466853e+00 1.569587307614466853e+00 1.431818170605478446e+00 1.279590048449463113e+00 1.279590048449463113e+00 1.040420447155269823e+00 6.373627081655627302e-01 4.230148420304050694e-01 -4.859554773564013774e-01 -4.953027347419213799e-01 -4.844071427699289112e-01 -2.992096806002076392e-01 -2.457402317584143903e-01 -1.508798582482135386e-01 -9.320916576195151237e-02 -2.702704506215753422e-01 -2.702704506215753422e-01 -8.689974841907018854e-01 -6.655202010144646296e-01 -1.231151440938950570e+00 -2.180389169889906498e+00 -3.642958348192267604e+00 -3.764976642155609898e+00 -3.596666296129737539e+00 -3.379432301994822030e+00 -3.420232976970527528e+00 -3.078735636604525983e+00 -1.925811255488856011e+00 -1.925811255488856011e+00 -1.062686784916006655e+00 -4.938543115545186990e-01 -1.795159469924976881e+00 1.896205870018797257e-01 9.518484524656134482e-01 8.708798200488636621e-01 1.561814093061635766e+00 1.885318653856314697e+00 1.797308711161029304e+00 2.073011954216112951e+00 2.120482291054979207e+00 2.135176546982219037e+00 2.168111534092935333e+00 2.209791173666458164e+00 2.209791173666458164e+00 2.127005423478894208e+00 1.965692507021482793e+00 2.066657337542740613e+00 1.625610366300717757e+00 9.560536185134929088e-01 9.708787265734890592e-01 1.499505204550471982e-01 -4.538464958758255396e-01 -4.003976146285626037e-01 -9.274487111942113504e-01 -1.492390675626424024e+00 -1.492390675626424024e+00 -1.711442413879449065e+00 -1.135363413450534820e+00 -1.053017964993695044e+00 -9.887289433549600881e-01 -9.613144151108058422e-01 -9.423680227957917932e-01 -9.482955782585580362e-01 -9.804248140765876585e-01 -1.067037461417722044e+00 -1.013626323734853063e+00 -1.156387278163397481e+00 -1.332669141620291153e+00 -1.367755250266878164e+00 -1.592960549526994951e+00 -1.850883082438735450e+00 -1.850883082438735450e+00 -2.102541584326855784e+00 -2.385859125788371671e+00 -2.402633189687648052e+00 -2.592155771883007720e+00 -2.989459575599210606e+00 -3.014058400408125671e+00 -3.306987682133068596e+00 -3.448742098424873781e+00 -3.618355490397427321e+00 -3.912028620933551526e+00 -4.062460734700390041e+00 -4.092844464498432089e+00 -4.371181363411862364e+00 -4.732126744265439555e+00 -4.732126744265439555e+00 -5.001592129291129396e+00 -5.259584791120732739e+00 -5.360426523551600653e+00 -5.609373428954987695e+00 -5.841145098926875612e+00 -5.917490066777504332e+00 -6.158591653308856273e+00 -6.348651996559078192e+00 -6.392852983435018288e+00 -6.722133670547403739e+00 -6.827916976038128638e+00 -6.827916976038128638e+00 -7.097172439091588458e+00 -7.207245100253671488e+00 -7.258106950195235996e+00
4.447887751790333688e+00 4.326831329602610410e+00 4.417678129800155951e+00 4.430645827141051818e+00 4.435178935916083809e+00 4.520369196589332006e+00 4.365828971332700092e+00 3.922636946703705441e+00 3.922636946703705441e+00 3.274800079611957848e+00 2.555701148032266445e+00 2.131147940572195587e+00 2.001953035085833665e+00 1.752158108550455395e+00 1.650023839069501230e+00 1.512213616414855188e+00 1.396881684263282075e+00 1.350811057955093819e+00 1.186493541601962631e+00 7.781149546249273019e-01 7.781149546249273019e-01 -4.058912691806475515e-01 -3.744824907046661600e-01 -4.953027347419213799e-01 -2.740135553995631246e-01 -4.264063598860547422e-01 -2.457402317584143903e-01 -1.110991857653208514e-01 -3.026427114619241465e-02 -7.608495180617373677e-02 -2.737553532683677515e-01 -4.430574082049135720e-01 -6.889167536604896558e-01 -7.561812281919575440e-01 -3.060798062231489425e+00 -3.060798062231489425e+00 -3.637195718688270851e+00 -3.520166575361041161e+00 -3.379432301994822030e+00 -3.075181549968242223e+00 -1.678861887473994008e+00 -1.416033443016022630e+00 -8.955849731282965465e-01 -4.188226411491667855e-01 -3.853105621162720151e-01 2.882063566978111391e-01 1.010594431935161852e+00 1.387704787330489076e+00 1.436788710602996844e+00 1.849762421448483130e+00 1.977903974132649845e+00 1.977903974132649845e+00 2.057996772499190108e+00 2.135051287970511691e+00 2.158924005246158906e+00 2.099183671205985036e+00 2.077941118809199850e+00 2.096938201603252949e+00 1.869527458477797000e+00 1.374403400965235944e+00 1.461682807373081427e+00 1.050236481381628728e+00 1.331751569182660633e-01 1.331751569182660633e-01 -4.757192640969429287e-01 -1.123832002398443164e+00 -1.123832002398443164e+00 -1.554640720548793098e+00 -1.767680191186026928e+00 -1.729047574470605753e+00 -1.556362276141153744e+00 -1.039763781295416134e+00 -1.006206999111110001e+00 -9.946552134628554587e-01 -1.087629632453422701e+00 -9.886683125650342907e-01 -1.057550606939467341e+00 -1.090222879259173050e+00 -1.090222879259173050e+00 -1.151728641837054479e+00 -1.287825414355127540e+00 -1.332669141620291153e+00 -1.608505255111780663e+00 -1.796271983410493434e+00 -1.785502790407517804e+00 -2.009721645228114362e+00 -2.223944235742472131e+00 -2.346039938120930923e+00 -2.605854261742369893e+00 -2.991522801126420106e+00 -2.991522801126420106e+00 -3.244762537284217707e+00 -3.494488477576385144e+00 -3.448742098424873781e+00 -3.667161923551691682e+00 -3.980712848651115632e+00 -4.062460734700390041e+00 -4.265227072360771921e+00 -4.531268129715537718e+00 -4.631956937594704726e+00 -4.952383460129912152e+00 -5.165351091166318298e+00 -5.165351091166318298e+00 -5.516881914109172058e+00 -5.817355401677110294e+00 -5.817355401677110294e+00 -6.086697483031347389e+00 -6.304271665980134109e+00 -6.348651996559078192e+00 -6.523779848628433520e+00 -6.795294231701177523e+00 -7.021638724404542842e+00 -7.051858639830264508e+00 -7.255881730377877759e+00 -7.231563415315774179e+00 -7.327620964284334626e+00
4.341217596897687159e+00 4.326831329602610410e+00 4.336722639489160258e+00 4.386258456867567546e+00 4.435178935916083809e+00 4.436669459206336263e+00 4.253772486539860509e+00 4.179855588437009217e+00 3.613792307570033557e+00 3.304947668436361674e+00 3.005636356352057614e+00 2.452379140148823744e+00 1.899121923945589430e+00 1.899121923945589430e+00 1.686196709012321104e+00 1.484725521565408712e+00 1.281549752111709628e+00 1.281549752111709628e+00 1.028519563814326965e+00 3.104618835159365653e-01 -1.739519995682332620e-01 -2.997482201714030126e-01 -3.295859596320540597e-01 -2.991692854862326723e-01 -2.103745018371462883e-01 -1.269213107238674754e-01 -1.428764127805877693e-01 -5.486777511080169478e-02 8.009591383672845510e-02 8.009591383672845510e-02 -2.443887415851421219e-01 -4.751893326241660720e-01 -7.097277689483225682e-01 -1.009770092305428690e+00 -3.191540325398488420e+00 -3.584892314413235859e+00 -3.586954093890495798e+00 -3.588345747783757922e+00 -3.303859930097743813e+00 -2.723747387356504568e+00 -1.650782388636206521e+00 -1.169299745138936863e+00 -5.310026687293067926e-01 1.093511154281849029e-01 1.093511154281849029e-01 8.582123144496170974e-01 1.284080283613015183e+00 1.387704787330489076e+00 1.680710907589716196e+00 1.945632715648989652e+00 1.947653567570579280e+00 2.024059304270708903e+00 2.067388442869858789e+00 2.099997285291950178e+00 2.070399848360968242e+00 1.995392848493795279e+00 1.995392848493795279e+00 1.971871519517050864e+00 1.397433986976381215e+00 1.374403400965235944e+00 8.989157630364832396e-01 3.515396369798337028e-01 2.625712627599728344e-01 -4.442987822744435267e-01 -1.003865567063178199e+00 -1.049209335014087419e+00 -1.564156584886427392e+00 -1.795038042219207819e+00 -1.795038042219207819e+00 -1.874655820692505914e+00 -1.221811922549276286e+00 -1.039763781295416134e+00 -1.062406512618104149e+00 -1.082523918822278386e+00 -1.087629632453422701e+00 -1.105454557078680011e+00 -1.148427098373296040e+00 -1.115974255951684979e+00 -1.188404961935361603e+00 -1.318423278608592319e+00 -1.343184541756508921e+00 -1.584725526370124093e+00 -1.774535371681396523e+00 -1.774535371681396523e+00 -2.012394792239131203e+00 -2.239278413078940044e+00 -2.223944235742472131e+00 -2.476550597890017968e+00 -2.776534987902848695e+00 -2.850709860720409772e+00 -3.197289075435972627e+00 -3.469170393806150443e+00 -3.458983644266238944e+00 -3.645424480932040634e+00 -3.891860267527036843e+00 -3.891860267527036843e+00 -4.189547934587300126e+00 -4.417544425942053543e+00 -4.531268129715537718e+00 -4.753200333674977074e+00 -5.065244594191495864e+00 -5.107669141587268591e+00 -5.431606002664454813e+00 -5.688335780184057278e+00 -5.780765389912772001e+00 -6.036182348304127920e+00 -6.289974320063528523e+00 -6.289974320063528523e+00 -6.484877954142328704e+00 -6.691103619191689944e+00 -6.795294231701177523e+00 -6.973488156800795146e+00 -7.215968713171660553e+00 -7.255881730377877759e+00 -7.300555778938027096e+00 -7.362816100726695012e+00
4.369472692629781108e+00 4.293093033206563547e+00 4.321008628545049746e+00 4.293426927887983524e+00 4.362434643643915422e+00 4.327689384642712689e+00 4.163358007453854093e+00 4.163358007453854093e+00 3.633130466860781560e+00 3.037602137258255119e+00 2.715794437238245429e+00 2.506484173676888805e+00 1.960221051647248025e+00 1.772748210736726948e+00 1.572569358867535350e+00 1.428432162900674207e+00 1.369393589413836043e+00 1.144700396303401035e+00 9.114571211609824308e-01 7.215858141993818364e-01 -1.950090662978275213e-01 -2.853718672308024895e-01 -2.853718672308024895e-01 -2.744293342346448838e-01 -2.634868012384873337e-01 -1.269213107238674754e-01 -4.917292030574997586e-02 3.217181648626075974e-02 5.361180044731784361e-02 -4.895583124956260496e-02 -7.853799014113009569e-02 -2.609078126283638221e-01 -5.073212570434185720e-01 -2.500007725798406799e+00 -2.500007725798406799e+00 -3.642418534065569702e+00 -3.699170859259973465e+00 -3.588345747783757922e+00 -3.415403982591855403e+00 -2.682377806119225383e+00 -1.650782388636206521e+00 -7.565861692160222862e-01 -3.438725932931076534e-01 -1.529557357479057744e-01 7.336084811234345748e-01 1.252727064837368509e+00 1.252727064837368509e+00 1.582308788726956905e+00 1.920454298199566034e+00 1.945632715648989652e+00 1.991131779543062752e+00 2.052278547400236963e+00 2.067388442869858789e+00 2.051513352493387732e+00 1.939697686372999552e+00 1.968453143064984534e+00 1.891602025781605523e+00 1.884501836142883580e+00 1.629290006110602818e+00 1.032928704924068297e+00 4.378444512069352701e-01 4.378444512069352701e-01 -3.043886853896368150e-01 -9.251577367505150473e-01 -1.003865567063178199e+00 -1.573955763163502608e+00 -1.934767342674875712e+00 -1.882593422537382821e+00 -1.910017745342800444e+00 -1.430653282929993830e+00 -1.297289860300388620e+00 -1.148313582523019294e+00 -1.157044175309700051e+00 -1.157044175309700051e+00 -1.109113575229235593e+00 -1.188772562889246043e+00 -1.148427098373296040e+00 -1.153469762279187849e+00 -1.310106634524713431e+00 -1.318423278608592319e+00 -1.546492826728782966e+00 -1.697496455134201776e+00 -1.754533212069023129e+00 -1.947185335202201717e+00 -2.208450576506205021e+00 -2.208450576506205021e+00 -2.415116329925660388e+00 -2.713293027246086453e+00 -2.776534987902848695e+00 -3.071090255906879563e+00 -3.454470671324026299e+00 -3.469170393806150443e+00 -3.554996375003097508e+00 -3.820594471999998021e+00 -3.823731972199252205e+00 -4.149981952347003400e+00 -4.300372025495798667e+00 -4.416483907136541376e+00 -4.653608770447510423e+00 -5.035770050833505707e+00 -5.035770050833505707e+00 -5.279698218786936792e+00 -5.642743626668179857e+00 -5.688335780184057278e+00 -5.952157350870555419e+00 -6.232927146557249998e+00 -6.255528766433193333e+00 -6.470282744556868693e+00 -6.731157858833398677e+00 -6.653409648254209330e+00 -6.869912567319963692e+00 -7.068258089331993510e+00 -7.068258089331993510e+00 -7.302530041914570447e+00 -7.343360696888193928e+00 -7.362816100726695012e+00
4.547116022736064522e+00 4.246248572625355600e+00 4.227633809113914509e+00 4.293426927887983524e+00 4.278014738320635502e+00 4.357430515405985361e+00 4.237274905556706273e+00 3.968826028027759634e+00 3.700524907355512205e+00 3.373164685831167908e+00 2.816322346610264482e+00 2.265028961210159952e+00 2.265028961210159952e+00 1.704475787367532913e+00 1.483823120745329405e+00 1.428432162900674207e+00 1.292031296155296438e+00 1.053875223756362889e+00 9.114571211609824308e-01 -1.555730923662799192e-01 -2.406140345493670840e-01 -3.129730998868897607e-01 -2.339124898873963521e-01 -2.229699568912388019e-01 -2.229699568912388019e-01 -8.962534810170065536e-02 1.650500045523231943e-02 1.650500045523231943e-02 6.883233434175270449e-02 4.149535544331785231e-02 -7.853799014113009569e-02 -1.084727212024657328e-01 -8.743760669333069391e-01 -2.198209731625687446e+00 -3.239857323044027737e+00 -3.699944753717902657e+00 -3.699557806488938283e+00 -3.712307104550687242e+00 -3.152179952285050213e+00 -3.152179952285050213e+00 -1.637222515367144471e+00 -5.410700599742140904e-01 -3.438725932931076534e-01 3.298734410181752841e-01 1.205157303894509147e+00 1.284068183628477744e+00 1.562561348703724429e+00 1.822441328565601593e+00 1.880109732401622491e+00 1.978392738478743862e+00 2.036630843437135852e+00 2.036630843437135852e+00 2.037357741362619379e+00 1.988505483557841957e+00 1.939697686372999552e+00 1.837722614923984699e+00 1.766261796820906227e+00 1.884501836142883580e+00 1.278199464476187153e+00 7.603776269559630041e-01 6.075546919044539917e-01 -1.787099892005463431e-01 -8.475830358121126951e-01 -8.475830358121126951e-01 -1.603208656801914600e+00 -1.936155561458809959e+00 -1.936155561458809959e+00 -2.183264681086645176e+00 -1.797830053123562255e+00 -1.430653282929993830e+00 -1.223362183074332643e+00 -1.137902873310986607e+00 -1.130190883193370688e+00 -1.195125766515354959e+00 -1.232418708379260597e+00 -1.243118620365301963e+00 -1.254112084246719050e+00 -1.330585354359500094e+00 -1.330585354359500094e+00 -1.506214604858187478e+00 -1.663108795777055171e+00 -1.697496455134201776e+00 -1.932078395928057413e+00 -2.097025561794489512e+00 -2.186467616186833496e+00 -2.454320224440578624e+00 -2.592690400167799503e+00 -2.952154308631499191e+00 -2.985268490232935168e+00 -3.423943989805150689e+00 -3.628011102621930384e+00 -3.656908533548146600e+00 -3.823324207805302244e+00 -4.046931248906967760e+00 -4.046931248906967760e+00 -4.347354656353911828e+00 -4.564669782822559085e+00 -4.568151444750205847e+00 -4.806106176839439748e+00 -5.098134128374328888e+00 -5.218705869891223870e+00 -5.398703606689509549e+00 -5.750919848659567180e+00 -5.945371238659267199e+00 -6.147985956764213888e+00 -6.314543486054967403e+00 -6.415933331577165610e+00 -6.704221819453969999e+00 -6.917889394218388333e+00 -6.917889394218388333e+00 -7.040258117961252005e+00 -7.173636794257515881e+00 -7.253685415462774344e+00 -7.335237648140108924e+00 -7.480515954567819925e+00 -7.503880809971664512e+00
4.397727788361875056e+00 4.180600909901571960e+00 4.180600909901571960e+00 4.213439295145692043e+00 4.398943450761477081e+00 4.398943450761477081e+00 4.289390393819144442e+00 3.982140388842831058e+00 3.700524907355512205e+00 3.497398199200245195e+00 2.931818248870056376e+00 2.569836870773071880e+00 1.987063651332705572e+00 1.882976368424781111e+00 1.582668299817153290e+00 1.352896842773994024e+00 1.158473545035173302e+00 1.158473545035173302e+00 4.995932344960540838e-01 -3.279662102498238085e-01 -2.406140345493670840e-01 -2.471703140782926522e-01 -3.077574387064922479e-01 -1.824531125439902701e-01 -1.150000605162217054e-01 -2.938446531659646282e-02 -1.231106528266554673e-02 6.562387995570465038e-02 8.645814567080996327e-02 8.645814567080996327e-02 -1.159098895398981421e-02 -1.645629771203578340e-01 -8.743760669333069391e-01 -2.449107661407387670e+00 -3.462832197615205221e+00 -3.699944753717902657e+00 -3.609824949859218979e+00 -3.522407824995704928e+00 -3.367988546856259369e+00 -2.722426553931158288e+00 -1.702616146996405622e+00 -9.876036817648702337e-01 1.376133845717052995e-01 1.123215410604407438e+00 1.123215410604407438e+00 1.518040351388568077e+00 1.789545216020798080e+00 1.822441328565601593e+00 1.891448512299637619e+00 1.981815981869811338e+00 2.008443703848836748e+00 1.969434731663735727e+00 1.854083642669146048e+00 1.935183955572521874e+00 1.821191199884261591e+00 1.804585215431435241e+00 1.852549927381950123e+00 1.871967693576298331e+00 1.133668054112578538e+00 7.444280249410885342e-02 7.444280249410885342e-02 -6.210366269076873502e-01 -1.418206073965416536e+00 -1.449909749390135616e+00 -1.773487186775539737e+00 -2.143055072788104365e+00 -2.188700827776862035e+00 -2.208693828274103321e+00 -1.934146312403350221e+00 -1.480066005847133992e+00 -1.200397139465052332e+00 -1.245239015846396846e+00 -1.245239015846396846e+00 -1.262152130241901204e+00 -1.277032574642953389e+00 -1.249146016396911474e+00 -1.271205330807056111e+00 -1.474608409602624182e+00 -1.495596009506431345e+00 -1.648999214663083190e+00 -1.853525405839593576e+00 -1.848743404722455130e+00 -2.154053081388915825e+00 -2.389694840060571313e+00 -2.385632152855408528e+00 -2.641774922461264996e+00 -2.939030102636562169e+00 -2.939030102636562169e+00 -3.157456628337799387e+00 -3.532736421183123365e+00 -3.628011102621930384e+00 -3.736092150213384144e+00 -4.034460160814202112e+00 -4.084147639837262034e+00 -4.219806439046661417e+00 -4.451121499492648681e+00 -4.540926962169213432e+00 -4.732280630689850831e+00 -4.996849223721589794e+00 -4.996849223721589794e+00 -5.321883033334686708e+00 -5.619995458657956355e+00 -5.750919848659567180e+00 -5.941625263285917669e+00 -6.219740019087852900e+00 -6.314543486054967403e+00 -6.642607728205295103e+00 -6.857172347630419829e+00 -6.846555600765849015e+00 -7.025419153418098972e+00 -7.177921873712845624e+00 -7.177921873712845624e+00 -7.326305170310337900e+00 -7.457057373705285208e+00 -7.457057373705285208e+00 -7.585253543016205136e+00
4.425982884093969005e+00 4.236366223680230192e+00 4.212341804302375259e+00 4.290770349826656727e+00 4.304143273828010763e+00 4.384104426098296869e+00 4.121109196333481606e+00 4.121109196333481606e+00 3.717459228655464631e+00 3.237530387135087118e+00 2.931818248870056376e+00 2.573545039699619341e+00 2.082927629485074483e+00 1.882976368424781111e+00 1.497491796450352020e+00 1.306200686551822310e+00 1.167175017459576747e+00 8.737517718369526287e-01 -1.778182443900860887e-01 -2.255620736209622557e-01 -2.290268785307486565e-01 -3.115492378512625393e-01 -3.115492378512625393e-01 -2.949842590998878467e-01 -1.594078363155850830e-01 -3.995035212118377282e-02 -3.995035212118377282e-02 7.696572185387177967e-02 3.219634390545284691e-02 -1.363741392454870249e-02 -1.374645467132843725e-02 -7.329311348998324149e-02 -1.169634542360352247e+00 -3.041194234180391920e+00 -3.035572252310960284e+00 -3.431690690348149886e+00 -3.480003489624557744e+00 -3.229401546451291516e+00 -3.229401546451291516e+00 -2.158809182643876667e+00 -4.976216685078312940e-01 -1.166463656803005539e-01 8.920580052878978039e-01 1.279761997319253997e+00 1.347826984825727825e+00 1.747895686077323152e+00 1.797333623452034068e+00 1.834865710310322529e+00 1.938332495763713137e+00 1.888491441967949713e+00 1.888491441967949713e+00 1.816290981746496280e+00 1.744090521525042625e+00 1.744090521525042625e+00 1.783674294000243687e+00 1.826904214564488704e+00 1.852549927381950123e+00 1.542364436391785221e+00 3.105392353795379812e-01 1.610080758656505240e-01 -4.481036693646530678e-01 -1.059039373950236618e+00 -1.269128131203529630e+00 -1.680286401369621263e+00 -2.029780517983261312e+00 -2.029780517983261312e+00 -2.279698052343305026e+00 -2.349719366647340379e+00 -1.934146312403350221e+00 -1.764422215141602024e+00 -1.373745120043623480e+00 -1.304140866962670398e+00 -1.302511787958305245e+00 -1.362903263663920672e+00 -1.314649875998474826e+00 -1.357805509883118322e+00 -1.465934657538889851e+00 -1.465934657538889851e+00 -1.656296867929905714e+00 -1.823175502303702622e+00 -1.853525405839593576e+00 -2.019765187954122077e+00 -2.342186533725130193e+00 -2.389694840060571313e+00 -2.602217636355357744e+00 -2.803070606314101987e+00 -2.778059335626547721e+00 -3.112231148491964028e+00 -3.360968012955745543e+00 -3.434629883490635471e+00 -3.708983057139360273e+00 -3.969795983352026436e+00 -3.969795983352026436e+00 -4.174287866355419041e+00 -4.416794273403136017e+00 -4.451121499492648681e+00 -4.605406021641439196e+00 -4.865260809215933513e+00 -4.938567744590416808e+00 -5.236306811580384135e+00 -5.399124817110276808e+00 -5.515958583224972678e+00 -5.834600152070771095e+00 -6.143562762793791876e+00 -6.143562762793791876e+00 -6.447008765030163957e+00 -6.753708756660275370e+00 -6.857172347630419829e+00 -6.948184568510824555e+00 -7.086203474830954363e+00 -7.181514289502834103e+00 -7.322595557158068758e+00 -7.403951395391112911e+00 -7.433598792842751379e+00 -7.561794962153671307e+00 -7.689991131464591234e+00
4.454237979826062954e+00 4.272960189749615445e+00 4.290074120407956215e+00 4.381286831948387750e+00 4.381286831948387750e+00 4.393148602848281570e+00 4.018549895774003566e+00 3.871218888329124308e+00 3.605827390289257917e+00 3.160957397686222414e+00 2.902766218390509856e+00 2.300914955980371879e+00 2.076482675427364200e+00 1.860608908223769564e+00 1.459305394318288318e+00 1.051060131591644575e+00 1.051060131591644575e+00 3.765772148121370733e-01 -2.564105258484981054e-01 -2.567368363105043128e-01 -2.851902075143050719e-01 -2.995235930480349418e-01 -3.111824687561917102e-01 -2.689512848345964047e-01 -2.252342923743904657e-01 -9.458171423638424280e-02 2.032535128301016583e-02 4.609833168961922911e-02 4.125677729999693844e-02 3.929809282455867109e-02 4.357974140483149988e-03 4.357974140483149988e-03 -1.065270370686573820e+00 -2.687519909169490795e+00 -3.035572252310960284e+00 -3.049088304494876223e+00 -3.085414514175651490e+00 -3.288453586507951609e+00 -2.725578569837804555e+00 -1.378201750403902581e+00 -8.660420127308859906e-01 7.105012365012606246e-01 1.206834858896330687e+00 1.206834858896330687e+00 1.589868378545467920e+00 1.762548245107085965e+00 1.797333623452034068e+00 1.846181637682867027e+00 1.896880201710974490e+00 1.861719484445011119e+00 1.777082651696742843e+00 1.665673861425535973e+00 1.704882191475289410e+00 1.725031400922027780e+00 1.781096603314795912e+00 1.781096603314795912e+00 1.823617269327907131e+00 5.904468322684131021e-01 3.105392353795379812e-01 -1.554538466398382446e-01 -8.284616862851952312e-01 -1.059039373950236618e+00 -1.656074788404097831e+00 -1.949743445025802213e+00 -1.925355627853331253e+00 -2.222166255315914718e+00 -2.308453339629301215e+00 -2.319759915275458440e+00 -2.102544404985674742e+00 -1.484028539842638716e+00 -1.484028539842638716e+00 -1.401352775779217463e+00 -1.360272821908051544e+00 -1.362903263663920672e+00 -1.444531581085744421e+00 -1.514726364532996694e+00 -1.489106609184965180e+00 -1.658325494825469093e+00 -1.755076740607873997e+00 -1.743469071493447320e+00 -2.008624320605811864e+00 -2.264854390849724730e+00 -2.264854390849724730e+00 -2.615909174704117213e+00 -2.895732533764611816e+00 -2.803070606314101987e+00 -2.948487984652928162e+00 -3.370017394482582418e+00 -3.360968012955745543e+00 -3.634840487720926383e+00 -3.896364041297846192e+00 -3.889105404391776766e+00 -4.123967809147428554e+00 -4.345043923928525231e+00 -4.345043923928525231e+00 -4.606762389616153364e+00 -4.792355679728059314e+00 -4.865260809215933513e+00 -5.087211161185006603e+00 -5.358402267499792870e+00 -5.399124817110276808e+00 -5.601682792462801430e+00 -5.947336248336383413e+00 -6.045449505565087200e+00 -6.345412598516444902e+00 -6.604201781586630737e+00 -6.710049891508285569e+00 -6.921102571830923367e+00 -7.025043072010312528e+00 -7.025043072010312528e+00 -7.335598607929235015e+00 -7.423239829565105197e+00 -7.403951395391112911e+00 -7.505277452822120665e+00 -7.643073969739521800e+00 -7.666532550602056517e+00
4.454237979826062954e+00 4.284234401518907553e+00 4.436404424671823499e+00 4.368873637612812111e+00 4.383761400136306108e+00 4.211409560106740280e+00 4.143214208324454972e+00 3.763535850586513298e+00 3.330016048276823071e+00 3.330016048276823071e+00 2.827063405275961117e+00 2.297213714844166255e+00 2.076482675427364200e+00 1.794473213161263514e+00 1.371818768607476091e+00 1.255718141696691603e+00 7.692903250167004714e-01 -1.891556297777211570e-01 -2.117265210204301029e-01 -3.138185144847356334e-01 -3.006957096790748296e-01 -3.006957096790748296e-01 -3.474560171807604125e-01 -3.065279945265559913e-01 -2.252342923743904657e-01 -1.017011448839208465e-01 -5.098948376071056610e-02 4.609833168961922911e-02 4.163014184061090972e-02 -1.476862570483553419e-02 -2.925559828936278445e-03 -2.019524745895174556e-01 -2.041783444523149971e+00 -2.041783444523149971e+00 -2.996960649009934752e+00 -2.824414443172646560e+00 -3.085414514175651490e+00 -1.949307851418945692e+00 -1.446558886551489342e+00 -1.378201750403902581e+00 4.611210544453629989e-01 1.262245449055209079e+00 1.224188680052515688e+00 1.513724746047722114e+00 1.674601049255550089e+00 1.721931566150442183e+00 1.811393194281182950e+00 1.867929671663886904e+00 1.867929671663886904e+00 1.791320093081549381e+00 1.653717905730778259e+00 1.665673861425535973e+00 1.530487440301698587e+00 1.653641130234098089e+00 1.710723936622683183e+00 1.763711525991829010e+00 8.775433637961917999e-01 7.441068132877467489e-01 -1.272376637699060564e-01 -7.359284181482750320e-01 -7.359284181482750320e-01 -1.469808060314579778e+00 -1.873625524117329633e+00 -1.949743445025802213e+00 -2.114329767036201346e+00 -2.253048075555104557e+00 -2.308453339629301215e+00 -2.293178950821637141e+00 -1.964208290924511324e+00 -1.702579341837755944e+00 -1.452738945832321882e+00 -1.365851845283498900e+00 -1.365851845283498900e+00 -1.444264546609604682e+00 -1.451069341721859640e+00 -1.451069341721859640e+00 -1.604649775418939495e+00 -1.797570761354978508e+00 -1.755076740607873997e+00 -2.005207999547768072e+00 -2.181057043644505367e+00 -2.293476616278101954e+00 -2.475271601599961180e+00 -2.713569446622168257e+00 -2.816213605230706296e+00 -3.002590670876354118e+00 -3.263990774490197921e+00 -3.263990774490197921e+00 -3.574396785306876989e+00 -3.825767770437899618e+00 -3.896364041297846192e+00 -3.982575741564974514e+00 -4.301046840279060035e+00 -4.264428092873576936e+00 -4.549674833221785342e+00 -4.760540007055725553e+00 -4.763695915374851708e+00 -5.039208364479769386e+00 -5.295709545765165061e+00 -5.460885140313632924e+00 -5.516071747369438505e+00 -5.830644104601612199e+00 -6.129695033363867118e+00 -6.129695033363867118e+00 -6.490084250380503406e+00 -6.806481713330448713e+00 -6.957657925586032022e+00 -7.025459999005587264e+00 -7.253563684251495225e+00 -7.336213608979930356e+00 -7.428551866866783371e+00 -7.516719344622457832e+00 -7.511929636808194921e+00 -7.585483341330970575e+00 -7.715184350477191089e+00 -7.747811558187907011e+00
4.482493075558156903e+00 4.504825177964434602e+00 4.436404424671823499e+00 4.404092181979238241e+00 4.170619635496018773e+00 4.211409560106740280e+00 3.894774816462020173e+00 3.500383540282539840e+00 3.417884274544194856e+00 2.891775599586806411e+00 2.407735687939904334e+00 2.407735687939904334e+00 1.964083689672530886e+00 1.466680547451269412e+00 1.466680547451269412e+00 1.143331143388650828e+00 3.411934651022998088e-01 -1.891556297777211570e-01 -1.611609276635143084e-01 -1.685363105575507156e-03 -4.733951742198005269e-02 -2.578105315909146045e-01 -3.128620840231353117e-01 -4.160194183938496493e-01 -2.260371409293142342e-01 -2.929729256164932405e-01 -2.929729256164932405e-01 -9.262872472760411147e-02 -6.500806235278151768e-02 -1.476862570483553419e-02 -2.633990967343859402e-01 -4.425838475745703660e-01 -4.045937625749425059e-01 -2.773204809371190738e+00 -1.705034297625346085e+00 -2.643918562553214002e+00 -1.859178798974630897e+00 -5.439964918515460823e-01 -5.439964918515460823e-01 5.963509445421745214e-01 1.182373097300604803e+00 1.262245449055209079e+00 1.470983722517251735e+00 1.604358458116927011e+00 1.674601049255550089e+00 1.788414073485049327e+00 1.793325338386079881e+00 1.837547124717451519e+00 1.744835025366752834e+00 1.654004878332215212e+00 1.654004878332215212e+00 1.618980340512367277e+00 1.575620485392055015e+00 1.575620485392055015e+00 1.761889895717053012e+00 1.131332821012874357e+00 8.775433637961917999e-01 2.249906543156119376e-01 -4.667595990791783001e-01 -5.996587529656094429e-01 -1.309384260187342885e+00 -1.683387435212624794e+00 -1.676135117945130037e+00 -2.082517567166174643e+00 -2.261970029355492962e+00 -2.261970029355492962e+00 -2.459257921478010367e+00 -2.457388838062482872e+00 -2.081044211406686717e+00 -2.081044211406686717e+00 -1.633371212945824880e+00 -1.551622067723533505e+00 -1.509631958211518299e+00 -1.575919198065794502e+00 -1.622318372931710106e+00 -1.623467273196349314e+00 -1.756227796258416296e+00 -1.982757544512752768e+00 -1.979143723929770227e+00 -2.223062991528949262e+00 -2.434420851536110320e+00 -2.434420851536110320e+00 -2.689146258339383255e+00 -2.975564019542584759e+00 -3.065904217561161715e+00 -3.195837794953687361e+00 -3.532450050097211580e+00 -3.626160077289763972e+00 -3.788402583796771861e+00 -3.954168287186878405e+00 -3.960751132044619816e+00 -4.255266602692331368e+00 -4.467681745878390842e+00 -4.502957593157161043e+00 -4.726490646973273257e+00 -4.935631898856718713e+00 -4.935631898856718713e+00 -5.181203330490054881e+00 -5.406862314942902259e+00 -5.460885140313632924e+00 -5.692248728295643545e+00 -6.003213632003578049e+00 -6.061437097061384449e+00 -6.308671388378937372e+00 -6.452968051315336240e+00 -6.596477375243939179e+00 -6.871383899944693674e+00 -7.119187610451755077e+00 -7.119187610451755077e+00 -7.348819999397010250e+00 -7.522031381924136895e+00 -7.516719344622457832e+00 -7.626682671889424725e+00 -7.679068617342108993e+00 -7.715184350477191089e+00 -7.852549146636293109e+00
4.510748171290250852e+00 4.346148121888388616e+00 4.473651420682321245e+00 4.258145568022002614e+00 4.258145568022002614e+00 4.041929218314665562e+00 3.598801437207086007e+00 3.500383540282539840e+00 3.072420800307484434e+00 2.545891142211631930e+00 2.476813415075767910e+00 2.084382711356495221e+00 1.760513518822384160e+00 1.638216225177812735e+00 1.226479581345696568e+00 9.278679897420802902e-01 9.278679897420802902e-01 -1.932635566471177513e-01 4.762007105911778004e-02 -1.685363105575507156e-03 -3.883467495877990228e-02 -1.134137239224469740e-01 -3.128620840231353117e-01 -2.754706963093286332e-01 -2.159070388088532022e-01 -4.117037097967849585e-02 -1.644721753957065769e-01 -4.773979330885336769e-01 -2.951061141169379898e-01 -2.963314237959021602e-01 -3.604132828225544705e-01 -3.604132828225544705e-01 -6.027496702739931767e-01 -5.301934953896514369e-01 -1.705034297625346085e+00 -8.678329845163886835e-01 -2.768350379698308328e-01 6.941475385342366078e-01 7.112579923642883273e-01 1.073411661905240067e+00 1.333562515849336938e+00 1.385545029441491494e+00 1.539809121322860408e+00 1.597966081930734417e+00 1.655101465416250583e+00 1.742841748572987237e+00 1.660767823181198199e+00 1.660767823181198199e+00 1.545916252195913554e+00 1.508445887852261080e+00 1.602591230657571142e+00 1.642914199133558073e+00 1.674525601765423755e+00 1.676526775058829744e+00 1.129172439844052356e+00 4.444557520854983679e-01 3.802853037706648287e-01 -3.785023597907427595e-01 -9.816137290051270003e-01 -9.816137290051270003e-01 -1.577780561169919160e+00 -1.978737182898492319e+00 -1.978737182898492319e+00 -2.246242349181064135e+00 -2.458802396097841125e+00 -2.443913179144322712e+00 -2.634004446131012145e+00 -2.718034698532309168e+00 -2.541095476131681075e+00 -2.097874323850657419e+00 -1.956314518584644002e+00 -1.587420268492975461e+00 -1.613020126325767745e+00 -1.639431245466123510e+00 -1.639431245466123510e+00 -1.807582886869065986e+00 -1.963022365548845682e+00 -1.982757544512752768e+00 -2.189894511458425175e+00 -2.454490533748568293e+00 -2.412841515352113664e+00 -2.651419033077112797e+00 -2.886729316412606217e+00 -2.932354703247705530e+00 -3.206744662735584228e+00 -3.427573813772153422e+00 -3.427573813772153422e+00 -3.791441975481331994e+00 -3.950645090303781082e+00 -3.954168287186878405e+00 -4.211964681713086911e+00 -4.438109313268971512e+00 -4.467681745878390842e+00 -4.658892283550804869e+00 -4.861947471984052527e+00 -4.913433984373799746e+00 -5.161404736026719675e+00 -5.389095619889537225e+00 -5.389095619889537225e+00 -5.607406882683328320e+00 -5.944990166945772536e+00 -5.944990166945772536e+00 -6.204985635914065156e+00 -6.390121733471402443e+00 -6.452968051315336240e+00 -6.611398243982282708e+00 -6.869495868432634822e+00 -7.011169882611017812e+00 -7.204094263694724276e+00 -7.316053551671370059e+00 -7.463329626196893329e+00 -7.610198859679811356e+00 -7.687691434073565588e+00 -7.687691434073565588e+00 -7.795653408746844093e+00 -7.933828154222144491e+00
4.510748171290250852e+00 4.382742087957776533e+00 4.421036512754884740e+00 4.360022086737752822e+00 4.121112444352931448e+00 3.790250480764383312e+00 3.318973261792478091e+00 3.187101677905763708e+00 2.676083392125605975e+00 2.372271460237044050e+00 2.250153246344781977e+00 1.857296501030600400e+00 1.464439755716418823e+00 1.464439755716418823e+00 1.141287005565934098e+00 5.213059363755548903e-01 -9.585515889233123255e-02 1.392950220211136014e-01 2.346193489226249332e-02 -2.553915983983959595e-02 -7.655551376017419307e-02 -1.312412180863351541e-01 -2.040542269501188222e-01 -3.869858505776087032e-01 -3.254626169348657228e-01 -3.254626169348657228e-01 -4.819776833245036363e-01 -8.913768158315611423e-01 -5.520828951841074694e-01 -6.786219631748326986e-01 -5.808371317888457730e-01 -5.856281159979123130e-01 -1.114430941632761796e+00 -2.610386507098892750e+00 -1.458326559987852988e+00 -2.676749891017447536e-01 5.553901665164904244e-01 5.553901665164904244e-01 9.965764791102974529e-01 1.263494676580708020e+00 1.263494676580708020e+00 1.476898099298910472e+00 1.548486115137498231e+00 1.597966081930734417e+00 1.645528511602311728e+00 1.617799164486343422e+00 1.623991171689006752e+00 1.506153063687590388e+00 1.362370823441995782e+00 1.398430515944729891e+00 1.523502746356511839e+00 1.683237167609545226e+00 1.683237167609545226e+00 1.678088597710053476e+00 6.737680657410790586e-01 4.444557520854983679e-01 -2.039514914242592514e-01 -7.336205927695458318e-01 -8.847917795299793386e-01 -1.440796577803025169e+00 -1.792129164926275831e+00 -1.939063455504488553e+00 -2.198748843582691848e+00 -2.428169075981503333e+00 -2.428169075981503333e+00 -2.635098328215569552e+00 -2.784230108301953166e+00 -2.718034698532309168e+00 -2.891539289618945574e+00 -2.513294395628546507e+00 -1.956314518584644002e+00 -1.642177576477543255e+00 -1.732574227291222124e+00 -1.690108593048126329e+00 -1.750920220923546600e+00 -2.043924279114030185e+00 -1.959097876589108278e+00 -2.128353919292267804e+00 -2.346141887808102400e+00 -2.346141887808102400e+00 -2.656491016675224248e+00 -2.845519459734977996e+00 -2.886729316412606217e+00 -3.134851849037564975e+00 -3.439043321182539525e+00 -3.351650156211966269e+00 -3.699367551493939477e+00 -3.956723873672900904e+00 -3.953684481988340771e+00 -4.215543152616957556e+00 -4.407957627372180553e+00 -4.407957627372180553e+00 -4.678421399206842857e+00 -4.886624873693173221e+00 -4.861947471984052527e+00 -5.108950353337144534e+00 -5.380382580553174421e+00 -5.384459506238638227e+00 -5.584811323512767878e+00 -5.826130285229117689e+00 -5.886766701887966136e+00 -6.150675977470764444e+00 -6.407536815762314042e+00 -6.407536815762314042e+00 -6.539514780550060635e+00 -6.732950860514366198e+00 -6.869495868432634822e+00 -7.009646250710891202e+00 -7.290168959192914855e+00 -7.316053551671370059e+00 -7.491364974287389344e+00 -7.631777094767100422e+00 -7.698366337435485818e+00 -7.763599954835958883e+00 -7.857073774575984437e+00 -7.842773029931666251e+00
4.539003267022343913e+00 4.506802234909269345e+00 4.132311470060403558e+00 4.132311470060403558e+00 3.819950363781700275e+00 3.522297495830817748e+00 3.318973261792478091e+00 3.051020276858911640e+00 2.568343269636974124e+00 2.372271460237044050e+00 1.980929313133679814e+00 1.711705379922578096e+00 1.588072567819498460e+00 1.326571698830484980e+00 1.123052927588032768e+00 9.402355798415219512e-01 2.244206541119349030e-01 4.788741844464249053e-02 4.788741844464249053e-02 -2.262870826696837187e-02 -1.057927162441232166e-01 -1.312412180863351541e-01 -4.348330854977748849e-01 -4.342137973310333243e-01 -4.532938337279185936e-01 -4.352620302618880332e-01 -4.332924069515946552e-01 -6.376809953751954030e-01 -4.383006806006748413e-01 -2.604763824417952733e-01 -2.604763824417952733e-01 -4.061724643942135060e-01 -2.283873639855691806e+00 -2.610386507098892750e+00 -2.759547526753348023e+00 -4.364459549385196757e-01 2.743267182837095808e-01 8.751949050885265979e-01 1.155558903753122202e+00 1.242868438983124602e+00 1.420814176606663093e+00 1.507387426086974624e+00 1.507387426086974624e+00 1.596365031311383520e+00 1.579915170875672459e+00 1.617799164486343422e+00 1.444869088536636426e+00 1.324010799036881014e+00 1.362370823441995782e+00 1.345318565219538742e+00 1.510590965341295666e+00 1.560125031062156165e+00 1.768440567073246594e+00 8.602784209445842878e-01 6.727840011813794874e-01 -7.891252354295734406e-02 -6.342835262913202321e-01 -6.342835262913202321e-01 -1.199904415012611691e+00 -1.794347964208751645e+00 -1.792129164926275831e+00 -2.113560681438718447e+00 -2.361048404097472186e+00 -2.420271708227418106e+00 -2.615397948770445069e+00 -2.746295743103436049e+00 -2.825916830485282638e+00 -2.973524740903036978e+00 -3.028987871306219049e+00 -3.028987871306219049e+00 -2.558187926793566103e+00 -1.742918465500574055e+00 -1.732574227291222124e+00 -1.783034858404321854e+00 -1.859519013050014768e+00 -2.043924279114030185e+00 -2.145481345551582208e+00 -2.288546839206588857e+00 -2.325572307298316321e+00 -2.618161868091396283e+00 -2.853424864904116731e+00 -2.853424864904116731e+00 -3.108347737599534977e+00 -3.455863797298857953e+00 -3.439043321182539525e+00 -3.648326818616073108e+00 -3.960875150401000244e+00 -3.956723873672900904e+00 -4.150637943175703448e+00 -4.370556305179132295e+00 -4.445933159403985258e+00 -4.617702280057851993e+00 -4.831349015982794093e+00 -4.862582365996241052e+00 -5.142585170181517285e+00 -5.400245186450150392e+00 -5.400245186450150392e+00 -5.630954570237213908e+00 -5.818615072484046635e+00 -5.826130285229117689e+00 -6.030962292674001191e+00 -6.283297895351291018e+00 -6.357116464991425353e+00 -6.595747369960482054e+00 -6.688967790380325518e+00 -6.707113965493473273e+00 -6.874966365471232521e+00 -7.028730703316076855e+00 -7.028730703316076855e+00 -7.318793861928661215e+00 -7.656298035632659094e+00 -7.732425033023666572e+00 -7.732425033023666572e+00 -7.836438381353523219e+00 -7.961803390421844817e+00 -7.969096137829652093e+00
4.567258362754437861e+00 4.333592177556797154e+00 4.184256409035608471e+00 3.851777598140295300e+00 3.675278723075391163e+00 3.555407224190563653e+00 3.254344510897250853e+00 2.744885732191861827e+00 2.744885732191861827e+00 2.257711587284956245e+00 1.823545476273851884e+00 1.711705379922578096e+00 1.497700233231008760e+00 1.297108089775115047e+00 1.123052927588032768e+00 4.353777000139288367e-01 1.627937160118141102e-01 1.107194393401519372e-01 9.458767500123824168e-03 -9.327988950559949755e-02 -9.327988950559949755e-02 -1.350922452133057339e-01 -5.524023727857056976e-01 -4.342137973310333243e-01 -4.516059963006747724e-01 -4.538365333787133249e-01 -4.332924069515946552e-01 -1.905412214682622174e-01 -1.557418388576921608e-01 -1.446371629319329055e-01 -7.235599934253231225e-02 -1.021121548317926564e+00 -1.979882348541254000e+00 -2.858284792867701540e+00 -2.034535700202011022e+00 -2.034535700202011022e+00 3.121631523004050890e-01 1.058765147905351034e+00 1.155558903753122202e+00 1.256658436344824992e+00 1.377441085240785901e+00 1.491227891694449692e+00 1.554597929562215208e+00 1.471350930844874672e+00 1.509343790177890332e+00 1.426589409577561529e+00 1.310263873276586111e+00 1.310263873276586111e+00 1.398408667171096020e+00 1.497058504477192908e+00 1.510590965341295666e+00 1.308958940617227507e+00 1.064949832544673347e+00 8.602784209445842878e-01 9.031287158363339451e-02 -3.652891506771404062e-01 -4.927813378098602204e-01 -1.106528125685866781e+00 -1.827143966653727025e+00 -1.827143966653727025e+00 -2.021497140533648817e+00 -2.336034630838336401e+00 -2.336034630838336401e+00 -2.540232221541734781e+00 -2.756838571516541769e+00 -2.746295743103436049e+00 -2.985860102730482080e+00 -3.079438265732897584e+00 -3.089917933334499267e+00 -3.181157099405050204e+00 -2.646718797993177219e+00 -1.961601538284861723e+00 -1.758400560672708002e+00 -1.900063130789418020e+00 -1.900063130789418020e+00 -2.121681656837583585e+00 -2.287615660096357750e+00 -2.288546839206588857e+00 -2.529957260923251017e+00 -2.750898987784063721e+00 -2.997961571086237509e+00 -3.042125848446718628e+00 -3.283254342531120251e+00 -3.601890723532166660e+00 -3.606846257581281190e+00 -3.863700341605228239e+00 -4.046942322002898607e+00 -4.078391078532991543e+00 -4.355695417379387813e+00 -4.536633932856171114e+00 -4.536633932856171114e+00 -4.806494005241464862e+00 -5.072578851456264637e+00 -5.073194441879943284e+00 -5.308476365071882697e+00 -5.537020816666866629e+00 -5.568918833211623287e+00 -5.763395904193333585e+00 -6.019641468726885769e+00 -6.025446906206732400e+00 -6.207970279105641254e+00 -6.423539451101679454e+00 -6.462543129277787735e+00 -6.716702339354692519e+00 -6.856336033624808479e+00 -6.856336033624808479e+00 -6.992945431754530539e+00 -7.182378977573596224e+00 -7.250586419751128275e+00 -7.416603172459333315e+00 -7.708409342488794280e+00 -7.687352309538223238e+00 -7.882044479815585980e+00 -7.891461242578136748e+00 -7.910124000307346748e+00 -7.986413055890167811e+00
4.454121867472824903e+00 4.454121867472824903e+00 4.158140033089361864e+00 3.824426050348415984e+00 3.675278723075391163e+00 3.516946834206967409e+00 3.189272238471270615e+00 2.976370971657710029e+00 2.455706997301519756e+00 2.193126055982058453e+00 2.005580502655630148e+00 1.622786645112027859e+00 1.398716712316545596e+00 1.398716712316545596e+00 1.121348160313842435e+00 3.667927027172910304e-01 1.627937160118141102e-01 8.873234196975463006e-02 -7.523929132797779751e-02 -6.605774843376159555e-02 -1.962014903961850076e-01 -3.914013372751005138e-01 -5.148199970019554650e-01 -6.824171056625260023e-01 -2.719645176201619385e-01 -2.719645176201619385e-01 -2.366367060345726525e-01 -1.572707607718392131e-01 -1.557418388576921608e-01 -8.272137480976514412e-02 -2.622857701063630032e-01 -1.021121548317926564e+00 -2.606358335667366077e+00 -2.050008375997847132e+00 -1.995774528758000876e+00 -8.364841311640185406e-01 4.438310153385691681e-01 8.763691153410858581e-01 1.222099166543847648e+00 1.292708268718330000e+00 1.292708268718330000e+00 1.408634159717731205e+00 1.434935358133696770e+00 1.471350930844874672e+00 1.344668493521693264e+00 1.254401628909689315e+00 1.273395493156238789e+00 1.375095228600404118e+00 1.448223666383747332e+00 1.482719009609908989e+00 1.337523330782116826e+00 9.054838513068947936e-01 4.723412367492350050e-01 3.900756042484312958e-01 -2.207139961607647027e-01 -8.612347393346053703e-01 -8.612347393346053703e-01 -1.407510675845049075e+00 -2.029919191190879157e+00 -2.008086673680903100e+00 -2.226383532128910936e+00 -2.478275232844996623e+00 -2.541746927410740486e+00 -2.749604197687920859e+00 -2.830727857543406500e+00 -2.944553254123913888e+00 -3.067127553727789113e+00 -3.192544473393738258e+00 -3.192544473393738258e+00 -3.089235938789964386e+00 -2.375932431019516233e+00 -1.889267005217529771e+00 -1.827480056407976283e+00 -2.025438871987732981e+00 -2.049111744356138409e+00 -2.262358306299646404e+00 -2.407242942446935707e+00 -2.484310716079902281e+00 -2.700710967219214442e+00 -2.951980836411444820e+00 -2.988718972048872047e+00 -3.222900782681868304e+00 -3.532089656130634303e+00 -3.532089656130634303e+00 -3.784509866263288114e+00 -4.034531117923691568e+00 -4.046942322002898607e+00 -4.273172081530383082e+00 -4.506912157256683926e+00 -4.521773045056427520e+00 -4.791103374845113727e+00 -5.021752952338721876e+00 -5.019149938676653377e+00 -5.282277047032958528e+00 -5.524623277614609584e+00 -5.524623277614609584e+00 -5.744903118754989713e+00 -5.997131292727774898e+00 -6.019641468726885769e+00 -6.200035432111620004e+00 -6.412797096168361577e+00 -6.423539451101679454e+00 -6.664226457918875468e+00 -6.861559090228893432e+00 -6.861768881404326059e+00 -7.001651876327787072e+00 -7.114171535396061508e+00 -7.114171535396061508e+00 -7.348395730281799487e+00 -7.556158832815151882e+00 -7.556158832815151882e+00 -7.748703089983878911e+00 -7.930533087339854958e+00 -7.891461242578136748e+00 -7.959288720871496636e+00 -8.005212119885658950e+00
4.595513458486531810e+00 4.342889895278039702e+00 4.009169747921689009e+00 4.009169747921689009e+00 3.667155077550651843e+00 3.331047295337841607e+00 3.189272238471270615e+00 2.929183686010643939e+00 2.418133903915724581e+00 2.193126055982058453e+00 1.798434083158381602e+00 1.580912443152013624e+00 1.494320983808735903e+00 1.289098263643346565e+00 9.566938425365735243e-01 6.116265634486597325e-01 2.053928409078068229e-01 7.934408348602844940e-04 -1.069125069884614698e-01 -1.821399951158553243e-01 -3.293366514856780891e-01 -6.162287023386375795e-01 -6.162287023386375795e-01 -4.726120420413560952e-01 -1.902359226525061620e-01 -1.882387728124116921e-01 -2.144307332285365075e-01 -1.365751778903849245e-01 -1.210174530434780099e-01 -1.097327178958513449e-01 -1.301297467462576352e+00 -2.091949090822109891e+00 -2.388158091788945114e+00 -1.389610946205096509e+00 -1.389610946205096509e+00 -3.566118035059948066e-01 9.745615690366328243e-01 1.152993649351883754e+00 1.189806369429189159e+00 1.255113936212802983e+00 1.315471181012005220e+00 1.376658849947369756e+00 1.304127400388115809e+00 1.305036928908369198e+00 1.233415007869368862e+00 1.243056449671102959e+00 1.243056449671102959e+00 1.390707230230178615e+00 1.537838848174325923e+00 1.537838848174325923e+00 1.253827143567151303e+00 6.858197639890005748e-01 4.723412367492350050e-01 7.198350388050475668e-02 -5.631790830026535133e-01 -7.431709480694823622e-01 -1.373584217884983083e+00 -1.793085007396263197e+00 -1.842876737646266916e+00 -2.192708892447206459e+00 -2.405754733377826859e+00 -2.405754733377826859e+00 -2.575162269397016868e+00 -2.714641054525699815e+00 -2.830727857543406500e+00 -2.887646246268543049e+00 -3.034262626682441955e+00 -3.150714835506334577e+00 -3.339775321815072306e+00 -3.164911524189626846e+00 -2.836633193726771029e+00 -2.159835814367377260e+00 -2.032643026912186457e+00 -2.032643026912186457e+00 -2.223951187563122822e+00 -2.374539790473479961e+00 -2.407242942446935707e+00 -2.685052670415789766e+00 -2.976926121417081461e+00 -2.951980836411444820e+00 -3.208946633974680385e+00 -3.504713218634968541e+00 -3.496741224442216023e+00 -3.736767857244038815e+00 -3.991655320409680741e+00 -4.013487433716620423e+00 -4.286280522802137227e+00 -4.507252782004111502e+00 -4.507252782004111502e+00 -4.791141220713313054e+00 -5.023083712710805671e+00 -5.021752952338721876e+00 -5.250711813993922839e+00 -5.499828199510096383e+00 -5.512225738562353428e+00 -5.740552027158866366e+00 -5.997371109853306237e+00 -5.994957562223917513e+00 -6.198732802498557959e+00 -6.420367615500675917e+00 -6.420367615500675917e+00 -6.593862779050562395e+00 -6.870400526330488589e+00 -6.861559090228893432e+00 -7.019064765474301026e+00 -7.131001958261411033e+00 -7.122295513688153612e+00 -7.280188288104266547e+00 -7.446205040812471587e+00 -7.514412482990003639e+00 -7.760520649344930355e+00 -7.863289999765859406e+00 -7.863289999765859406e+00 -7.946484103802749388e+00 -8.043632914612915741e+00 -8.005212119885658950e+00
4.623768554218624871e+00 4.324280274322199524e+00 3.927027149513535598e+00 3.804626514275457616e+00 3.593500821761582920e+00 3.286262219365816417e+00 3.151686406025147047e+00 2.650065152139651214e+00 2.351274163011290774e+00 2.149940502718446389e+00 1.762112264138737672e+00 1.454739572335662645e+00 1.454739572335662645e+00 1.278549948159192207e+00 4.042153572177604182e-01 3.731960298693602351e-01 1.464083685524366629e-01 -3.168501886106761534e-02 -1.069125069884614698e-01 -2.898459429391770370e-01 -3.706733219643377764e-01 -5.828470330663151344e-01 -5.687669685728946600e-01 -3.255015784430834724e-01 -2.883656531878375229e-01 -3.109846315014580531e-01 -1.870607979570509116e-01 -1.870607979570509116e-01 -1.189211746148525622e-01 -8.481902893363937324e-01 -1.301297467462576352e+00 -2.440845834718269991e+00 -2.633182412752368862e+00 -2.090229399446380310e+00 -7.498958637041690523e-01 2.954286113552225257e-01 7.194585794408171475e-01 1.173148001941319407e+00 1.204952740750078188e+00 1.204952740750078188e+00 1.247222047616479479e+00 1.252498903645289374e+00 1.304127400388115809e+00 1.218759849103776549e+00 1.167991083233116179e+00 1.202671161999201876e+00 1.337352576012086569e+00 1.431648702353070179e+00 1.485003356571162225e+00 1.601710637160574047e+00 8.627405976715526448e-01 8.627405976715526448e-01 1.908244230165011268e-01 -3.831158572112723371e-01 -5.631790830026535133e-01 -1.039769057768321403e+00 -1.670299044315817882e+00 -1.793085007396263197e+00 -2.108573371501594629e+00 -2.235268822744747919e+00 -2.308072714303280648e+00 -2.471825671720678130e+00 -2.519139865285408675e+00 -2.599954994024838761e+00 -2.697686383195770699e+00 -2.930958761813987401e+00 -2.930958761813987401e+00 -3.098730631735073349e+00 -3.274433935602931722e+00 -3.164911524189626846e+00 -2.569016519043112901e+00 -1.918681413118721313e+00 -1.935817701624496845e+00 -2.170643221817684321e+00 -2.333126647668813725e+00 -2.361738342288165704e+00 -2.669279704601373648e+00 -2.952634238548466961e+00 -2.952634238548466961e+00 -3.239497593753720039e+00 -3.504946876650756327e+00 -3.504713218634968541e+00 -3.759205079534469363e+00 -3.940874533706462124e+00 -3.991655320409680741e+00 -4.266657817457025104e+00 -4.499814765541545469e+00 -4.509009954632675843e+00 -4.791403163656688946e+00 -5.020971728452053640e+00 -5.020971728452053640e+00 -5.239228680864228771e+00 -5.485407752555922833e+00 -5.499828199510096383e+00 -5.731849843966618785e+00 -5.999784657482693184e+00 -5.997371109853306237e+00 -6.258139456903466069e+00 -6.434924585964310495e+00 -6.424277562768892835e+00 -6.597939398418376733e+00 -6.838561137997776207e+00 -6.834484674868995135e+00 -6.999258086742528917e+00 -7.139708402834667567e+00 -7.139708402834667567e+00 -7.251645595621776685e+00 -7.377997598634937759e+00 -7.446205040812471587e+00 -7.612221793520675739e+00 -7.812631956201065542e+00 -7.809740844041107799e+00 -7.979021694864124825e+00 -8.001506965027362028e+00 -8.008453441435648301e+00 -8.059584120419099662e+00
4.524879979160887800e+00 4.293635129921430149e+00 4.073317180983927699e+00 3.713467693944513037e+00 3.471411962416779851e+00 3.471411962416779851e+00 3.138053262955744049e+00 2.603749288215526203e+00 2.351274163011290774e+00 2.101231717408053257e+00 1.679520723859849518e+00 1.542443805747543806e+00 1.353690952102240885e+00 1.253264554468310976e+00 8.568476414673926733e-01 1.916100693520360609e-01 -2.911004056954459920e-02 -2.911004056954459920e-02 -1.799570630344413669e-01 -3.142020373186467097e-01 -3.706733219643377764e-01 -6.823801546628472936e-01 -5.426401869588365345e-01 -3.255015784430834724e-01 -2.646068506354469774e-01 -1.040082398517781087e-01 -1.218412041978608751e-01 -1.383745417281504186e-01 -3.938041938912927309e-01 -3.938041938912927309e-01 -2.202148401941011358e+00 -2.700836007160225982e+00 -2.633182412752368862e+00 -2.465127409917675205e+00 3.601053477390411817e-02 2.954286113552225257e-01 9.691121557239559259e-01 1.165806751337422398e+00 1.199073084180185100e+00 1.231613370776500682e+00 1.166957607286567278e+00 1.207806254628613907e+00 1.187562919490429136e+00 1.133392297819437289e+00 1.133392297819437289e+00 1.247730680151309501e+00 1.386694990220495916e+00 1.431648702353070179e+00 1.471868014014016346e+00 1.792057878706473595e+00 1.091088394453760158e+00 2.908164768157760482e-01 -7.333286148832961204e-02 -1.001999737286626141e-01 -7.886841165628729611e-01 -1.522848490259874676e+00 -1.522848490259874676e+00 -2.005214185342152788e+00 -2.195895960475276354e+00 -2.235268822744747919e+00 -2.351883564371493485e+00 -2.473067943216922249e+00 -2.519139865285408675e+00 -2.608757885496332030e+00 -2.679916572631155791e+00 -2.785187511117951153e+00 -3.057166118146202205e+00 -3.286562789530865558e+00 -3.286562789530865558e+00 -3.068478849459012725e+00 -2.064411857975931852e+00 -2.064411857975931852e+00 -1.967167670303435534e+00 -2.252474281227236474e+00 -2.333126647668813725e+00 -2.490453281901075400e+00 -2.794860922822131499e+00 -2.920139734070721360e+00 -3.201041943635122511e+00 -3.480098692571414798e+00 -3.489933915048990976e+00 -3.748472664642240382e+00 -3.937617941396860388e+00 -3.937617941396860388e+00 -4.184817940866160768e+00 -4.464813845149868676e+00 -4.499814765541545469e+00 -4.737761224065041077e+00 -4.972625842402004004e+00 -5.222257344190032846e+00 -5.246785141949759534e+00 -5.494761379046469330e+00 -5.737167301997653013e+00 -5.747606750960752464e+00 -5.986601919302329655e+00 -6.231264453399075975e+00 -6.270858958356273050e+00 -6.441187942021741719e+00 -6.601404664814745971e+00 -6.601404664814745971e+00 -6.842706164659626111e+00 -7.079208334411804415e+00 -7.081461624356265361e+00 -7.199559714449003778e+00 -7.269058484768291528e+00 -7.260352040195034995e+00 -7.372289232982144114e+00 -7.492932870342511542e+00 -7.544014351343142799e+00 -7.716567395695268949e+00 -7.875482728695517132e+00 -7.869377074692415874e+00 -8.027510302388392915e+00 -8.057618161999798190e+00 -8.057618161999798190e+00 -8.114640887796143787e+00
4.560259035004918360e+00 4.293635129921430149e+00 3.895184744347989003e+00 3.797576514951079396e+00 3.611751375327888258e+00 3.325524344502988505e+00 2.850571994120826513e+00 2.850571994120826513e+00 2.328091869420444660e+00 1.865164700432330624e+00 1.865164700432330624e+00 1.586959521509633486e+00 1.351881790193587118e+00 1.253264554468310976e+00 7.065311149702335758e-01 -5.824796678490223867e-01 -9.256739638823713312e-02 -2.881689430750704606e-01 -4.751677479121471093e-01 -4.221387932250584285e-01 -5.238790550313781047e-01 -5.898685001123703531e-01 -5.898685001123703531e-01 -3.602761740195826734e-01 2.759262838205385829e-02 -1.040082398517781087e-01 -5.663587474317293563e-02 -1.913918301078561812e-01 -1.675726886766000234e-01 -1.953882350470005136e+00 -2.427969058166542293e+00 -2.560473285551079226e+00 -2.318186076508949256e+00 -3.217106749295812751e-01 -3.217106749295812751e-01 8.621442823145424317e-01 1.138935129669498725e+00 1.165806751337422398e+00 1.155930103007593468e+00 1.123076048416744799e+00 1.166957607286567278e+00 1.142000507515541052e+00 1.100058636714915883e+00 1.112699695411302869e+00 1.196767333516287390e+00 1.376496569565753836e+00 1.376496569565753836e+00 1.314520531560779970e+00 1.533750681220046097e+00 1.533750681220046097e+00 7.667989899010235755e-01 -4.006773255107051734e-03 -7.333286148832961204e-02 -5.168136730252429478e-01 -1.059548347554718273e+00 -1.255325160238401239e+00 -1.872109244746984036e+00 -2.101594636532673199e+00 -2.251848880797093333e+00 -2.390956867346464065e+00 -2.509502609435848797e+00 -2.485045753832607396e+00 -2.501149984032410067e+00 -2.635623607751249153e+00 -2.852866480984246778e+00 -2.852866480984246778e+00 -3.165091058040398142e+00 -3.263232857691041211e+00 -3.238104964029944188e+00 -2.655267430544962615e+00 -2.166118132635227234e+00 -2.064015245108447250e+00 -2.111337246798460576e+00 -2.367648200489285593e+00 -2.411497055005791257e+00 -2.758132002334425348e+00 -3.129395892089734232e+00 -3.129395892089734232e+00 -3.364481596067118829e+00 -3.646781135808040197e+00 -3.712030047472623107e+00 -3.943882029670571221e+00 -4.134138944718644737e+00 -4.138512848045699855e+00 -4.361080691667080345e+00 -4.686078249982383426e+00 -4.720519058127177203e+00 -5.035557110663301472e+00 -5.223543210551094162e+00 -5.179014509867498006e+00 -5.472441795156631983e+00 -5.711880606924417236e+00 -5.711880606924417236e+00 -5.958684455908153765e+00 -6.193055320063285407e+00 -6.231264453399075975e+00 -6.420958191769970291e+00 -6.677773968027976181e+00 -6.634320385988075941e+00 -6.828465979776212613e+00 -7.000009112198741335e+00 -7.048186488546918760e+00 -7.264245938846929818e+00 -7.260426814102116211e+00 -7.260426814102116211e+00 -7.389702122128658957e+00 -7.501639314915768075e+00 -7.492932870342511542e+00 -7.641823661873813123e+00 -7.804967319552852167e+00 -7.875482728695517132e+00 -7.994154966508053128e+00 -8.075998909912662782e+00 -8.056529826251974669e+00 -8.125462438803989329e+00 -8.185920925941053028e+00
4.658395101592704535e+00 4.268155190219632189e+00 3.965984828051936972e+00 3.797576514951079396e+00 3.683957511449333921e+00 3.301370971876183003e+00 3.069063473723055324e+00 2.558251587545004480e+00 2.293955334274718538e+00 2.063864840890386354e+00 1.770550398881933996e+00 1.497110007191291059e+00 1.497110007191291059e+00 1.177282217144494325e+00 2.688698607818932329e-01 -5.824796678490223867e-01 -2.254433492254405702e-01 -3.900424115685020010e-01 -4.751677479121471093e-01 -4.792180929193473604e-01 -5.602871190765987830e-01 -6.314354996611183379e-01 -3.782070069810435919e-01 -1.925710299016848148e-01 -1.392565894839729868e-01 1.406516808022743349e-03 -2.434689629046938586e-01 -7.746660517914787381e-01 -9.357565094238478043e-01 -2.041408237788691071e+00 -1.788559358845501990e+00 -1.788559358845501990e+00 -6.768251912443055129e-01 7.063209965496721754e-01 8.574701771758463931e-01 9.984911425560510922e-01 1.075143523265457590e+00 1.114754538402273898e+00 1.094799598742733249e+00 1.081136192793692885e+00 1.109412642467704435e+00 1.076276991055607368e+00 1.148246431145199420e+00 1.148246431145199420e+00 1.299193783926126056e+00 1.363712646642536441e+00 1.328134250165508234e+00 1.141136022709863251e+00 8.751619480020524922e-01 1.090254846668857747e+00 2.626037991232679225e-01 -2.415913916544877860e-01 -3.791075567899659382e-01 -8.807606956546983890e-01 -1.454241778875807967e+00 -1.454241778875807967e+00 -1.805013689671878474e+00 -2.114670673435153692e+00 -2.251848880797093333e+00 -2.378184903103001790e+00 -2.453358489391536779e+00 -2.485045753832607396e+00 -2.495685262572306939e+00 -2.693993890335649954e+00 -2.755371717028480383e+00 -3.100758666780810469e+00 -3.327389421963328431e+00 -3.292050177879658701e+00 -2.781410061690165136e+00 -2.167720663289805394e+00 -2.167720663289805394e+00 -2.171393047216694239e+00 -2.331013047237111557e+00 -2.367648200489285593e+00 -2.636119765235300783e+00 -2.957299555194878860e+00 -3.027919619786749728e+00 -3.301649152763642459e+00 -3.520995519002815044e+00 -3.575535983632444292e+00 -3.904525060984103568e+00 -4.129765041391587843e+00 -4.129765041391587843e+00 -4.356994714909035338e+00 -4.624160023922144980e+00 -4.686078249982383426e+00 -4.921305862603102987e+00 -5.176986461432287356e+00 -5.223543210551094162e+00 -5.456096723322437114e+00 -5.759795949312792374e+00 -5.705544184780702466e+00 -5.948883412869976794e+00 -6.168647819136770849e+00 -6.168647819136770849e+00 -6.389068361576216049e+00 -6.621058708237272938e+00 -6.621058708237272938e+00 -6.838391938642014445e+00 -7.021108483849642035e+00 -7.000009112198741335e+00 -7.127531428278114589e+00 -7.293691039862809866e+00 -7.370759804679434701e+00 -7.391581912123862175e+00 -7.494353805505195254e+00 -7.510345759489025497e+00 -7.622282952276135504e+00 -7.807840414582018163e+00 -7.807840414582018163e+00 -7.939352807520536182e+00 -8.059587449879149545e+00 -8.075998909912662782e+00 -8.107970823540384231e+00 -8.168493227617346975e+00 -8.169626894651749183e+00
4.591015780483508557e+00 4.237580664345024672e+00 3.939836356346691382e+00 3.813630257578356719e+00 3.545559911919455409e+00 3.386174802926543492e+00 3.061483110229871407e+00 2.557897225182255152e+00 2.051674587990473420e+00 2.051674587990473420e+00 1.766606474022492490e+00 1.485213715477155638e+00 1.394618863371548612e+00 1.205844934106606647e+00 -1.297338300930214461e-01 -2.377334787854710196e-01 -4.358504330179781006e-01 -4.013216505388709221e-01 -3.891879541079841243e-01 -4.700368682494487360e-01 -4.977360780542610108e-01 -4.977360780542610108e-01 -2.064878806333111938e-01 8.993994793829873657e-02 2.213554317325928111e-01 -3.138252840248869496e-02 -5.494581652370256197e-01 -7.746660517914787381e-01 -1.651255947820786441e+00 -2.138143591682905686e+00 -2.385129318189040060e+00 -9.351308874180093156e-01 3.534309829160320326e-01 3.534309829160320326e-01 8.826190563437361636e-01 1.035889320777925615e+00 1.035889320777925615e+00 1.039071487055243104e+00 1.055766330957468524e+00 1.081136192793692885e+00 1.067472786844652743e+00 1.074903920820710734e+00 1.105596618621899729e+00 1.269627056606097426e+00 1.428205766958182465e+00 1.436144950954012511e+00 1.216162507640152990e+00 7.863636884838069996e-01 7.863636884838069996e-01 3.397750130641216115e-01 -1.211744166576737003e-01 -2.415913916544877860e-01 -6.191963635831895241e-01 -1.115909243471403745e+00 -1.281792899714309319e+00 -1.674833314487562230e+00 -1.899017872521661765e+00 -2.000841745770182811e+00 -2.246436984486393396e+00 -2.424641843768683191e+00 -2.424641843768683191e+00 -2.521754682641089484e+00 -2.667574722035207735e+00 -2.693993890335649954e+00 -2.854615783989968847e+00 -3.158107799766500801e+00 -3.327389421963328431e+00 -2.882441229250508385e+00 -2.559167376678185946e+00 -2.368943668220707899e+00 -2.184601740585012664e+00 -2.378629613611902727e+00 -2.283128805391804406e+00 -2.562624928837736960e+00 -2.864551222256180196e+00 -2.864551222256180196e+00 -3.186003860199708271e+00 -3.490567730623354237e+00 -3.520995519002815044e+00 -3.814373493197693143e+00 -4.090656213536681740e+00 -4.129641167282763092e+00 -4.360073930017212440e+00 -4.639343141443781349e+00 -4.633223309517155997e+00 -4.821747881892262555e+00 -5.130429712313480550e+00 -5.130429712313480550e+00 -5.465933034226234000e+00 -5.749404261588747289e+00 -5.759795949312792374e+00 -5.923300904431976655e+00 -6.149045733060415131e+00 -6.158846776098593878e+00 -6.384297832589996169e+00 -6.559643812186652490e+00 -6.564223807295801016e+00 -6.821770550825102752e+00 -7.009749946715151836e+00 -7.009749946715151836e+00 -7.170317483425669103e+00 -7.243523843066758339e+00 -7.293691039862809866e+00 -7.451640317612991282e+00 -7.569371963153542993e+00 -7.494353805505195254e+00 -7.630989396849392037e+00 -7.751633034209759465e+00 -7.743457305257612333e+00 -7.893367243410436274e+00 -8.003222886345557896e+00 -7.988649535995031137e+00 -8.124487517436930872e+00 -8.155947603128101520e+00 -8.155947603128101520e+00 -8.218322386593174045e+00
4.562686171006083313e+00 4.069219308772230370e+00 3.939836356346691382e+00 3.801307263080199395e+00 3.584932157626855798e+00 3.386174802926543492e+00 2.836180688124835925e+00 2.539180420544735917e+00 2.284906431438644692e+00 1.847120654937099093e+00 1.650632536546124296e+00 1.566287698704101894e+00 1.421391074855038017e+00 1.958523103679587762e-01 1.958523103679587762e-01 -2.566758715014867409e-01 -3.250791948845015433e-01 -4.013216505388709221e-01 -2.893970461167527097e-01 -4.986604448034459014e-01 -5.999914833002323311e-01 -3.277352102288146884e-01 -1.602641686970797119e-01 -5.604656231066493244e-02 2.375661022536062761e-01 8.588237870885283287e-02 8.588237870885283287e-02 -8.981797069953399992e-01 -1.962909920600432123e+00 -2.138143591682905686e+00 -2.281436338107171835e+00 -4.832975867636893907e-01 -1.283285724558003160e-02 8.700782338540924421e-01 9.138087893814265117e-01 9.897083300816645890e-01 9.911720205855670818e-01 1.020882251963738163e+00 1.020882251963738163e+00 1.062624976587173364e+00 1.060639932624273252e+00 1.074903920820710734e+00 1.237635234543304596e+00 1.431163060387948160e+00 1.428205766958182465e+00 1.377720811825309699e+00 1.002353177955871422e+00 8.306387885733745868e-01 3.996448020124815370e-01 -9.732035239940633325e-03 -3.573379626702810619e-02 -4.878669136190899591e-01 -9.756354812100322960e-01 -9.756354812100322960e-01 -1.430575099192404220e+00 -1.822095288761363951e+00 -1.899017872521661765e+00 -2.084889252000738491e+00 -2.228552965975635569e+00 -2.363793491469082575e+00 -2.465315423266948525e+00 -2.365246390891825978e+00 -2.613299362682986349e+00 -2.842057113709294480e+00 -3.051275873725451060e+00 -3.051275873725451060e+00 -3.229689281666435985e+00 -2.814920277163053708e+00 -2.559167376678185946e+00 -2.196984600753553174e+00 -2.676092882606609713e+00 -2.378629613611902727e+00 -2.559482097458492866e+00 -2.756962022960255609e+00 -2.839470120709123080e+00 -3.156932624732345261e+00 -3.461072263929388271e+00 -3.461072263929388271e+00 -3.749452972982203036e+00 -4.049181645416852326e+00 -4.090656213536681740e+00 -4.374883394827616456e+00 -4.623832071007193179e+00 -4.639343141443781349e+00 -4.885227063778369683e+00 -5.150512001500055170e+00 -5.171579068640017596e+00 -5.438545863846408146e+00 -5.706126037363656422e+00 -5.727765149476201856e+00 -5.920315609272402746e+00 -6.143548370479821941e+00 -6.143548370479821941e+00 -6.374756774617555521e+00 -6.564233616748194500e+00 -6.559643812186652490e+00 -6.855100452025409297e+00 -7.000629591647953731e+00 -6.998391409580660749e+00 -7.162631896840702339e+00 -7.325488367220263086e+00 -7.450244320239097107e+00 -7.379117661101059156e+00 -7.585449893137004906e+00 -7.703964631632485904e+00 -7.678011983171831645e+00 -7.738043519156814654e+00 -7.872276671570126005e+00 -7.872276671570126005e+00 -7.981767167268022156e+00 -8.048285766646337436e+00 -8.125019933250246851e+00 -8.172976124961198963e+00 -8.202956443220960736e+00 -8.215727927222477689e+00 -8.223519053932033529e+00
4.537785728371039440e+00 4.275363379008629394e+00 3.940158105323251281e+00 3.706058812110613054e+00 3.706058812110613054e+00 3.447987136501802219e+00 2.858440151783542493e+00 2.539180420544735917e+00 2.267908535965637906e+00 1.826432192664418919e+00 1.650632536546124296e+00 1.480484276691357959e+00 1.423522371124636754e+00 8.278733344403437222e-01 -2.206337391752228871e-01 -3.570215082066045542e-01 -3.570215082066045542e-01 -3.804865289927547578e-01 -4.376251914055584447e-01 -4.986604448034459014e-01 -4.368872590958350899e-01 -2.543872544573143046e-01 -1.602641686970797119e-01 1.263008885250339608e-01 2.713486004031906429e-01 2.860465526180284712e-01 -1.634221433108477561e-01 -5.114088839347729482e-02 -1.095171091891833592e+00 -1.971741226942191449e+00 -5.785989112954726954e-01 -5.785989112954726954e-01 6.958069340294783522e-01 8.820388799220454379e-01 9.138087893814265117e-01 8.797139247194492029e-01 9.179811672500129971e-01 9.738774923052214705e-01 1.001239324135728248e+00 1.022135996871703423e+00 1.069483622216878205e+00 1.187065354041530796e+00 1.446707652874428707e+00 1.446707652874428707e+00 1.535196868572265227e+00 1.543542669593289451e+00 1.002353177955871422e+00 5.731244151581791346e-01 7.629899308538523606e-02 -9.732035239940633325e-03 -4.728382593849208559e-01 -8.511814919451342609e-01 -8.731519095146890175e-01 -1.416071143704994428e+00 -1.715850417189285881e+00 -1.715850417189285881e+00 -2.041415545039145574e+00 -2.059381908314786180e+00 -2.059381908314786180e+00 -2.262841277036495402e+00 -2.488620563430434363e+00 -2.365246390891825978e+00 -2.723203942168968883e+00 -2.981017395439645945e+00 -3.015868068916200961e+00 -3.201807050665477661e+00 -3.134187267894084084e+00 -3.070391930692170313e+00 -2.411856302251069284e+00 -1.987910750974062779e+00 -2.217497056157671675e+00 -2.439628853407336706e+00 -2.670131960378075764e+00 -3.038521365080159242e+00 -3.038521365080159242e+00 -3.408811286034037380e+00 -3.700100721593734043e+00 -3.716344547524257358e+00 -4.007737724896937692e+00 -4.350576686781086444e+00 -4.368580052258281832e+00 -4.637543032959004385e+00 -4.956927368947591006e+00 -4.928212141875675023e+00 -5.207836840543467183e+00 -5.426296966491291229e+00 -5.426296966491291229e+00 -5.684486925251110989e+00 -5.927806763894234443e+00 -5.921871685105632110e+00 -6.199633808876614083e+00 -6.329947249008925247e+00 -6.369986245631334754e+00 -6.568823421309735622e+00 -6.793120846031517779e+00 -6.796042814555308453e+00 -7.016991072078867298e+00 -7.138968738839456485e+00 -7.147260723670770588e+00 -7.307607497629858173e+00 -7.456820383855284007e+00 -7.456820383855284007e+00 -7.552490474825179767e+00 -7.646591438893289627e+00 -7.703964631632485904e+00 -7.822479370127966902e+00 -7.926172936241243860e+00 -7.870451463676658932e+00 -8.003459035643359698e+00 -8.070167091125606262e+00 -8.067092965170576946e+00 -8.187516646916627394e+00 -8.204948038588922188e+00 -8.204948038588922188e+00 -8.262962626827608403e+00 -8.263722438628049005e+00
4.537785728371039440e+00 4.287657155699448275e+00 3.963256698915727849e+00 3.824159322669925754e+00 3.634477243390151546e+00 3.466259619688909943e+00 3.198170638297318291e+00 2.516971778815504823e+00 2.014575075651237057e+00 2.014575075651237057e+00 1.652486252815529966e+00 1.532608463799633558e+00 1.423522371124636754e+00 -2.171323898259132357e-02 -3.249707358081483921e-01 -3.367158878509118325e-01 -4.302103524232475107e-01 -3.232819166918491360e-01 -4.777678312599942245e-01 -5.522262231785312059e-01 -2.673216317980569023e-01 -2.673216317980569023e-01 3.052495129927210865e-02 2.368253586909939146e-01 2.713486004031906429e-01 3.377959951994806143e-01 1.590522295119237706e-01 -5.114088839347729482e-02 -6.442701470990260804e-01 3.216979691966628252e-01 3.510229369475620365e-02 5.165966998152708989e-01 7.837439343757842680e-01 7.837439343757842680e-01 8.889022507689907648e-01 9.181897395342544232e-01 9.181897395342544232e-01 9.062045767190587409e-01 1.100166258618224813e+00 1.227684953061065620e+00 1.227684953061065620e+00 1.413798916065811762e+00 1.487376964484613318e+00 1.478411646364738763e+00 1.295822887947917224e+00 9.114758947136044620e-01 7.937085010095842330e-01 1.677638935734111214e-01 -1.922368433679983446e-01 -2.612988641541635904e-01 -6.809352101219302567e-01 -1.153967257556606452e+00 -1.153967257556606452e+00 -1.482107919017095377e+00 -1.829081545636246586e+00 -1.903533648718112925e+00 -2.122252373727566699e+00 -2.180284065629208179e+00 -2.218461301368932936e+00 -2.417689420439972814e+00 -2.643570904768946850e+00 -2.667695522926262441e+00 -2.914520912933068253e+00 -3.284653377842476463e+00 -3.284653377842476463e+00 -3.200703440988253323e+00 -2.821587811288816638e+00 -2.667877741022582683e+00 -2.144512954674643535e+00 -2.100376142829415649e+00 -2.217497056157671675e+00 -2.478409932284187267e+00 -2.870676434421768786e+00 -2.954093038964611839e+00 -3.348438151633851501e+00 -3.613240004769213698e+00 -3.802326531187391723e+00 -4.017921088174899680e+00 -4.305720050817215316e+00 -4.305720050817215316e+00 -4.649452326632903087e+00 -4.941637445744151869e+00 -4.956927368947591006e+00 -5.238263024732168205e+00 -5.497662451321724042e+00 -5.467860396195115769e+00 -5.694327978621275932e+00 -5.901740324481357547e+00 -5.933741842682837664e+00 -6.223727979726705328e+00 -6.410723277831209543e+00 -6.410723277831209543e+00 -6.578920980785632366e+00 -6.769907980078472498e+00 -6.793120846031517779e+00 -6.926646364192809990e+00 -7.126955239611069359e+00 -7.138968738839456485e+00 -7.294723486160741288e+00 -7.450387651067687855e+00 -7.487467793947681471e+00 -7.619302295618009424e+00 -7.686995273076586699e+00 -7.686995273076586699e+00 -7.780894715676174300e+00 -7.939184211858081319e+00 -7.939184211858081319e+00 -8.028944829622577828e+00 -8.122502664008065310e+00 -8.070167091125606262e+00 -8.130963043995597772e+00 -8.237981426382015471e+00 -8.221464732485468829e+00 -8.247900477021387289e+00 -8.310197326432740894e+00 -8.315713370476027322e+00
4.521015499281946681e+00 4.074811058856323776e+00 3.963256698915727849e+00 3.855941430782420909e+00 3.669329784361455182e+00 3.466259619688909943e+00 2.820957445935645680e+00 2.502984248228442343e+00 1.993254809973562969e+00 1.834671842142068021e+00 1.664899606159265133e+00 1.511177593201614267e+00 8.326225725073803652e-01 -4.343734298187567067e-01 -3.790234323221631785e-01 -4.693390896785560873e-01 -4.676027730112736203e-01 -3.375466876217471657e-01 -3.375466876217471657e-01 -3.830726201087162885e-01 -1.885468968396048217e-01 -7.745365737703764630e-02 3.840626102688615706e-02 2.384389397654061160e-01 3.395972990885636200e-01 3.716520682671672349e-01 4.877992085540885370e-01 4.562344022117792441e-01 5.350451799783004780e-01 6.503786460287507287e-01 6.503786460287507287e-01 7.440363669623639709e-01 8.193994708224794365e-01 8.695347080982618326e-01 8.313361968021382165e-01 9.346553037077656167e-01 9.358060419010305608e-01 1.120739483559681338e+00 1.304998887504527527e+00 1.234818214147169746e+00 1.419442137047911334e+00 1.492154011432630600e+00 1.492154011432630600e+00 1.499687864536407567e+00 9.286203208687053845e-01 9.286203208687053845e-01 3.534280166584054528e-01 -1.019156966281399568e-01 -1.922368433679983446e-01 -5.922119746697394049e-01 -1.034302587042737587e+00 -9.919138178907606074e-01 -1.478842843979307986e+00 -1.867850582196806108e+00 -1.811492941237518250e+00 -2.033131549065766208e+00 -2.189711155594588732e+00 -2.189711155594588732e+00 -2.324709117507994804e+00 -2.538563291321855431e+00 -2.643570904768946850e+00 -2.860212932581374545e+00 -2.973327525206427513e+00 -3.070871810003979796e+00 -3.181939191128248190e+00 -3.062783887909807934e+00 -2.939409045107638896e+00 -2.420647269852708838e+00 -2.168917944869690917e+00 -2.168917944869690917e+00 -2.375740924241316332e+00 -2.787781829348303209e+00 -2.870676434421768786e+00 -3.166180336670794127e+00 -3.536147732154441226e+00 -3.613240004769213698e+00 -3.968303637773389347e+00 -4.252196188970520652e+00 -4.257460731415836364e+00 -4.630168746637595589e+00 -4.941095966376454207e+00 -4.941095966376454207e+00 -5.207509217811549185e+00 -5.513585814144613906e+00 -5.513585814144613906e+00 -5.756521491760349107e+00 -5.909915955794312836e+00 -5.901740324481357547e+00 -6.196186039706568671e+00 -6.400874860328181093e+00 -6.410999462052220821e+00 -6.587096658904227020e+00 -6.720035237074174717e+00 -6.687287029501593594e+00 -6.959036466186633518e+00 -7.049750209295737591e+00 -7.049750209295737591e+00 -7.255842100628574265e+00 -7.426627982269033978e+00 -7.450387651067687855e+00 -7.617847361866664890e+00 -7.745242351290093197e+00 -7.735229142852720230e+00 -7.803881195010735183e+00 -7.913820715160143848e+00 -7.915193936091474924e+00 -8.099839669868412528e+00 -8.089830953259468771e+00 -8.089830953259468771e+00 -8.160585574736918701e+00 -8.184357783190534974e+00 -8.237981426382015471e+00 -8.282055451569634741e+00 -8.303688386741157501e+00 -8.310197326432740894e+00 -8.318779206005093130e+00
4.453376223111924048e+00 4.030360282012009243e+00 3.935008368400850998e+00 3.719855845286540674e+00 3.577046620838510993e+00 3.422991198207533170e+00 2.779638345418455003e+00 2.242941373777933123e+00 2.242941373777933123e+00 1.824489694405300844e+00 1.590218959939127208e+00 1.511177593201614267e+00 1.662724074929945450e-01 -4.868411995617871746e-01 -3.790234323221631785e-01 -2.833459321623705285e-01 -3.800349753439095646e-01 -2.310584842393293703e-01 -4.216420307501564380e-01 -2.658912135897035234e-01 -2.658912135897035234e-01 6.040255532031531260e-02 1.957281328012838717e-01 1.957281328012838717e-01 3.177753481728202156e-01 4.394577883964462806e-01 4.877992085540885370e-01 5.083250199626793142e-01 5.794334807816685640e-01 6.587916307137547944e-01 7.266945236100814665e-01 7.573019423860145594e-01 7.899411263100475367e-01 8.135504789787892932e-01 9.148218463233004361e-01 9.148218463233004361e-01 1.038910913142819803e+00 1.232550286416834506e+00 1.304998887504527527e+00 1.347542985605717725e+00 1.450610855798040832e+00 1.418611314040867377e+00 1.518799090418644138e+00 1.103526940481584839e+00 9.745165617896859311e-01 2.771875693817122954e-01 -6.053350759560769540e-02 -6.053350759560769540e-02 -5.571451209480806632e-01 -1.018770888834056754e+00 -1.034302587042737587e+00 -1.463154609871068601e+00 -1.933433475253504508e+00 -1.867850582196806108e+00 -2.054401437358315707e+00 -2.231965680230604043e+00 -2.209578871044376669e+00 -2.349558664779984429e+00 -2.402678198306140267e+00 -2.449698418890402074e+00 -2.757397232032559042e+00 -2.963246900650512217e+00 -2.963246900650512217e+00 -3.149786166047706892e+00 -3.127664304734058209e+00 -3.062783887909807934e+00 -2.816187948404922814e+00 -2.338016748482366403e+00 -2.161966578716000509e+00 -2.324385635035378428e+00 -2.577201592941503527e+00 -2.672344229196761400e+00 -3.114345379478891118e+00 -3.460948847281695162e+00 -3.460948847281695162e+00 -3.828972523328688649e+00 -4.197839878026097260e+00 -4.252196188970520652e+00 -4.553753407750500415e+00 -4.877068491372143377e+00 -4.914301388803764326e+00 -5.209306492341026384e+00 -5.513199061123487787e+00 -5.526720602998760334e+00 -5.746149213340888906e+00 -5.973418503938360935e+00 -5.973418503938360935e+00 -6.186636118318746824e+00 -6.420573111563521174e+00 -6.400874860328181093e+00 -6.586183464715388958e+00 -6.749270454125388952e+00 -6.720035237074174717e+00 -6.929458449076040694e+00 -7.080093166042407127e+00 -7.056350746896525195e+00 -7.200633929107064901e+00 -7.382428606537104088e+00 -7.405224130654090686e+00 -7.576010012294550400e+00 -7.748664462686919663e+00 -7.748664462686919663e+00 -7.873359268882481388e+00 -7.930764509704658849e+00 -7.913820715160143848e+00 -8.023957634805466199e+00 -8.204466816777241434e+00 -8.146137240295320936e+00 -8.212232543716902811e+00 -8.250687083406212707e+00 -8.218624042177298250e+00 -8.317131342759907398e+00 -8.336334288916319224e+00 -8.408242673692413405e+00 -8.399810985708542788e+00 -8.425161116149896046e+00
4.220500035351768986e+00 4.220500035351768986e+00 3.874904339972422118e+00 3.649312766299129596e+00 3.577046620838510993e+00 3.353854697199882828e+00 2.730639892594298068e+00 2.464822681267955673e+00 1.987269927641206024e+00 1.834749182449301630e+00 1.716905907570401846e+00 1.370808686471700621e+00 -2.819532670262523411e-01 -2.819532670262523411e-01 -5.786323303651418337e-01 -4.713308931611228103e-01 -3.800349753439095646e-01 -3.120245823970218546e-01 -2.950962133171380897e-01 -2.760093217701434787e-01 -3.303076242931006490e-02 9.080256147042498061e-02 1.484093667719516563e-01 2.825743805368005068e-01 3.971117565802342875e-01 3.971117565802342875e-01 4.679130337764644265e-01 5.139327234320761884e-01 5.794334807816685640e-01 5.919288867579084457e-01 6.867471916770759854e-01 7.573019423860145594e-01 8.159850275470412750e-01 8.919258753569253573e-01 8.951716272141542197e-01 1.019260694033673698e+00 1.117482403253045931e+00 1.143349760853193064e+00 1.277034044571297544e+00 1.403882802711642563e+00 1.403882802711642563e+00 1.352240772332852004e+00 1.034747813074781364e+00 1.103526940481584839e+00 4.943563916541883763e-01 -5.897861344034727171e-02 -8.315743011145051988e-02 -4.807362658868014060e-01 -8.350821829142955899e-01 -8.988133646034033308e-01 -1.347827915075178407e+00 -1.657176868427071792e+00 -1.657176868427071792e+00 -1.840085934647345711e+00 -2.103228335228433554e+00 -2.231965680230604043e+00 -2.354948020289292288e+00 -2.424094403947670173e+00 -2.402678198306140267e+00 -2.672644382530013907e+00 -2.874578205332328107e+00 -2.912393850119420868e+00 -3.050512022161154579e+00 -3.202681537461856909e+00 -3.202681537461856909e+00 -2.926156111018164641e+00 -2.570398908255493886e+00 -2.338016748482366403e+00 -2.172874200642552101e+00 -2.427905685843740891e+00 -2.577201592941503527e+00 -2.903281169263254746e+00 -3.348296939626126623e+00 -3.382591066713366512e+00 -3.746344400670928998e+00 -4.078516266066197993e+00 -4.152642659794300251e+00 -4.533357547919111497e+00 -4.856771985300914807e+00 -4.856771985300914807e+00 -5.196286256484520472e+00 -5.519330418814349493e+00 -5.829156004440493533e+00 -5.829156004440493533e+00 -6.062866573933757941e+00 -6.286000789758588780e+00 -6.274164359694728077e+00 -6.531051865411757973e+00 -6.704506758346269635e+00 -6.584700143838285946e+00 -6.737118840958000732e+00 -6.921519462964996983e+00 -6.939902013191553642e+00 -7.044920057238618583e+00 -7.218936327418308707e+00 -7.218936327418308707e+00 -7.366014614492897294e+00 -7.545400778784582485e+00 -7.554606160679606219e+00 -7.703988190705122641e+00 -7.877896297278777382e+00 -7.861430623665991213e+00 -7.949983441962363173e+00 -8.057647824398584291e+00 -8.047406628294657693e+00 -8.157030981263583058e+00 -8.309093963686072115e+00 -8.246977974346473061e+00 -8.293153430161064321e+00 -8.311238486805610393e+00 -8.311238486805610393e+00 -8.387737073062263349e+00 -8.431916680862844515e+00 -8.408242673692413405e+00 -8.507638604855531028e+00 -8.505534050764286036e+00
4.412167924369259531e+00 4.001945028959887907e+00 3.713517676062905615e+00 3.713517676062905615e+00 3.485187173277415340e+00 3.011055877821738669e+00 2.730639892594298068e+00 2.425822913126570501e+00 1.974022593014332916e+00 1.834749182449301630e+00 1.688899587465950258e+00 6.821549325882542147e-01 -1.303119741502962170e-01 -7.611725433652486439e-01 -6.493703726910349250e-01 -3.906679014365757041e-01 -3.748979843841518944e-01 -3.415107776471304479e-01 -3.415107776471304479e-01 -2.899948557750053890e-01 5.409579956103912485e-02 9.080256147042498061e-02 1.468029563075722577e-01 3.339246773857995620e-01 3.523026038521727132e-01 4.491831787037304791e-01 4.770651560176495942e-01 4.977979058458909534e-01 5.517394249901702574e-01 5.289604455805128058e-01 5.289604455805128058e-01 7.814500216326488724e-01 8.776100775090319717e-01 8.919258753569253573e-01 1.032919856374152845e+00 1.112060834543405097e+00 1.117482403253045931e+00 1.217837281489093870e+00 1.338393463953907014e+00 1.341957874118635319e+00 1.312740815372263725e+00 9.978060591105909483e-01 9.978060591105909483e-01 4.407280655192059027e-01 1.003021230661561153e-02 1.003021230661561153e-02 -3.714380612751908561e-01 -8.266666070804828959e-01 -8.350821829142955899e-01 -1.220265828166110067e+00 -1.429560314949785527e+00 -1.530416857772704642e+00 -1.735404050945662746e+00 -1.861364308885150365e+00 -2.158389809997033559e+00 -2.333160123251215357e+00 -2.482929104942017240e+00 -2.715254746982087131e+00 -2.587799321494590910e+00 -2.836769518383490229e+00 -3.070508869366953331e+00 -3.070508869366953331e+00 -3.079731875861118517e+00 -3.071881101697518268e+00 -3.012679279101684759e+00 -2.819546020562928579e+00 -2.476900096113725080e+00 -2.316288681212362199e+00 -2.321136894431085729e+00 -2.661915155094773056e+00 -2.796345777518059350e+00 -3.245942420666152906e+00 -3.685393934515586611e+00 -3.685393934515586611e+00 -4.021336904530796730e+00 -4.452706167550266159e+00 -4.492260680251754401e+00 -4.844944984713521308e+00 -5.183764097804143489e+00 -5.184381565392652824e+00 -5.551913798796110910e+00 -5.881765495999237814e+00 -5.865702972983067198e+00 -6.157871444459494192e+00 -6.404681492385629227e+00 -6.347564224914640896e+00 -6.563611024449965470e+00 -6.749873860763563549e+00 -6.749873860763563549e+00 -6.804619318809047357e+00 -6.937026400037993312e+00 -6.921519462964996983e+00 -7.074016068303896176e+00 -7.211538159682927329e+00 -7.169609593182310725e+00 -7.374228251711267390e+00 -7.553872537159073808e+00 -7.511720947404620041e+00 -7.682584339090180237e+00 -7.864630657879783548e+00 -7.864630657879783548e+00 -7.977618896041888341e+00 -8.093383702283380998e+00 -8.057647824398584291e+00 -8.180992541429173315e+00 -8.265794679977576109e+00 -8.309093963686072115e+00 -8.294019358992759550e+00 -8.374074316605227608e+00 -8.340788592075506713e+00 -8.410476392118621192e+00 -8.473220235462687100e+00 -8.473220235462687100e+00 -8.514378704531967657e+00 -8.546239973109615917e+00 -8.505534050764286036e+00
4.554462486543283894e+00 3.981378614900126678e+00 3.831895778810133546e+00 3.521542859074711096e+00 3.415630314532685397e+00 3.252573481393102206e+00 2.676526043427456258e+00 2.123836983530005718e+00 2.123836983530005718e+00 1.776637727738057393e+00 1.495959017257383783e+00 6.821549325882542147e-01 -1.533640485248103369e-01 -5.858129401833928052e-01 -6.493703726910349250e-01 -4.506874475887200915e-01 -3.768846737716783912e-01 -3.623069010702843484e-01 -4.680163590711132748e-01 -5.026920537645000742e-02 2.227129504370038426e-01 8.176992641001512574e-02 2.688441401136956177e-01 3.118614197917576880e-01 3.815000198992415381e-01 4.348162953264866348e-01 4.954699681308288861e-01 4.954699681308288861e-01 5.579742537181109352e-01 6.015352432527539817e-01 6.564648883033470383e-01 8.235894166867854249e-01 9.743058049249763153e-01 9.985601212743764332e-01 1.099431063285552401e+00 1.210029999059939687e+00 1.216223908787965824e+00 1.329342419272975251e+00 1.439824024989580398e+00 1.439824024989580398e+00 9.604798535598868536e-01 2.686524423090683733e-01 3.118179946963160476e-01 -6.111215435125456896e-02 -4.402502981778879665e-01 -3.266739261271718875e-01 -1.252281893165312798e+00 -1.538053243944220050e+00 -1.215052036337426422e+00 -1.577019568516627057e+00 -1.798596648443619328e+00 -1.798596648443619328e+00 -1.982896142126841621e+00 -2.286562949256641719e+00 -2.158389809997033559e+00 -2.617243813826572563e+00 -2.728691819977798527e+00 -2.715254746982087131e+00 -2.804641655992517801e+00 -2.945751846962197718e+00 -3.044004551846156925e+00 -3.074157482240644335e+00 -3.109291108158931394e+00 -3.084962144613448309e+00 -2.884388148455865331e+00 -2.627276963609440408e+00 -2.627276963609440408e+00 -2.217633502448948857e+00 -2.593938150892617145e+00 -2.661915155094773056e+00 -3.032836934309390386e+00 -3.490787257121767961e+00 -3.594222187120228007e+00 -3.994054560208101456e+00 -4.338686712870816642e+00 -4.379297310058958281e+00 -4.812714696119565261e+00 -5.176195997894822654e+00 -5.176195997894822654e+00 -5.524745074008363233e+00 -5.922413859952085247e+00 -5.881765495999237814e+00 -6.209853368127708606e+00 -6.473369611326495132e+00 -6.404681492385629227e+00 -6.592729589674368285e+00 -6.839844799649398510e+00 -6.790093968526966783e+00 -6.864058412393927888e+00 -6.997254817456534326e+00 -6.997254817456534326e+00 -7.144164280825828328e+00 -7.235235146891862534e+00 -7.235235146891862534e+00 -7.325750210170886234e+00 -7.455808349048703043e+00 -7.553872537159073808e+00 -7.702888704390407071e+00 -7.849228851449934652e+00 -7.831966369115695770e+00 -8.008358167946781236e+00 -8.102081425713894447e+00 -8.128343951205764029e+00 -8.184531139092509733e+00 -8.281483401397139232e+00 -8.281483401397139232e+00 -8.413721110594902797e+00 -8.397876080667799670e+00 -8.374074316605227608e+00 -8.430890100744800719e+00 -8.510898950961085063e+00 -8.472749396405491851e+00 -8.527801417014742924e+00 -8.620514735371521908e+00 -8.615466224002519269e+00 -8.588055136645575516e+00
