4.134856157322995607e+00 4.141446935849266708e+00 3.963864143454379096e+00 3.898753935795694847e+00 3.973310270297365498e+00 3.683331653871307232e+00 3.099299758276464534e+00 2.955516788465707201e+00 2.663383490613949078e+00 2.255524754545373156e+00 1.856327961761118805e+00 1.856327961761118805e+00 1.754038868595423795e+00 1.716070456609921857e+00 1.702530566148858338e+00 1.729980016966690570e+00 1.746027412126968104e+00 1.734944244639960775e+00 1.736044298935246255e+00 1.746532149342564955e+00 1.724865378267351090e+00 1.763779635825736269e+00 1.812672494830394943e+00 1.812672494830394943e+00 1.863260322325893448e+00 1.892781605360979835e+00 1.900650586200984815e+00 1.895968243731020575e+00 1.724419890163347402e+00 1.573635000740836842e+00 1.333467162517388838e+00 1.310897901808882438e+00 1.174698975317874483e+00 1.091304457250270588e+00 1.143605043346542116e+00 1.143605043346542116e+00 9.736661018635288656e-01 7.559827580064619745e-01 6.583012738300062505e-01 4.569594082343558239e-01 3.174998903364949221e-02 -3.056002992082249015e-01 -1.278506724110633000e-03 -5.003714024499253399e-02 -7.300971615110213309e-02 -1.689100799569769051e-01 -1.205556672852770989e-01 -4.793948302084276025e-01 -1.224756697500312352e+00 -1.983399465300382136e+00 -1.983399465300382136e+00 -2.697194114058953485e+00 -3.400118638126617743e+00 -3.708261817486338430e+00 -3.833268247673382145e+00 -4.001851033952050329e+00 -4.114253534885974339e+00 -4.191813887214863144e+00 -4.195354860479421966e+00 -4.215129809984531128e+00 -4.055768223105656212e+00 -3.702586072004286244e+00 -3.702586072004286244e+00 -3.271528075538533642e+00 -2.960099377221713901e+00 -2.840663474415437761e+00 -2.794918135959036487e+00 -2.513571170405970889e+00 -2.833715250671373198e+00 -3.638976417516115891e+00 -3.921222846332321765e+00 -4.559890586184898176e+00 -5.258613725012342144e+00 -5.704922922191764556e+00 -5.704922922191764556e+00 -6.262484819125866409e+00 -6.879444888498956523e+00 -7.356909025960212567e+00 -7.356909025960212567e+00 -7.680429726959510539e+00 -7.906213499105692044e+00 -7.906213499105692044e+00 -8.094555553159009875e+00 -8.234752942431581957e+00 -8.332329766816473082e+00 -8.403523760070743975e+00 -8.533557550587692830e+00 -8.612017405481488197e+00 -8.751777711358245782e+00 -8.809533383416882302e+00 -8.886130185865942721e+00 -8.985476239004228205e+00 -9.090627644116283435e+00 -9.090627644116283435e+00 -9.184425875973465381e+00 -9.291382140120283850e+00 -9.347897725025060112e+00 -9.360268507428207485e+00 -9.427970670243949414e+00 -9.478189651676697025e+00 -9.553531138053596550e+00 -9.563000042907958687e+00 -9.593280451164030609e+00 -9.648389015234188903e+00 -9.696861886787422335e+00 -9.696861886787422335e+00 -9.717598783807847695e+00 -9.770707305783037810e+00 -9.797369392783140896e+00 -9.805956441000027723e+00 -9.807941955294426251e+00 -9.838163955355675228e+00 -9.912832144148367775e+00 -9.900352129489460751e+00 -9.982121562442237916e+00 -1.007853733490306958e+01
4.377313451922132614e+00 4.377313451922132614e+00 4.090677141956240881e+00 4.073617826419998700e+00 3.973310270297365498e+00 3.862412331738731108e+00 3.257650731034835268e+00 2.955516788465707201e+00 2.576770897690878748e+00 2.488077512258342061e+00 2.144784999142494097e+00 1.833364880680905529e+00 1.746571776159810518e+00 1.746571776159810518e+00 1.729830670965626371e+00 1.754828368911618419e+00 1.746027412126968104e+00 1.772257565849154171e+00 1.774187158283511367e+00 1.746532149342564955e+00 1.772605843748567445e+00 1.789936977103818938e+00 1.811601238103561995e+00 1.860170859948631517e+00 1.910578702706476673e+00 1.893668159369960469e+00 1.902159376323695916e+00 1.838576869851661799e+00 1.838576869851661799e+00 1.671277411329091578e+00 1.485892934168181023e+00 1.310897901808882438e+00 1.286316170405186643e+00 1.196178038182086123e+00 1.171060601624791087e+00 1.099961046781515073e+00 1.062473945206625192e+00 8.978098709333758309e-01 6.337179720633053792e-01 3.251816961465518463e-01 3.251816961465518463e-01 -7.665343954660658321e-02 -6.298331226915442060e-02 -5.003714024499253399e-02 -9.879577376587443671e-02 -1.940280111934464535e-01 -1.907096948112605717e-01 -7.024194387862758848e-01 -9.363105456179230401e-01 -1.714851005425390928e+00 -2.206022559742172096e+00 -2.977228162424869762e+00 -3.280843037899523473e+00 -3.565407431801163707e+00 -3.845421402369554986e+00 -3.882509683788394561e+00 -4.045515718516434767e+00 -4.157779837046985172e+00 -4.220839125333874620e+00 -4.220839125333874620e+00 -4.165273078591519962e+00 -3.898931590882078080e+00 -3.585526790426820654e+00 -3.486970567535085941e+00 -3.084516164031506857e+00 -2.891491651416167485e+00 -2.669149831371390391e+00 -2.602542292359852016e+00 -2.726767735045160457e+00 -3.488384060400712805e+00 -4.164636960255413634e+00 -4.164636960255413634e+00 -4.989410446312580127e+00 -5.518457086871794814e+00 -5.853258223106728053e+00 -6.106319062216883253e+00 -6.652272286876956819e+00 -7.022626750246475424e+00 -7.436129815931282749e+00 -7.533347571403878895e+00 -7.741881233710198984e+00 -7.974396386243194357e+00 -8.146595903011183637e+00 -8.146595903011183637e+00 -8.293967475891220076e+00 -8.455316680365619675e+00 -8.533557550587692830e+00 -8.581693647791006185e+00 -8.724230596199300081e+00 -8.809533383416882302e+00 -8.901945740342791069e+00 -8.958597524527291966e+00 -9.040008985110599582e+00 -9.122221022466915130e+00 -9.168952026138097011e+00 -9.238304321108486761e+00 -9.337395766857559565e+00 -9.395212873459204417e+00 -9.395212873459204417e+00 -9.454067130395978680e+00 -9.521868698652083296e+00 -9.563000042907958687e+00 -9.560019335647817584e+00 -9.620159488487479038e+00 -9.649426760628374566e+00 -9.727543233225818042e+00 -9.696193532242977753e+00 -9.762848691263585010e+00 -9.762280134937187270e+00 -9.787377623457624409e+00 -9.787377623457624409e+00 -9.810262898832636580e+00 -9.875602082469852050e+00 -9.900352129489460751e+00 -9.985756624317680519e+00 -1.010494751811399183e+01
4.391040514669494854e+00 4.302735386267317885e+00 4.222643461104307328e+00 4.173319747589725459e+00 4.154379693110131555e+00 3.637135034157777724e+00 3.637135034157777724e+00 3.102363796668119456e+00 2.780246043404495992e+00 2.488077512258342061e+00 2.396728027649490667e+00 1.924694821453939220e+00 1.808054032689531354e+00 1.758632428236542422e+00 1.766566305864290420e+00 1.784328622313111623e+00 1.776086084597477743e+00 1.794126488862693103e+00 1.812794159134231364e+00 1.791959232702113436e+00 1.794797178896420764e+00 1.831500113087763726e+00 1.831500113087763726e+00 1.889937618556186028e+00 1.954280981841579612e+00 1.918141306355539921e+00 1.902254795785588648e+00 1.846424245506574469e+00 1.797128439182322568e+00 1.686444441372788594e+00 1.642253956022698080e+00 1.454144293048936776e+00 1.273613248306206147e+00 1.262370630984492426e+00 1.179833040937189326e+00 1.215523869783251110e+00 1.003261840756492607e+00 1.003261840756492607e+00 7.603649921906483478e-01 5.309752101159861404e-01 1.887725487431357874e-01 1.522722866675907116e-01 -2.776381814795259723e-02 -1.269558093352997526e-02 -1.489161346728962443e-01 -2.010237310545470168e-01 -1.778267468959333630e-01 -4.133550894677476273e-01 -1.179652224853093845e+00 -1.179652224853093845e+00 -1.937474099867180888e+00 -2.978972506156599920e+00 -3.280843037899523473e+00 -3.406974888019541403e+00 -3.721625817594877539e+00 -3.882509683788394561e+00 -4.063473405033220409e+00 -4.101754568890780384e+00 -4.179811186663414446e+00 -4.237746694537510628e+00 -4.121482699674599459e+00 -4.121482699674599459e+00 -3.796410613001897971e+00 -3.407321557263260470e+00 -3.084516164031506857e+00 -2.986758293318787061e+00 -2.750244002387025155e+00 -2.602542292359852016e+00 -2.628601004389099494e+00 -2.933033133766772771e+00 -3.522594182471900037e+00 -4.416993888617617436e+00 -4.618487960166074657e+00 -5.126395654390879741e+00 -5.694217659604980497e+00 -6.291502335610878127e+00 -6.291502335610878127e+00 -6.785869636521034920e+00 -7.254057200768802893e+00 -7.533347571403878895e+00 -7.633734977930052068e+00 -7.865493577763659871e+00 -8.012136774838563014e+00 -8.198636252863359175e+00 -8.253846797652730771e+00 -8.367806040744078189e+00 -8.505827001155573441e+00 -8.658534045952977820e+00 -8.658534045952977820e+00 -8.787496904205701398e+00 -8.883965111243806945e+00 -8.958597524527291966e+00 -9.022237732039020131e+00 -9.105204169227000932e+00 -9.168952026138097011e+00 -9.283573119187856548e+00 -9.317007324183457229e+00 -9.340685209160984215e+00 -9.418021558610750077e+00 -9.483435885633063833e+00 -9.483435885633063833e+00 -9.539518414764041054e+00 -9.604351192637768264e+00 -9.604351192637768264e+00 -9.617693935587517728e+00 -9.682543364234772909e+00 -9.696193532242977753e+00 -9.715866336463909292e+00 -9.727190877091230092e+00 -9.759341757085268299e+00 -9.775487084659539860e+00 -9.811333429032545794e+00 -9.807034168283998099e+00 -9.888368691230560614e+00 -1.004692824204088808e+01 -1.004692824204088808e+01
4.635257927425755931e+00 4.463449289475542869e+00 4.339847056962431893e+00 4.256794719782104330e+00 4.333724647764965354e+00 3.775767745411240384e+00 3.408589411048971396e+00 3.249207264265260076e+00 2.973355720237680799e+00 2.711207919656638321e+00 2.244824932141246343e+00 2.071182206504746937e+00 1.867690042066940226e+00 1.801194399863162765e+00 1.793710247334049601e+00 1.793710247334049601e+00 1.805882807780619936e+00 1.831645560775407855e+00 1.812794159134231364e+00 1.837401599082072012e+00 1.848829953590212627e+00 1.814655487077233342e+00 1.864875991042620473e+00 1.913286555503213915e+00 1.957414664294645945e+00 1.945891898798159270e+00 1.880378220316611726e+00 1.880378220316611726e+00 1.898803030396077673e+00 1.847587173784856596e+00 1.642253956022698080e+00 1.599479269322464869e+00 1.396976779848957850e+00 1.262370630984492426e+00 1.232253554741504775e+00 1.273529845456088605e+00 1.225414910636654087e+00 9.377268074929238084e-01 7.085736654596377360e-01 7.085736654596377360e-01 3.760008747111935334e-01 1.211495299720501267e-01 1.211495299720501267e-01 1.738580695727449249e-02 -9.839391061009930550e-02 -2.010237310545470168e-01 -8.129164068886833572e-02 -1.235918617154331545e-01 -6.423193653031921135e-01 -1.415821655030707893e+00 -1.711176695270773207e+00 -2.373625542124344179e+00 -3.155808977310552432e+00 -3.517325345583019569e+00 -3.517325345583019569e+00 -3.743785399444009787e+00 -3.984711445656774931e+00 -4.101754568890780384e+00 -4.145228167422960297e+00 -4.245768726719902020e+00 -4.263151166158858807e+00 -4.095277109759870804e+00 -3.994473331915922021e+00 -3.702395333761578033e+00 -3.228914121455277453e+00 -2.888797344545513734e+00 -2.888797344545513734e+00 -2.691508504823566739e+00 -2.587568068140596367e+00 -2.933033133766772771e+00 -3.079367917589951098e+00 -3.971945425502717342e+00 -4.618487960166074657e+00 -5.229994133594209060e+00 -5.454095070477962715e+00 -5.843391833475624075e+00 -6.451737642016261987e+00 -6.893152327942214441e+00 -6.893152327942214441e+00 -7.339450582902670384e+00 -7.684542576806085101e+00 -7.684542576806085101e+00 -7.941936827962737588e+00 -8.144842426286537318e+00 -8.253846797652730771e+00 -8.324796371451004262e+00 -8.472940090286114057e+00 -8.551388942202827081e+00 -8.698097998748156812e+00 -8.761244299859235696e+00 -8.833387075369900643e+00 -8.936210103901181867e+00 -9.055085137973119203e+00 -9.055085137973119203e+00 -9.174025439583788355e+00 -9.269149292610308066e+00 -9.317007324183457229e+00 -9.345064397234873255e+00 -9.409020453337234358e+00 -9.439839770435289878e+00 -9.476498502842051863e+00 -9.527822293218747518e+00 -9.543203243129529056e+00 -9.591795571195270043e+00 -9.635162691599514773e+00 -9.635162691599514773e+00 -9.675720833096530527e+00 -9.684691437826016269e+00 -9.727190877091230092e+00 -9.715549138819405073e+00 -9.806992045825881021e+00 -9.811333429032545794e+00 -9.849920064173277368e+00 -9.907432947496829456e+00 -1.000054908524271369e+01 -1.013283998328559754e+01
4.762943603606567322e+00 4.592173322561253990e+00 4.377924089739765989e+00 4.374689758583721222e+00 4.168730291698294899e+00 4.168730291698294899e+00 3.610821240705009316e+00 3.237548435578282202e+00 2.973355720237680799e+00 2.909788030427432837e+00 2.435399440642471269e+00 2.071182206504746937e+00 1.861058872230380690e+00 1.842934196291508453e+00 1.804386458446122887e+00 1.815292112339197850e+00 1.834157680066359042e+00 1.834157680066359042e+00 1.845170770399527704e+00 1.877339359788445572e+00 1.877339359788445572e+00 1.879288032368511052e+00 1.901594221912755955e+00 1.913286555503213915e+00 1.961819774572530539e+00 1.973884018583764055e+00 1.915185099815370551e+00 1.875949142431610817e+00 1.905392958254302993e+00 1.935941150996643989e+00 1.755879673404418639e+00 1.554987521746862500e+00 1.554987521746862500e+00 1.371611978099415374e+00 1.238122989214484715e+00 1.273529845456088605e+00 1.237390037204055826e+00 1.039075534777341714e+00 8.838013338630555937e-01 6.567823387286270131e-01 6.074874388234370315e-01 2.790537094810757734e-01 1.088572603136779837e-01 -4.487203813406084874e-02 -4.487203813406084874e-02 -1.721616173325812016e-01 -1.117175718040988308e-01 -1.235918617154331545e-01 -3.569514044069552194e-01 -1.153552384769200856e+00 -1.711176695270773207e+00 -2.839050592008149465e+00 -2.972265216370670871e+00 -3.227012226832662645e+00 -3.563578285150837743e+00 -3.575456424458885785e+00 -3.802156759545911591e+00 -4.042335807566391992e+00 -4.191792637750316963e+00 -4.191792637750316963e+00 -4.295773158564845318e+00 -4.184540510623010690e+00 -3.994473331915922021e+00 -3.887869559435408462e+00 -3.427573945577694126e+00 -3.107503306793781839e+00 -2.822746614993637770e+00 -2.762874618433027507e+00 -2.655385497888657298e+00 -2.653463285600486277e+00 -3.335363106541584521e+00 -3.335363106541584521e+00 -4.241120123222314575e+00 -4.960612022035236102e+00 -5.454095070477962715e+00 -5.659641523612133795e+00 -6.152440069190026506e+00 -6.569371207785330569e+00 -6.993210247109109545e+00 -7.129199623947971354e+00 -7.443205189505498254e+00 -7.756122264873184236e+00 -7.994828726849478429e+00 -7.994828726849478429e+00 -8.194224250013867561e+00 -8.351889687562831455e+00 -8.472940090286114057e+00 -8.501200602926974881e+00 -8.659501058390898010e+00 -8.780730684079980364e+00 -8.780730684079980364e+00 -8.909206717246664908e+00 -9.005016277681866299e+00 -9.102775660741873054e+00 -9.135683232952295896e+00 -9.242658737369545463e+00 -9.290126289840856089e+00 -9.358843593527227611e+00 -9.394443918282458839e+00 -9.430632959448148611e+00 -9.483046010125899983e+00 -9.557725720984340256e+00 -9.557725720984340256e+00 -9.595226717207779643e+00 -9.664175956994146333e+00 -9.661761798226907061e+00 -9.700885506297829863e+00 -9.724674338143971752e+00 -9.746916962196339185e+00 -9.771411316329094987e+00 -9.826982491975204681e+00 -9.861095902956463988e+00 -9.893023032510884107e+00 -1.002741731632354316e+01 -1.002741731632354316e+01 -1.013450432362364317e+01
4.801546969266730969e+00 4.592173322561253990e+00 4.512352897642109895e+00 4.431841206632737062e+00 4.425225343242799703e+00 3.972558872477541136e+00 3.834969210099568482e+00 3.501659614057611503e+00 3.240197339084845751e+00 2.800492812493875050e+00 2.800492812493875050e+00 2.275573739570579068e+00 1.965946739176912761e+00 1.842934196291508453e+00 1.849509055139497260e+00 1.843494896384113346e+00 1.835348532330432825e+00 1.858161772118644972e+00 1.874728247097396494e+00 1.888947358144749566e+00 1.911829426565132772e+00 1.917981426087809194e+00 1.917981426087809194e+00 1.928907165223636699e+00 1.985522305625224249e+00 1.973884018583764055e+00 1.964831564569112787e+00 1.944760397606129398e+00 1.905392958254302993e+00 1.886389086355398925e+00 1.827069427981407701e+00 1.720898795447077134e+00 1.514384424783699723e+00 1.477908849979773009e+00 1.355932316203195320e+00 1.266700275689378596e+00 1.240638551030901482e+00 1.240638551030901482e+00 9.974941587288328471e-01 8.181480718501006333e-01 6.074874388234370315e-01 4.549618595592843651e-01 1.824532205501921966e-01 4.928585162448197859e-02 -1.023523488805323511e-01 -1.321876912415907435e-01 -1.636731850060005877e-01 -1.075935545764326873e-01 -6.249561987823198939e-01 -6.249561987823198939e-01 -1.583255726557224019e+00 -2.552510367639112765e+00 -2.972265216370670871e+00 -3.004290430609042328e+00 -3.349944200272799044e+00 -3.575456424458885785e+00 -3.858953507822437956e+00 -3.946639680304127484e+00 -4.171442135150514652e+00 -4.244363758101360240e+00 -4.284064243888019874e+00 -4.255536275027664850e+00 -4.142035789713110816e+00 -3.803825021412295726e+00 -3.299227068706326094e+00 -3.299227068706326094e+00 -2.959999791412262216e+00 -2.712449186083465857e+00 -2.712449186083465857e+00 -2.591310871169693275e+00 -2.958182071901344301e+00 -3.628510146048978147e+00 -3.853171367012865112e+00 -4.688245655868222173e+00 -5.170702548765117257e+00 -5.751744604113762982e+00 -5.891574633777649339e+00 -6.255729361288273616e+00 -6.782959288154410515e+00 -7.243713692719282449e+00 -7.243713692719282449e+00 -7.620200950083050984e+00 -7.900640870531726812e+00 -8.073682909376167061e+00 -8.133760066449312376e+00 -8.294563548125514885e+00 -8.440034137022980332e+00 -8.588813082199406423e+00 -8.602715434360330704e+00 -8.674254177545380529e+00 -8.851102389523182623e+00 -8.968161049778855087e+00 -8.968161049778855087e+00 -9.094225765499961867e+00 -9.163888488538734833e+00 -9.242658737369545463e+00 -9.268903650581348685e+00 -9.349567427267571063e+00 -9.394443918282458839e+00 -9.469168606772703001e+00 -9.502887752411821154e+00 -9.519673553170003188e+00 -9.565715886129247281e+00 -9.605390478864503478e+00 -9.616662251811490592e+00 -9.674225693262336279e+00 -9.730108855904186171e+00 -9.730108855904186171e+00 -9.781279327367073506e+00 -9.787239346888505054e+00 -9.826982491975204681e+00 -9.910858376880378628e+00 -9.936147145543525738e+00 -9.950902296580977691e+00 -1.007401341026436370e+01 -1.011965172016407877e+01
4.982507044174900201e+00 4.771013611793521569e+00 4.519733680217951743e+00 4.431841206632737062e+00 4.516726038720633163e+00 4.163108370360724564e+00 3.834969210099568482e+00 3.755453315843682027e+00 3.564618941757395909e+00 3.161575051567832695e+00 2.627598960576191800e+00 2.510571509079978725e+00 2.167944732142608188e+00 1.884668886521909892e+00 1.841601245085251692e+00 1.841601245085251692e+00 1.864648702324840368e+00 1.881455984440237428e+00 1.874728247097396494e+00 1.929687048977400288e+00 1.968398519949412950e+00 1.948972767298939868e+00 1.940659652162632476e+00 1.955175864977811706e+00 1.962579427103734897e+00 1.995328426613442119e+00 1.970251435442665233e+00 1.999270731239801702e+00 1.895124895743655502e+00 1.827544577809123272e+00 1.854325522955210248e+00 1.854325522955210248e+00 1.631772993581616316e+00 1.448003928729000966e+00 1.328420819117100082e+00 1.330677033353293126e+00 1.299750995059779646e+00 1.149953187464588744e+00 9.669528635309626585e-01 9.182618300662761524e-01 7.545032750266046362e-01 3.332981583680667548e-01 2.698546770522051719e-01 1.203895504558935986e-01 -5.530621553774046906e-02 -1.184381022347128221e-01 -1.184381022347128221e-01 -9.296287405861272668e-02 -4.166524866879839362e-01 -1.002344370842638055e+00 -1.316251520976829070e+00 -2.211070026825606050e+00 -2.762458311312106396e+00 -3.075702909839604704e+00 -3.116195626695803966e+00 -3.405680478914998144e+00 -3.714844430693368782e+00 -4.034933931812247465e+00 -4.034933931812247465e+00 -4.239780289021402915e+00 -4.312300895034885784e+00 -4.255536275027664850e+00 -4.277783590261737601e+00 -3.994058736585201608e+00 -3.653496207607454860e+00 -3.170341468633306015e+00 -3.107847663219604151e+00 -2.846566404895057634e+00 -2.632692098847811302e+00 -2.548157221674534956e+00 -2.548157221674534956e+00 -3.217133513729237393e+00 -4.089541579247820913e+00 -4.688245655868222173e+00 -4.836466826006471820e+00 -5.469738533731467456e+00 -5.891574633777649339e+00 -5.970485739944887627e+00 -6.512036014359201097e+00 -6.918948664993273212e+00 -7.328258599592443190e+00 -7.444611675581643162e+00 -7.696708485078931794e+00 -7.967973927444794491e+00 -8.157657351901011822e+00 -8.157657351901011822e+00 -8.347577817686625323e+00 -8.527746548722994646e+00 -8.602715434360330704e+00 -8.656599514554461194e+00 -8.814476013107816144e+00 -8.878602861110911348e+00 -8.995002565660447758e+00 -9.051160897468593092e+00 -9.104986305865679697e+00 -9.201750878081085716e+00 -9.325340538757597386e+00 -9.325340538757597386e+00 -9.376498473925888533e+00 -9.454638239126960997e+00 -9.502887752411821154e+00 -9.511357450100145883e+00 -9.573227014554150927e+00 -9.605390478864503478e+00 -9.678501205195734869e+00 -9.689015534997508894e+00 -9.725723827466442373e+00 -9.764657238461927236e+00 -9.782717816945943667e+00 -9.782717816945943667e+00 -9.855155464659862474e+00 -9.966597749050219335e+00 -9.936147145543525738e+00 -9.980261664898653962e+00 -1.008386628077753500e+01 -1.011965172016407877e+01
4.928241130136742143e+00 4.821986298090801704e+00 4.637228380897576940e+00 4.482084260325866154e+00 4.415723676803477105e+00 4.290781464635956333e+00 4.036085165112054618e+00 3.807080770169576578e+00 3.430670262601791531e+00 3.430670262601791531e+00 2.827352504790742849e+00 2.337139187578278765e+00 2.089161057864091564e+00 1.960974666717674175e+00 1.893746434016459812e+00 1.863767486564347653e+00 1.923731025432178443e+00 1.928363551987867686e+00 1.903172992104604999e+00 1.991546887796889376e+00 2.045684760602140440e+00 2.020314769491696527e+00 1.987583392916436154e+00 1.985060743346296785e+00 1.985060743346296785e+00 2.016982012163511584e+00 2.013776351310716528e+00 1.999270731239801702e+00 1.930522939322729892e+00 1.865750321182859217e+00 1.878152813857577819e+00 1.814266288519132075e+00 1.727826981334474210e+00 1.581398100278244456e+00 1.416602491951864273e+00 1.346415169994821470e+00 1.346415169994821470e+00 1.275494697546081468e+00 1.078323452076196176e+00 9.182618300662761524e-01 8.557128388286265874e-01 5.284938131562731956e-01 2.698546770522051719e-01 6.852162632091096661e-02 -7.048813414084132561e-03 -8.732766162024076240e-02 -1.255001677251540992e-01 -1.137711188855176497e-01 -1.137711188855176497e-01 -7.624137067143503810e-01 -1.663314680668379619e+00 -2.211070026825606050e+00 -2.463124063646624506e+00 -2.884643243563090653e+00 -3.116195626695803966e+00 -3.244245140043590325e+00 -3.604187235224887598e+00 -3.825796994409579987e+00 -4.131229553924143261e+00 -4.195569833286323380e+00 -4.310702740921931841e+00 -4.338564515979018488e+00 -4.219985367319696756e+00 -4.219985367319696756e+00 -3.870919639428292314e+00 -3.368045844027614422e+00 -3.107847663219604151e+00 -2.957137557318636034e+00 -2.735332885484575094e+00 -2.590880136066528117e+00 -2.649237153955124491e+00 -2.915097475650508585e+00 -3.468876598108268983e+00 -4.314748478103486384e+00 -4.963587470326037199e+00 -4.963587470326037199e+00 -5.583266740654412530e+00 -6.072613756496126669e+00 -6.512036014359201097e+00 -6.633886277591079406e+00 -7.108789347776371059e+00 -7.444611675581643162e+00 -7.759087486199394590e+00 -7.816114074057320948e+00 -8.020418562206829804e+00 -8.241930750335333400e+00 -8.438522736479805886e+00 -8.438522736479805886e+00 -8.559348077070099592e+00 -8.717224575623454541e+00 -8.717224575623454541e+00 -8.850683835194843141e+00 -8.975537218870529799e+00 -9.051160897468593092e+00 -9.101744979045072625e+00 -9.172968324887833091e+00 -9.246602469134540314e+00 -9.344550963916207209e+00 -9.352573218488052120e+00 -9.413608023118939627e+00 -9.471481411834652420e+00 -9.551571669365291228e+00 -9.551571669365291228e+00 -9.615554240521229090e+00 -9.677449983282574664e+00 -9.689015534997508894e+00 -9.750273009866935681e+00 -9.809928441693354983e+00 -9.815532165034762002e+00 -9.803067377447913344e+00 -9.871071418911395057e+00 -9.930748277104605393e+00 -9.979271258576169146e+00 -1.004876599306113150e+01 -1.004876599306113150e+01 -1.010479911670451614e+01
4.952389861794475934e+00 4.705707064096691816e+00 4.705707064096691816e+00 4.574303368781396983e+00 4.505285436336649241e+00 4.290781464635956333e+00 4.118719105343245701e+00 3.949271613876152998e+00 3.816348063519583000e+00 3.192546384872717358e+00 3.031912825170095971e+00 2.728096182043965534e+00 2.283254789327664902e+00 2.048930534079726140e+00 2.048930534079726140e+00 1.994635995464724809e+00 2.008976092223158982e+00 1.928363551987867686e+00 2.018598502884604962e+00 2.075064642019173178e+00 2.045684760602140440e+00 2.052105260861070146e+00 2.069228555764978772e+00 2.020045338853242001e+00 2.019686801396694875e+00 2.033964798693528309e+00 2.033964798693528309e+00 2.040186522131635982e+00 1.937719154673481992e+00 1.937719154673481992e+00 1.946029107628942878e+00 1.868009725998994730e+00 1.727826981334474210e+00 1.697028835622616638e+00 1.538938089310802004e+00 1.404533844255474229e+00 1.358053892504234472e+00 1.343089066891587358e+00 1.214044041735785839e+00 1.040978689880326602e+00 8.112217694623808928e-01 8.112217694623808928e-01 4.375964709899799465e-01 1.579710139810068525e-01 -7.048813414084132561e-03 -6.484929511046989836e-02 -1.610895490627622384e-01 -1.423129010802623717e-01 -2.446267334281128081e-01 -5.657509670450235895e-01 -1.115247951354068290e+00 -1.940859513830222260e+00 -2.584097686393104887e+00 -2.584097686393104887e+00 -3.003295487866724400e+00 -3.369996583106710908e+00 -3.604187235224887598e+00 -3.724804322221849429e+00 -4.061068602133526717e+00 -4.195569833286323380e+00 -4.328965561665387263e+00 -4.345405345051237767e+00 -4.329218656828127898e+00 -4.129054047671380623e+00 -4.029948692905253260e+00 -3.697540929114781605e+00 -3.249317531408478565e+00 -2.894789210301986326e+00 -2.894789210301986326e+00 -2.674182039586660231e+00 -2.517162869799052238e+00 -2.915097475650508585e+00 -3.118778024093703749e+00 -3.926810728322178257e+00 -4.526662230993441227e+00 -5.190456879201112983e+00 -5.367616772132500991e+00 -5.723841900925515702e+00 -6.265556327044317975e+00 -6.786941386505800367e+00 -6.786941386505800367e+00 -7.179013055276409538e+00 -7.593172870963845078e+00 -7.816114074057320948e+00 -7.900619072449509339e+00 -8.116217116525124453e+00 -8.280107945139750569e+00 -8.462096639585737989e+00 -8.515673252306513064e+00 -8.619973138139094715e+00 -8.777849636692447888e+00 -8.898030538050020866e+00 -8.898030538050020866e+00 -9.015073453859372421e+00 -9.130998592486129439e+00 -9.172968324887833091e+00 -9.216243423973763171e+00 -9.335386010203018614e+00 -9.398429301241360889e+00 -9.440107871481217217e+00 -9.462743966899374470e+00 -9.540923542881781572e+00 -9.580738142979054572e+00 -9.603221817539456140e+00 -9.650570174294637482e+00 -9.708741749927751741e+00 -9.779511694861376725e+00 -9.830469931045112020e+00 -9.849785002702448722e+00 -9.821352034444979395e+00 -9.940470148195810651e+00 -9.940470148195810651e+00 -1.002239537160881255e+01 -1.006040052397832874e+01 -1.008833401390290696e+01 -1.008630198218098784e+01
4.949764951403103908e+00 4.836446107918860982e+00 4.704872905770383085e+00 4.638841031929818115e+00 4.586142888960180741e+00 4.320981988550341768e+00 4.078537151187979326e+00 4.078537151187979326e+00 3.960161633089728017e+00 3.351524847715920963e+00 3.031912825170095971e+00 2.902904470781224600e+00 2.542637712562652474e+00 2.261831979122486125e+00 2.116488227804480093e+00 2.191086126971498516e+00 2.086701566339034919e+00 2.083585011721175384e+00 2.105042776049716124e+00 2.105042776049716124e+00 2.137619345736994081e+00 2.148789546654575222e+00 2.069228555764978772e+00 2.102870917911129123e+00 2.082318226327507737e+00 2.053698485327939416e+00 2.033338749349502095e+00 2.065021562506670350e+00 1.992509961748207825e+00 1.952706537093444883e+00 1.968312380258202543e+00 1.968312380258202543e+00 1.808049312461816882e+00 1.706407119921180771e+00 1.538938089310802004e+00 1.513401524413510613e+00 1.421312092350659695e+00 1.343089066891587358e+00 1.208845412366970740e+00 1.180299643131936804e+00 9.969104216993541767e-01 6.698935166333122027e-01 6.392547880783825409e-01 4.169732694255850469e-01 1.058186084597617094e-01 -1.030194570745045085e-01 -1.030194570745045085e-01 -2.131676810715020243e-01 -1.449704203877121012e-01 -5.657509670450235895e-01 -8.562184205810590143e-01 -1.657143021963833229e+00 -2.175377255105677143e+00 -2.749541271060732761e+00 -2.884393648608614136e+00 -3.134838379913008843e+00 -3.518920848949833591e+00 -3.850593487456716701e+00 -3.850593487456716701e+00 -4.143106599110972788e+00 -4.342342618361643147e+00 -4.345405345051237767e+00 -4.347134234733058378e+00 -4.227420818811683745e+00 -4.029948692905253260e+00 -3.569769937724442066e+00 -3.418662484837798221e+00 -3.023576825934141787e+00 -2.827950167525651093e+00 -2.593606974903839735e+00 -2.542452967986634782e+00 -2.724909691216816032e+00 -3.332958614414247123e+00 -4.175789098325838111e+00 -4.175789098325838111e+00 -4.877464197361681464e+00 -5.525575085206175352e+00 -5.525575085206175352e+00 -6.046575282212183211e+00 -6.496439702034318309e+00 -6.839756493290962247e+00 -6.914457417922840854e+00 -7.405513886376178689e+00 -7.670010694857444022e+00 -7.956481873829179818e+00 -8.024657369042470734e+00 -8.199308991207042041e+00 -8.451613037113931526e+00 -8.596788010685896708e+00 -8.596788010685896708e+00 -8.739795067867710543e+00 -8.862438717682925571e+00 -8.945554571062848126e+00 -8.957120059448868687e+00 -9.058223164479286993e+00 -9.151856931539976259e+00 -9.257392122903295828e+00 -9.240838355926692671e+00 -9.315596024086996607e+00 -9.393045139383602304e+00 -9.440614017692741555e+00 -9.440614017692741555e+00 -9.507330491593307897e+00 -9.569548043384386915e+00 -9.650570174294637482e+00 -9.647901355726517636e+00 -9.733783990912396433e+00 -9.830469931045112020e+00 -9.844092379115565450e+00 -9.828230240212814550e+00 -9.886899449470803347e+00 -1.004349358926881663e+01 -1.001843827668429299e+01 -1.003821135504622397e+01 -1.007921614527967513e+01 -1.006677940962555873e+01
4.949764951403103908e+00 4.846409887459302901e+00 4.767648279898141439e+00 4.638841031929818115e+00 4.564332992153500079e+00 4.375300212963486146e+00 4.171561460771628482e+00 4.047977201240202660e+00 3.906342027905359338e+00 3.906342027905359338e+00 3.185969344970739137e+00 2.806790916447488016e+00 2.542637712562652474e+00 2.560903818331029758e+00 2.345052191269531239e+00 2.191086126971498516e+00 2.264457013127290086e+00 2.238135406456337684e+00 2.147366365639736152e+00 2.176627291134276998e+00 2.234231440533509083e+00 2.190866982025013510e+00 2.168749050452350335e+00 2.154774416024003436e+00 2.154774416024003436e+00 2.095141949527537406e+00 2.049101123759018428e+00 2.065021562506670350e+00 2.061716472158181990e+00 2.040563892933109802e+00 2.013905401400308381e+00 1.912852655074506192e+00 1.888451494081152315e+00 1.846972996203505968e+00 1.662997495157539252e+00 1.503492316182199362e+00 1.457293105628362673e+00 1.391743924194426496e+00 1.346250647367136954e+00 1.139324862958195794e+00 1.139324862958195794e+00 8.595173419948554105e-01 6.238231193489182091e-01 3.648208639043399315e-01 2.453417782131812330e-01 -1.058112050640651058e-01 -1.212564156180787195e-01 -7.287152862735701842e-02 2.495736466804863996e-03 -2.832049967655617673e-01 -1.117702916657081991e+00 -1.369042250429857832e+00 -1.904766252129972859e+00 -2.614439298558374869e+00 -3.045992034947758498e+00 -3.045992034947758498e+00 -3.423840064094795910e+00 -3.739671499531443288e+00 -3.989602059344456997e+00 -4.091147924468435448e+00 -4.356160238206257418e+00 -4.346989648396216488e+00 -4.328061331945034951e+00 -4.279411397505980652e+00 -4.153206862245041542e+00 -3.731578480498799255e+00 -3.298444666321127983e+00 -3.298444666321127983e+00 -2.941080114077784025e+00 -2.707222095851939958e+00 -2.542452967986634782e+00 -2.590854537609327046e+00 -3.006536633556080140e+00 -3.594133526701003500e+00 -4.382192916126781412e+00 -4.565466432398268992e+00 -5.015444493394539904e+00 -5.671356180919941536e+00 -6.104257396622886134e+00 -6.104257396622886134e+00 -6.585493048027023733e+00 -7.062831870953642621e+00 -7.405513886376178689e+00 -7.477024701229071368e+00 -7.787002212139414681e+00 -8.024657369042470734e+00 -8.266290793514221136e+00 -8.301612541269278722e+00 -8.485744483777617475e+00 -8.634735141684696913e+00 -8.639282144131673391e+00 -8.759759173111785202e+00 -8.840292700498956435e+00 -8.944342198396176613e+00 -8.944342198396176613e+00 -9.024344592751567973e+00 -9.104238773647075789e+00 -9.240838355926692671e+00 -9.185711261051688226e+00 -9.256719633542562775e+00 -9.350103901096627368e+00 -9.417198594261259714e+00 -9.384987593792560645e+00 -9.484027380681393282e+00 -9.543991553939280337e+00 -9.633203517184361075e+00 -9.633203517184361075e+00 -9.752024904222121648e+00 -9.771082634489335561e+00 -9.828230240212814550e+00 -9.812720143757005076e+00 -9.939830164058651718e+00 -1.001843827668429299e+01 -1.000773879550712131e+01 -9.973951267590278391e+00 -1.001667716826484167e+01
4.950997847312311961e+00 4.831931644923573188e+00 4.831931644923573188e+00 4.703703219392012969e+00 4.588431167878287198e+00 4.220346543790068239e+00 4.220346543790068239e+00 4.139139596729247472e+00 4.084682945693939971e+00 3.510731177481194898e+00 3.372139799982003083e+00 3.058889713734803451e+00 2.793606995618855393e+00 2.590962999060673955e+00 2.605479320308209168e+00 2.399508424069924484e+00 2.336368304852215250e+00 2.304208290817014060e+00 2.304208290817014060e+00 2.280992189109645629e+00 2.278159141752301053e+00 2.233021730455534204e+00 2.273270643469080809e+00 2.258513491765199444e+00 2.157909359511418934e+00 2.108192967525097217e+00 2.155123521822328136e+00 2.101671883030040711e+00 2.095113444901141264e+00 2.101355300654653480e+00 2.081297351095791726e+00 1.969470379349510081e+00 1.961687234912030897e+00 1.961687234912030897e+00 1.772645037867908391e+00 1.605554770181162105e+00 1.457293105628362673e+00 1.496319616441414091e+00 1.438277883656207345e+00 1.307245681192907627e+00 1.090256167871651360e+00 1.032011529651275961e+00 8.409131051667848578e-01 5.081847985761309694e-01 6.897359895444336864e-02 6.897359895444336864e-02 -1.943475838959003166e-01 -5.743215762968072180e-02 2.495736466804863996e-03 -1.177134847739660511e-01 -8.144539575033206136e-01 -1.369042250429857832e+00 -2.139907340947122982e+00 -2.387256848906464501e+00 -2.748501688033202051e+00 -3.165769002310817815e+00 -3.553527999603052212e+00 -3.553527999603052212e+00 -3.903427103807512122e+00 -4.191787162248187038e+00 -4.356160238206257418e+00 -4.334732190749464031e+00 -4.339377746083608045e+00 -4.279411397505980652e+00 -4.214797143002009250e+00 -3.913301591854092543e+00 -3.610300761307362549e+00 -3.215819443922745435e+00 -3.156962432610511904e+00 -2.899675088910366405e+00 -2.638963191781293016e+00 -2.707182772281382377e+00 -2.707182772281382377e+00 -3.268705149292320478e+00 -4.051455990280077302e+00 -4.565466432398268992e+00 -4.711877776127525230e+00 -5.312639009797512024e+00 -5.678300020664947212e+00 -6.240335725321283888e+00 -6.390879028602652667e+00 -6.709972522737464473e+00 -7.165839183105951804e+00 -7.517721473054898240e+00 -7.517721473054898240e+00 -7.859068465469662534e+00 -8.098832577745710637e+00 -8.301612541269278722e+00 -8.334580331577789991e+00 -8.509052755553682346e+00 -8.639282144131673391e+00 -8.723465341549044183e+00 -8.674751790198017787e+00 -8.809546994297098976e+00 -8.907843891292706928e+00 -8.992559267304075732e+00 -8.992559267304075732e+00 -9.087347482818861621e+00 -9.148571256681627517e+00 -9.148571256681627517e+00 -9.223643104602722076e+00 -9.278848684147311232e+00 -9.384987593792560645e+00 -9.365934468704860905e+00 -9.437412933583924968e+00 -9.549419711961206758e+00 -9.652878638810193479e+00 -9.673579877399131277e+00 -9.730592722815343265e+00 -9.749821592719058572e+00 -9.820463816886517705e+00 -9.820463816886517705e+00 -9.939576413086442130e+00 -9.906285188346924286e+00 -9.973951267590278391e+00 -9.926590082548997884e+00
4.962037213534026492e+00 4.871063635922530999e+00 4.818506142287905192e+00 4.757311842544196701e+00 4.683025587730782924e+00 4.489159849264453328e+00 4.164273104893005062e+00 4.173527811992644665e+00 4.124855712342934133e+00 3.809851012232259748e+00 3.368882007380252563e+00 3.368882007380252563e+00 3.077027536413512010e+00 2.853294918581049444e+00 2.605479320308209168e+00 2.641006291745578771e+00 2.537793280293358933e+00 2.419477953517763957e+00 2.363651704699138545e+00 2.400505017219572768e+00 2.326663600197341530e+00 2.323548974341090201e+00 2.307560444253807130e+00 2.307560444253807130e+00 2.289673009859273467e+00 2.265203104656646538e+00 2.155123521822328136e+00 2.220202066167085597e+00 2.139409434073417771e+00 2.101355300654653480e+00 2.074032574609570023e+00 2.076060272631225168e+00 1.977474321083365627e+00 1.932239333782127755e+00 1.742105904449148257e+00 1.742105904449148257e+00 1.572059430024073778e+00 1.531659992720541208e+00 1.531659992720541208e+00 1.453797509605417204e+00 1.239271017189847113e+00 1.032011529651275961e+00 9.841530318800641997e-01 6.007530011665381808e-01 3.173142813034283694e-01 -7.034522942570273218e-02 -4.682693957059118339e-02 -9.773843536699897139e-02 4.481452044258346645e-02 -2.775461171425540607e-01 -2.775461171425540607e-01 -1.066455765120892352e+00 -1.857512504666220643e+00 -2.387256848906464501e+00 -2.567751130920725267e+00 -3.022757250617281954e+00 -3.303736731373152935e+00 -3.641872021102072754e+00 -3.789201390382749057e+00 -3.989627144899697164e+00 -4.277055032536740242e+00 -4.345458719835521677e+00 -4.345458719835521677e+00 -4.298322093235733554e+00 -4.134464923179104190e+00 -3.913301591854092543e+00 -3.812133566543153940e+00 -3.428730423689656082e+00 -3.156962432610511904e+00 -2.868232410221172923e+00 -2.786315986388863131e+00 -2.613968918778203587e+00 -2.797715108134404272e+00 -3.532900108574627218e+00 -3.532900108574627218e+00 -4.281118426764795259e+00 -4.863907050431675927e+00 -4.863907050431675927e+00 -5.498855003488084314e+00 -6.071785534467840861e+00 -6.390879028602652667e+00 -6.490505523637640550e+00 -6.926164479835724030e+00 -7.257423921110131459e+00 -7.589698422303001735e+00 -7.685778957389453936e+00 -7.914292682953778524e+00 -8.126222808850338097e+00 -8.331332758331244648e+00 -8.331332758331244648e+00 -8.487569045253696487e+00 -8.539956586098938374e+00 -8.674751790198017787e+00 -8.654872010235017399e+00 -8.758689470210427430e+00 -8.872358714665672608e+00 -8.965634065740571756e+00 -8.929076286777744897e+00 -9.062862422666478679e+00 -9.118450214715926094e+00 -9.189707907379116136e+00 -9.189707907379116136e+00 -9.269264261932065097e+00 -9.360885234023092139e+00 -9.437412933583924968e+00 -9.450938068195895880e+00 -9.570893999208699654e+00 -9.673579877399131277e+00 -9.687950937834477472e+00 -9.674435680342183375e+00 -9.719074481800074494e+00 -9.817050894256905025e+00 -9.844540932261935495e+00 -9.805488151412337317e+00 -9.864471632278187130e+00 -9.865908714679445524e+00
4.898682330207968505e+00 4.898682330207968505e+00 4.847841540743868194e+00 4.760256044846927992e+00 4.683025587730782924e+00 4.641096881031269383e+00 4.256798469667158358e+00 4.173527811992644665e+00 4.263983201012052859e+00 4.245858980277814609e+00 3.675946458783188042e+00 3.369073358057861789e+00 3.141947058569958706e+00 3.141947058569958706e+00 2.867067448278081798e+00 2.718884451336913255e+00 2.718884451336913255e+00 2.617432737977063439e+00 2.511256841797298911e+00 2.400505017219572768e+00 2.431049420727445121e+00 2.413891635071752084e+00 2.380033560907097279e+00 2.375365836309941248e+00 2.430045054829186757e+00 2.358202142371166765e+00 2.315850337904977074e+00 2.207134125328236163e+00 2.207134125328236163e+00 2.153029432479814709e+00 2.156299252509276343e+00 2.076060272631225168e+00 2.067832565872036898e+00 1.990866503990503800e+00 1.868735722082877748e+00 1.738649369632794484e+00 1.708599060199733177e+00 1.608612937085347250e+00 1.502774008785668247e+00 1.440118362518725270e+00 1.440118362518725270e+00 1.202038608498086969e+00 8.799804759338417659e-01 6.007530011665381808e-01 4.443920722858351047e-01 2.085654604660506714e-03 -4.682693957059118339e-02 -7.665447453711726755e-02 -1.107462887716694627e-02 -3.553921877601913526e-02 -5.203738639449428938e-01 -7.723696663315061661e-01 -1.311419955384839353e+00 -2.109211624687760356e+00 -2.741760122224333962e+00 -2.741760122224333962e+00 -3.178148969718996852e+00 -3.549233576695443038e+00 -3.789201390382749057e+00 -3.878638793890814007e+00 -4.173208009311552225e+00 -4.290335224936458580e+00 -4.339829660769634501e+00 -4.320719856468721254e+00 -4.259696833517619297e+00 -4.067843234202399572e+00 -3.738831613005860977e+00 -3.738831613005860977e+00 -3.376033349482802315e+00 -3.045824568411095612e+00 -2.786315986388863131e+00 -2.716326655788795286e+00 -2.657746153431388869e+00 -2.996581877912993797e+00 -3.736480473538162705e+00 -3.958503941525836289e+00 -4.427529770494051498e+00 -5.056371217319671096e+00 -5.681003388894070305e+00 -5.801834504025610073e+00 -6.171412029502828744e+00 -6.596072859378265818e+00 -7.037211336096497405e+00 -7.037211336096497405e+00 -7.389528841866153996e+00 -7.760591019725445960e+00 -7.937857935078681315e+00 -7.944004580277109540e+00 -8.075977908327164556e+00 -8.367472045169570549e+00 -8.270366177900777771e+00 -8.385281602036858573e+00 -8.520076806135936209e+00 -8.634992230272017011e+00 -8.609535049128147932e+00 -8.718751024452942033e+00 -8.821264976815729852e+00 -8.940013584281270909e+00 -8.940013584281270909e+00 -8.989084531124273525e+00 -9.051487982878047234e+00 -9.159112503285605555e+00 -9.151638813708421694e+00 -9.253469538632655755e+00 -9.330834313228567822e+00 -9.449224229679746401e+00 -9.487154560939980996e+00 -9.595134850576142682e+00 -9.604080991424567060e+00 -9.641712465310844138e+00 -9.641712465310844138e+00 -9.696163076989737561e+00 -9.792013830825558429e+00 -9.805488151412337317e+00 -9.758050495366784816e+00 -9.769014468000074558e+00
4.987043455533068936e+00 4.899055744585755434e+00 4.875058686883650516e+00 4.809059181213068968e+00 4.798017931929033253e+00 4.473881161594956524e+00 4.473881161594956524e+00 4.216632877391120360e+00 4.351675645335912890e+00 4.245858980277814609e+00 4.031750046044717983e+00 3.679885946712161182e+00 3.384496390721785986e+00 3.120511825292203945e+00 3.137665222736696347e+00 2.882504159421233059e+00 2.741925525574098188e+00 2.641776257550319418e+00 2.641776257550319418e+00 2.530719873890959981e+00 2.461905553409275527e+00 2.413891635071752084e+00 2.478892855238774118e+00 2.492218180854683496e+00 2.430045054829186757e+00 2.509138148915285971e+00 2.476997704517081011e+00 2.334803548021571196e+00 2.189536332398173801e+00 2.205591783564656350e+00 2.177875331836318207e+00 2.175623622830423987e+00 2.053149933681347683e+00 2.053149933681347683e+00 1.948541113427308069e+00 1.869626441896989011e+00 1.708599060199733177e+00 1.720906257729280409e+00 1.529227310324879241e+00 1.526291688921729506e+00 1.397902096253787363e+00 1.389310937955500425e+00 1.142388910184938933e+00 7.289108401167526674e-01 2.930593812457631953e-01 2.930593812457631953e-01 -7.522914676435041303e-02 -1.023646492984361944e-01 6.962011609685919700e-02 6.962011609685919700e-02 -2.351403906637617169e-01 -1.029025119103936792e+00 -1.575117668385317860e+00 -1.834898204759701779e+00 -2.580787063880690901e+00 -2.877930556337876311e+00 -3.331233226643467216e+00 -3.445781544329182822e+00 -3.674975676957985993e+00 -3.948072334253616145e+00 -4.225990520410017659e+00 -4.225990520410017659e+00 -4.326008316700879597e+00 -4.304155682838191943e+00 -4.304155682838191943e+00 -4.207183102210913184e+00 -3.938317650564753691e+00 -3.640737328989582799e+00 -3.599100309401833897e+00 -3.213714040172815256e+00 -2.954410220194245262e+00 -2.637390245006104195e+00 -2.761661498150404626e+00 -2.769772599643343103e+00 -3.421760039875585413e+00 -4.129813950992172522e+00 -4.129813950992172522e+00 -4.799996942235279285e+00 -5.389441278098231258e+00 -5.801834504025610073e+00 -5.900328207237032885e+00 -6.375717660575609180e+00 -6.690688832116529206e+00 -7.097988479950904761e+00 -7.181301751218456708e+00 -7.510852754704961498e+00 -7.776883292411651105e+00 -7.891034049994686939e+00 -7.891034049994686939e+00 -8.014909442587619282e+00 -8.250486397937777383e+00 -8.385281602036858573e+00 -8.365401822073856408e+00 -8.480317246209935433e+00 -8.609535049128147932e+00 -8.702190277191753864e+00 -8.663264033663653052e+00 -8.774908021024273808e+00 -8.878149776922528602e+00 -8.842163854092486730e+00 -8.958687493859169848e+00 -9.035350532064452267e+00 -9.129748644751792597e+00 -9.129748644751792597e+00 -9.224255692873210677e+00 -9.354553029934022490e+00 -9.487154560939980996e+00 -9.514273373351260332e+00 -9.521851714236854392e+00 -9.587747979870124837e+00 -9.614947526420877466e+00 -9.615670310947963983e+00 -9.721761662460188802e+00 -9.709618290331794910e+00 -9.731551786175099750e+00 -9.731551786175099750e+00
5.006741182105505672e+00 4.908432785855001868e+00 4.875058686883650516e+00 4.834525100895403327e+00 4.913010276127284470e+00 4.745061733320484088e+00 4.425854675382550951e+00 4.296310583090191315e+00 4.285339361169393513e+00 4.338620013447878065e+00 3.987281811632053419e+00 3.987281811632053419e+00 3.704182589235462508e+00 3.396988000291854437e+00 3.137665222736696347e+00 3.112828531368937668e+00 2.940251059108273779e+00 2.810565941405378965e+00 2.654471462334699439e+00 2.670248846800555853e+00 2.570521500034516293e+00 2.504234295802413968e+00 2.521383115740364556e+00 2.593160871760701092e+00 2.570417099799099603e+00 2.577755331454850030e+00 2.449405029876056794e+00 2.449405029876056794e+00 2.251926061194841289e+00 2.235065580654981510e+00 2.236389417222333975e+00 2.265317059491837259e+00 2.117456148195578258e+00 2.037613380598870094e+00 1.972272671918547271e+00 1.988895413228084497e+00 1.845138690375392354e+00 1.642292646232091258e+00 1.614313737483985767e+00 1.588669117646388740e+00 1.581272451489872388e+00 1.344125039181231607e+00 1.344125039181231607e+00 1.008947508056427411e+00 3.488355407548642262e-01 7.612885630334625953e-02 -7.783734917208423587e-02 -8.819104408816324028e-03 -5.638459183213466452e-02 2.995283351341943359e-02 -8.460264964037692015e-02 -4.476257626463190920e-01 -1.265470195048406854e+00 -2.103368629671569234e+00 -2.103368629671569234e+00 -2.696524934967849063e+00 -3.164437871636350152e+00 -3.445781544329182822e+00 -3.534217662057115295e+00 -3.819404064504525298e+00 -4.031213589413269460e+00 -4.246789710923868810e+00 -4.249261719889425137e+00 -4.334789424862114160e+00 -4.289544286167821241e+00 -4.180410229595219462e+00 -4.180410229595219462e+00 -3.846898098671077459e+00 -3.505885538763244380e+00 -3.213714040172815256e+00 -3.132219669126662609e+00 -2.767862854062892897e+00 -2.761661498150404626e+00 -2.950589476678487255e+00 -3.131406353713631852e+00 -3.578883305032239281e+00 -4.296208143367141297e+00 -4.484372079830052371e+00 -4.940343594353691081e+00 -5.528583782782073186e+00 -6.024570412554226095e+00 -6.024570412554226095e+00 -6.487283423458256593e+00 -6.889779708023064941e+00 -7.181301751218456708e+00 -7.263655045274147071e+00 -7.540773219851583775e+00 -7.727125781472572896e+00 -7.862763215621482615e+00 -7.849966349705458590e+00 -8.028906987377393278e+00 -8.230606617974778771e+00 -8.345522042110856020e+00 -8.345522042110856020e+00 -8.457369726973507085e+00 -8.559812714162502445e+00 -8.663264033663653052e+00 -8.629296758264661804e+00 -8.740939847000010587e+00 -8.842163854092486730e+00 -8.925027186384138389e+00 -8.913407816258573035e+00 -9.033586236946991477e+00 -9.129619371388947968e+00 -9.253974780665270572e+00 -9.253974780665270572e+00 -9.408311033264823209e+00 -9.474020463568228578e+00 -9.521851714236854392e+00 -9.484193485665322498e+00 -9.527648833977961473e+00 -9.615670310947963983e+00 -9.598960677444242862e+00 -9.638118899639151138e+00 -9.669386913859748134e+00 -9.674376968067210925e+00
4.940337957035335847e+00 4.921164914930559853e+00 4.904154013600103390e+00 4.895978487014710723e+00 4.807042158444406965e+00 4.807042158444406965e+00 4.595020123775833021e+00 4.470031303638188014e+00 4.451658182828055921e+00 4.575425893924323972e+00 4.200619931471806012e+00 3.941506536684523887e+00 3.682534841509208068e+00 3.611558663677313596e+00 3.339376899221019990e+00 3.128321593454593152e+00 3.092414655261281009e+00 2.981614437120462036e+00 2.834634358501164186e+00 2.700297444917030276e+00 2.700297444917030276e+00 2.625066588399104894e+00 2.609814542778836621e+00 2.593160871760701092e+00 2.646120048704421190e+00 2.659410118634680131e+00 2.607825471521698191e+00 2.395554700592745334e+00 2.403072303272163701e+00 2.284127490653446557e+00 2.314280390622643679e+00 2.252231020423109520e+00 2.252231020423109520e+00 2.104190924959591591e+00 2.044795000505550853e+00 1.988895413228084497e+00 1.937786777709434416e+00 1.783402124521348941e+00 1.614313737483985767e+00 1.590271391419573188e+00 1.591873665192758303e+00 1.523106734422808195e+00 1.292112706682196022e+00 7.842559152260734079e-01 7.842559152260734079e-01 1.594133421111023907e-01 -3.683395592014962472e-02 -8.819104408816324028e-03 -3.288349958378031929e-02 2.986292327720860285e-02 -8.460264964037692015e-02 -1.779156942172776257e-01 -9.506565346381605774e-01 -1.516827617097621150e+00 -2.314962789185553316e+00 -2.466353000748945590e+00 -2.835480934521726226e+00 -3.260628153072925528e+00 -3.620926734860257845e+00 -3.620926734860257845e+00 -3.892942569340593906e+00 -4.140368624267938280e+00 -4.249261719889425137e+00 -4.300271706773413527e+00 -4.330504038496393981e+00 -4.277803779435543241e+00 -4.089747563323502533e+00 -4.040029357644395525e+00 -3.788556559469197449e+00 -3.432683192625075819e+00 -3.052765519052556886e+00 -3.052765519052556886e+00 -2.821749819726332653e+00 -2.997214250993404772e+00 -3.131406353713631852e+00 -3.360889550619871713e+00 -4.002236792864306558e+00 -4.484372079830052371e+00 -5.108379415833645076e+00 -5.255711915154956060e+00 -5.652825988099267285e+00 -6.169669299242395155e+00 -6.635425489446097558e+00 -6.635425489446097558e+00 -6.960060340187208539e+00 -7.301646168613205035e+00 -7.301646168613205035e+00 -7.508278753083398094e+00 -7.688656929165456511e+00 -7.849966349705458590e+00 -7.861621483501452623e+00 -8.025985998236590646e+00 -8.210726838011776607e+00 -8.325642262147855632e+00 -8.303672499453494282e+00 -8.423126895810046477e+00 -8.515156116814477372e+00 -8.635115208026709510e+00 -8.635115208026709510e+00 -8.707679133464257148e+00 -8.817420885077101644e+00 -8.913407816258573035e+00 -8.876579503216223799e+00 -9.005769204145240181e+00 -9.117677072517855308e+00 -9.273963696187029981e+00 -9.331974692210287969e+00 -9.411052049771262418e+00 -9.443443066743098413e+00 -9.461772384847202844e+00 -9.461772384847202844e+00 -9.511961895926816624e+00 -9.600604935096090031e+00 -9.638118899639151138e+00 -9.572469952251770664e+00 -9.579030717644389625e+00
4.997044600748103527e+00 4.921164914930559853e+00 4.933044364375061441e+00 4.948440068820564974e+00 4.961621468569505922e+00 4.738085919689801528e+00 4.731992170477080428e+00 4.569148701523517708e+00 4.682481410020740142e+00 4.552515232965807179e+00 4.552515232965807179e+00 4.148158360138954670e+00 3.877466972792652733e+00 3.611558663677313596e+00 3.483981311633923994e+00 3.252367794174947591e+00 3.092414655261281009e+00 2.985591331675193416e+00 3.033790910586611211e+00 2.857590522695845348e+00 2.753959256539419975e+00 2.670940697498813243e+00 2.670940697498813243e+00 2.667157734558560200e+00 2.708165050818237773e+00 2.708165050818237773e+00 2.696837690027419576e+00 2.543413279539117333e+00 2.403072303272163701e+00 2.415529862960764440e+00 2.405200754508387995e+00 2.327220700617298466e+00 2.249516639582026301e+00 2.225175380926059265e+00 2.093992691771378922e+00 2.069089789116547173e+00 1.906280905094921652e+00 1.906280905094921652e+00 1.759536456720063091e+00 1.664664181152447631e+00 1.591873665192758303e+00 1.616028011648879215e+00 1.433003253876359739e+00 1.189395957331484732e+00 5.391302710002413567e-01 2.618622993301088497e-01 -9.412779980091252538e-03 -1.532107112355333110e-02 -2.173281419106522921e-02 -2.173281419106522921e-02 3.194809180591966918e-02 -4.007651178582126716e-01 -9.506565346381605774e-01 -1.229715765792907867e+00 -2.011408242741406838e+00 -2.466353000748945590e+00 -2.954903377957109889e+00 -3.083792292292382164e+00 -3.376686186674341172e+00 -3.689474201461455216e+00 -3.970088233875606942e+00 -3.970088233875606942e+00 -4.162316195345114878e+00 -4.346702372048216745e+00 -4.346702372048216745e+00 -4.341857638382562001e+00 -4.232574931741734936e+00 -4.040029357644395525e+00 -3.990216191655806988e+00 -3.652629783553050569e+00 -3.352703770969508668e+00 -2.951677316271578810e+00 -2.881838141302260681e+00 -2.939526196147832948e+00 -2.966557154066725488e+00 -3.592896680571101342e+00 -3.592896680571101342e+00 -4.169822341248523578e+00 -4.838181141274617403e+00 -5.255711915154956060e+00 -5.423376137049976897e+00 -5.963620937909181130e+00 -6.293518441096443539e+00 -6.679819047212681937e+00 -6.707871517163425779e+00 -7.000831055887346110e+00 -7.296374492260795819e+00 -7.522621379453386936e+00 -7.522621379453386936e+00 -7.688831586222290682e+00 -7.875980531885716118e+00 -8.032845000593823670e+00 -8.032845000593823670e+00 -8.170967278085775831e+00 -8.280469785168087071e+00 -8.414935440179895920e+00 -8.371693980218662290e+00 -8.488830573338308483e+00 -8.612639568413008817e+00 -8.569351722395524007e+00 -8.667433992909431950e+00 -8.766501185284244713e+00 -8.874793122457802497e+00 -8.881919036901532394e+00 -9.012896003561092328e+00 -9.196450186870375632e+00 -9.319385769507297468e+00 -9.319385769507297468e+00 -9.372621278704061254e+00 -9.371621695922780049e+00 -9.442620713366284946e+00 -9.430031782887612124e+00 -9.503693160861725886e+00 -9.525395920363980196e+00 -9.508591975349339975e+00 -9.484634041749165689e+00
5.042639009000309258e+00 4.997892152970266899e+00 4.963788371826357348e+00 4.963788371826357348e+00 4.998294845263091979e+00 4.826943818088148319e+00 4.731992170477080428e+00 4.842284006736908175e+00 4.972056852562138474e+00 4.760157744114363432e+00 4.414807774014747110e+00 4.354070530336239031e+00 4.096565189582105582e+00 3.826129327062772312e+00 3.396341321673102875e+00 3.396341321673102875e+00 3.236636065125716222e+00 3.157324832032593065e+00 3.033790910586611211e+00 3.051003347572137869e+00 2.944377381147086581e+00 2.780200662664149114e+00 2.697122522431170122e+00 2.745768028871264921e+00 2.724937566244792109e+00 2.734913890803191805e+00 2.646556955045816117e+00 2.646556955045816117e+00 2.522449530155674857e+00 2.422601569995902704e+00 2.405200754508387995e+00 2.389124341742759672e+00 2.377291555018255842e+00 2.225175380926059265e+00 2.111418566026542543e+00 2.127105964096772439e+00 2.026726940528291721e+00 1.917483348017434475e+00 1.912423887676653722e+00 1.783156055608106749e+00 1.620985677301039374e+00 1.617156883854042659e+00 1.617156883854042659e+00 1.382297333212263002e+00 6.941770134464440023e-01 2.618622993301088497e-01 9.515920614821876677e-02 7.314135466426199828e-02 4.549724967564930389e-02 -7.025632711112020368e-02 -6.438115717331389931e-02 -9.221665725559580196e-02 -6.635446833334471828e-01 -1.473113904459288026e+00 -1.473113904459288026e+00 -2.223969103849686491e+00 -2.752203428579685696e+00 -3.083792292292382164e+00 -3.219154711291566606e+00 -3.559544338418384690e+00 -3.844462902148306327e+00 -4.038704104647016457e+00 -4.066871105943016929e+00 -4.341884367101547682e+00 -4.369357386767716456e+00 -4.366620957305217487e+00 -4.353935155129012635e+00 -4.225826384914094902e+00 -3.920839621296727806e+00 -3.571576625708876129e+00 -3.571576625708876129e+00 -3.143815288264837804e+00 -2.787220493779766439e+00 -2.787220493779766439e+00 -2.751294323929781349e+00 -3.275926454024196577e+00 -3.744298238440576299e+00 -3.908886884990672161e+00 -4.549927370193346476e+00 -5.021669206689034937e+00 -5.531696097650089072e+00 -5.747001109690482501e+00 -6.099753458734632261e+00 -6.457108618954785939e+00 -6.738007066500543374e+00 -6.738007066500543374e+00 -7.037319391758432019e+00 -7.285123496123015130e+00 -7.498204423525416829e+00 -7.515866922204263112e+00 -7.709142774535211906e+00 -7.865749441577904122e+00 -8.041364086401513234e+00 -8.036122441479019329e+00 -8.149975271933479704e+00 -8.268581351469524776e+00 -8.357785318624397775e+00 -8.357785318624397775e+00 -8.483991691343110375e+00 -8.542275657669058830e+00 -8.667433992909431950e+00 -8.626971737753340363e+00 -8.769774406516972931e+00 -8.881919036901532394e+00 -9.057011493134645264e+00 -9.114262968264187137e+00 -9.255638351155752730e+00 -9.304127149736970637e+00 -9.295002593727165419e+00 -9.295002593727165419e+00 -9.357592592754606642e+00 -9.396446277583024198e+00 -9.396446277583024198e+00 -9.434007769827704948e+00 -9.427207512446194926e+00 -9.484634041749165689e+00
5.077293856683411377e+00 5.071535371261099989e+00 4.956011731335403070e+00 5.003221649946617333e+00 4.924056091510444766e+00 4.924056091510444766e+00 4.871729942508231659e+00 5.012423450496608979e+00 4.972056852562138474e+00 4.898864261928759234e+00 4.601163706566014255e+00 4.354070530336239031e+00 4.295223287795549183e+00 4.050149049085879582e+00 3.634702520383226165e+00 3.382425989182851200e+00 3.495896620248637898e+00 3.280435506736904205e+00 3.228819168877950840e+00 3.083151142594468652e+00 3.083151142594468652e+00 2.936086846426986696e+00 2.794064210166073980e+00 2.745768028871264921e+00 2.797894972911501021e+00 2.808410892345471588e+00 2.785188291889084233e+00 2.680988816800101926e+00 2.630042555912196711e+00 2.523050210531235571e+00 2.476328834121462652e+00 2.431800445027250124e+00 2.483411582556427355e+00 2.343526106790863928e+00 2.183873563322817901e+00 2.128136944859111424e+00 2.128136944859111424e+00 2.046945744616065710e+00 1.881569069625433244e+00 1.730167001825015927e+00 1.712728188238756832e+00 1.718891058698307717e+00 1.619058058896020835e+00 1.181631269665367023e+00 9.121152038381064031e-01 4.666980729149917684e-01 8.656853647717800693e-02 8.869423779047599932e-02 8.869423779047599932e-02 3.540033829226818876e-03 3.376149478869612530e-03 3.376149478869612530e-03 -3.254323353953139653e-01 -1.134609149509135273e+00 -1.696007905948699879e+00 -1.914369242980585861e+00 -2.543289579693207347e+00 -2.906956431511837913e+00 -3.335293993685832348e+00 -3.412329533840544826e+00 -3.645234990304422773e+00 -3.897335818688758113e+00 -4.170314684622220547e+00 -4.170314684622220547e+00 -4.389797390538647370e+00 -4.430662540192648713e+00 -4.353935155129012635e+00 -4.357452634464428876e+00 -4.086507477083266338e+00 -3.868535606281662709e+00 -3.422151679537167812e+00 -3.323392783055887811e+00 -2.983379293817995048e+00 -2.553936608914920470e+00 -2.901196260795453341e+00 -2.901196260795453341e+00 -3.452383432736226165e+00 -4.110165434337670121e+00 -4.549927370193346476e+00 -4.726612312528981619e+00 -5.330121646174454497e+00 -5.747001109690482501e+00 -6.188735783018753267e+00 -6.122652502165239596e+00 -6.448175944633252499e+00 -6.769741669302701048e+00 -6.814944859995721416e+00 -7.036300917855353276e+00 -7.304724919286759821e+00 -7.545982795027152967e+00 -7.545982795027152967e+00 -7.751992125135107159e+00 -7.886991745932989240e+00 -8.036122441479019329e+00 -7.994247118798583962e+00 -8.114142195187383777e+00 -8.227124348452461433e+00 -8.337824611339829772e+00 -8.317650962224812261e+00 -8.432057545848094193e+00 -8.529983272305440067e+00 -8.647832929660559387e+00 -8.647832929660559387e+00 -8.767707609111095479e+00 -8.947658175670360592e+00 -9.114262968264187137e+00 -9.147978809441056569e+00 -9.202499753754844747e+00 -9.282925200377803776e+00 -9.281244975930668772e+00 -9.266684005201307528e+00 -9.334139509350512398e+00 -9.380863942241786546e+00 -9.397758775829354150e+00 -9.397758775829354150e+00 -9.409262145569494251e+00
5.022425166584652878e+00 5.004287045349260055e+00 5.004287045349260055e+00 5.014050488445169762e+00 4.961541369509032684e+00 4.860332495287265964e+00 4.897466376537408905e+00 4.991602879638179502e+00 5.056230705231257616e+00 4.781392161278986030e+00 4.717908239945022508e+00 4.539002103560982881e+00 4.253167149564697880e+00 3.975374795753217949e+00 3.975374795753217949e+00 3.738439483145983733e+00 3.630453566176878866e+00 3.379407574108448387e+00 3.426371958469648149e+00 3.289611075717493449e+00 3.130739432821765256e+00 2.945474041397848630e+00 2.967632684422086164e+00 2.864965529978620751e+00 2.853683545155687895e+00 2.875046499871378725e+00 2.834709824303053072e+00 2.745956374192482397e+00 2.681829361126650380e+00 2.681829361126650380e+00 2.562443500621471415e+00 2.530169621630742327e+00 2.483411582556427355e+00 2.463412304233681738e+00 2.325599144435476440e+00 2.208695126848122747e+00 2.099760739834227952e+00 2.139966906114763479e+00 2.015548635771674757e+00 1.812008587482382582e+00 1.746943717453795175e+00 1.746943717453795175e+00 1.745100217413969812e+00 1.359543172677027512e+00 9.121152038381064031e-01 7.022076290038464785e-01 3.472613147553756385e-01 1.873228425404661612e-01 9.344795103967479255e-02 4.562203753969887310e-02 -6.503101228103436160e-02 -1.342804280819161374e-02 -5.752594758740137149e-01 -5.752594758740137149e-01 -1.302667049886841122e+00 -2.102757456544787296e+00 -2.543289579693207347e+00 -2.672579898159512801e+00 -3.118174692584570362e+00 -3.412329533840544826e+00 -3.498038434527127372e+00 -3.817987147952957905e+00 -3.979984962318760200e+00 -4.284275551664725512e+00 -4.337074804558554320e+00 -4.429080627480638910e+00 -4.416635590152905522e+00 -4.271506758576373741e+00 -4.271506758576373741e+00 -3.990359955995838703e+00 -3.597676676911556903e+00 -3.323392783055887811e+00 -3.175480235038500965e+00 -2.706997749311601975e+00 -2.674578049023520698e+00 -3.071485397166281217e+00 -3.195528133486589706e+00 -3.636371269158495068e+00 -4.253427672298183637e+00 -4.848191982262862965e+00 -4.848191982262862965e+00 -5.427202209324349269e+00 -5.771166846954004725e+00 -6.122652502165239596e+00 -6.155678362796400016e+00 -6.579195481933885148e+00 -6.814944859995721416e+00 -7.080240771244982412e+00 -7.198383433476004178e+00 -7.372796402675998451e+00 -7.615535789635113240e+00 -7.791705310685816954e+00 -7.791705310685816954e+00 -7.876494328404410439e+00 -7.949232708750042953e+00 -8.114142195187383777e+00 -8.060826046169626835e+00 -8.192947997268502647e+00 -8.317650962224812261e+00 -8.318853551721993256e+00 -8.431696081093850381e+00 -8.542484809332313134e+00 -8.662966751523510922e+00 -8.654258306631586350e+00 -8.799920242216856536e+00 -8.981177588937104161e+00 -9.114699631536279156e+00 -9.114699631536279156e+00 -9.162123863238964105e+00 -9.185401665533412086e+00 -9.266684005201307528e+00 -9.244213645706231830e+00 -9.302047964721566586e+00 -9.372078403219546772e+00 -9.398806714586093847e+00 -9.416127301774668723e+00
5.150415951485586064e+00 5.133816395659307474e+00 4.988146558441612477e+00 5.008144047251161801e+00 4.994776788498137776e+00 4.890814956027539573e+00 4.942429214475541954e+00 4.942429214475541954e+00 5.006844819840974736e+00 4.818143963978681832e+00 4.717908239945022508e+00 4.697564992932744765e+00 4.444585051620039806e+00 4.310776470349468426e+00 3.992294036446857319e+00 4.094156807844664847e+00 3.855209242188807561e+00 3.646237444271704931e+00 3.477868896458918169e+00 3.477868896458918169e+00 3.322324043688086093e+00 3.134051427086170349e+00 2.967632684422086164e+00 3.021321798728720864e+00 2.935289832731247550e+00 2.875046499871378725e+00 2.788681762406791886e+00 2.788191096961847748e+00 2.694875327764935324e+00 2.642327668935359419e+00 2.622056815732725976e+00 2.622056815732725976e+00 2.567898198882260452e+00 2.430139846628553091e+00 2.325599144435476440e+00 2.330495693699470294e+00 2.213876005926662227e+00 2.139966906114763479e+00 2.145711652429776795e+00 1.942502838231047857e+00 1.846158653829747198e+00 1.801441142727488565e+00 1.791576850611688254e+00 1.756599612672158806e+00 1.175249881121366080e+00 5.781359967041943548e-01 5.781359967041943548e-01 3.718864938178168544e-01 1.657640949248132267e-01 4.562203753969887310e-02 -5.391343680181259063e-02 7.888182113096411235e-03 -1.107185552469902995e-01 -7.540870773281785899e-01 -8.646800475546286835e-01 -1.420098118979237878e+00 -2.252855547315350648e+00 -2.797786294846443589e+00 -2.797786294846443589e+00 -3.215063437789047907e+00 -3.601755539975679099e+00 -3.817987147952957905e+00 -3.921962023556138544e+00 -4.181353356320250292e+00 -4.337074804558554320e+00 -4.446471835146450502e+00 -4.450492923415589885e+00 -4.421432573380061903e+00 -4.211001462461498868e+00 -3.908842173531919428e+00 -3.908842173531919428e+00 -3.503547187441673039e+00 -2.937021332070113289e+00 -2.937021332070113289e+00 -2.621024089913129629e+00 -2.836611697238529128e+00 -3.195528133486589706e+00 -3.362176379793642589e+00 -3.933880449033685167e+00 -4.365754223457535055e+00 -4.959760228746613819e+00 -5.007765516141740036e+00 -5.420114296092258144e+00 -5.818749960379932418e+00 -6.275186705563043255e+00 -6.275186705563043255e+00 -6.659225787676396280e+00 -6.956557737854822676e+00 -7.198383433476004178e+00 -7.282720340500726586e+00 -7.551149533446406714e+00 -7.679955711903634352e+00 -7.781269687348093100e+00 -7.721355254712833016e+00 -7.835891517077622659e+00 -7.935660375932961585e+00 -8.061431342096659236e+00 -8.061431342096659236e+00 -8.183713541612787523e+00 -8.326570013069732212e+00 -8.442717221499965063e+00 -8.442717221499965063e+00 -8.542731431644437379e+00 -8.698148647076830997e+00 -8.826602273549561062e+00 -8.854971078859447786e+00 -8.978461263440330242e+00 -9.078268774489876236e+00 -9.040915802427532455e+00 -9.088759974882117731e+00 -9.182266101168988115e+00 -9.246917218082806755e+00 -9.231172458788433843e+00 -9.324908198974817708e+00 -9.378140606785123623e+00 -9.436763304033281230e+00
5.150415951485586064e+00 5.141637272632732625e+00 4.994049929697942147e+00 5.008144047251161801e+00 4.970630099237112631e+00 4.926078823216150759e+00 4.923792350749491398e+00 4.970369246017932063e+00 4.900796598328312825e+00 4.900796598328312825e+00 4.815808474557763397e+00 4.670096172988970729e+00 4.670096172988970729e+00 4.557049767499551152e+00 4.348557628381301221e+00 4.094156807844664847e+00 4.225998245733378234e+00 3.905465786904489534e+00 3.689791575708392113e+00 3.502089559456793566e+00 3.524338353233305021e+00 3.320569731924479573e+00 3.148479531964126998e+00 3.034372870600199334e+00 3.034372870600199334e+00 2.944198565548793667e+00 2.839807067028814469e+00 2.788191096961847748e+00 2.768986814873589442e+00 2.758502161425361532e+00 2.671671218011232085e+00 2.648482617129293004e+00 2.668720094215592198e+00 2.583192291775515681e+00 2.462818093980915002e+00 2.337161707713986569e+00 2.337161707713986569e+00 2.234639095787848806e+00 2.054210445840658483e+00 1.942502838231047857e+00 1.974736897519995038e+00 1.816522145107807074e+00 1.791576850611688254e+00 1.578113028178215860e+00 1.522698800950719633e+00 9.817517202939859411e-01 5.622173915007790956e-01 5.271405062280797305e-01 3.152482090513292201e-01 7.213075712030464492e-02 -1.377333712405693911e-01 -1.377333712405693911e-01 -1.313068751829430010e-02 -3.871921150347127361e-01 -8.646800475546286835e-01 -9.752730177810786660e-01 -1.950607936272310106e+00 -2.418495988334653291e+00 -2.880388681786967275e+00 -3.016772896966493533e+00 -3.344985219014490863e+00 -3.739680286981877710e+00 -4.009322212520180173e+00 -4.009322212520180173e+00 -4.264955021311236827e+00 -4.458627052979553973e+00 -4.450492923415589885e+00 -4.502393410910459970e+00 -4.326118907992572815e+00 -4.065343092623086463e+00 -3.773201674285945550e+00 -3.678914378894210024e+00 -3.147342114091337795e+00 -2.811641991889781700e+00 -2.557402431092975714e+00 -2.610541756281095527e+00 -2.938672834236953690e+00 -3.479037428008094235e+00 -4.050286978363825341e+00 -4.050286978363825341e+00 -4.587263091767176171e+00 -5.089821403626738849e+00 -5.455193599654975856e+00 -5.569887451562812508e+00 -6.057766645913218895e+00 -6.397972376647117265e+00 -6.490775732736856263e+00 -6.845038064000359412e+00 -7.096121962350469659e+00 -7.391092438028951328e+00 -7.458896457435614913e+00 -7.607919298672161545e+00 -7.678142752851762509e+00 -7.677535915356660468e+00 -7.677535915356660468e+00 -7.774374369152841524e+00 -7.913433521394379611e+00 -8.048573531503583567e+00 -8.074103272230257033e+00 -8.226408619129811584e+00 -8.329136056624603768e+00 -8.438379417081510070e+00 -8.447210431173839851e+00 -8.543213304469370328e+00 -8.706128578841330068e+00 -8.873409604325587452e+00 -8.873409604325587452e+00 -8.954037795224909502e+00 -9.017921849736302065e+00 -9.088759974882117731e+00 -9.082926044141379052e+00 -9.177901803012430193e+00 -9.231172458788433843e+00 -9.304367050737813116e+00 -9.313460809015598585e+00 -9.409948990454337192e+00
5.181128972285924839e+00 5.103919358951332086e+00 5.103919358951332086e+00 4.998701531655379782e+00 4.975743993084821071e+00 4.926078823216150759e+00 4.957031376987989901e+00 4.947716856256635154e+00 4.956700453940463547e+00 4.840850761280496073e+00 4.862463164015421668e+00 4.841223399664165150e+00 4.637333826923999425e+00 4.686690668618997968e+00 4.686690668618997968e+00 4.448937560096583255e+00 4.337468731279613188e+00 3.905465786904489534e+00 3.944059381208846915e+00 3.734936916681778296e+00 3.524338353233305021e+00 3.323525853383414663e+00 3.330267578395015526e+00 3.177678067478820090e+00 3.041587246522108323e+00 3.031338377549564367e+00 2.917315022638555355e+00 2.847141505032873887e+00 2.805112876619160645e+00 2.805112876619160645e+00 2.780898935400993199e+00 2.767678559950817796e+00 2.668720094215592198e+00 2.673692662328756242e+00 2.599608103789309510e+00 2.472454908102968751e+00 2.331539688236837993e+00 2.356898306115474462e+00 2.183501484942684812e+00 2.075878942690288831e+00 1.947141149286685913e+00 1.871259601773986869e+00 1.800014404727122264e+00 1.897526475073726626e+00 1.324944411072243033e+00 1.324944411072243033e+00 7.462427075212433314e-01 5.075420989130503546e-01 2.242697764869459043e-01 1.427943454356759845e-01 -8.829379033496938256e-02 -1.363919981318031938e-01 -2.700089152025448788e-02 -1.017615373216367997e-01 -6.399420715758425970e-01 -1.414981109180621255e+00 -2.148137388482087129e+00 -2.148137388482087129e+00 -2.657543493285691838e+00 -3.170621986955970861e+00 -3.170621986955970861e+00 -3.604143506289638754e+00 -3.886100893176359872e+00 -4.086281156972376927e+00 -4.167812906947525597e+00 -4.405420393888553221e+00 -4.463313201038555000e+00 -4.417071321696992570e+00 -4.330227159127895575e+00 -4.228847338264372979e+00 -3.922811855727867503e+00 -3.535779175713558153e+00 -3.535779175713558153e+00 -2.953556935660872185e+00 -2.465049731353536444e+00 -2.610541756281095527e+00 -2.707288474123278110e+00 -3.189046367082248423e+00 -3.622490119399810027e+00 -4.160934556679646512e+00 -4.319414850698049868e+00 -4.722890037210482284e+00 -5.236446866440742198e+00 -5.763708735366262381e+00 -5.763708735366262381e+00 -6.222253283787544831e+00 -6.586499549008021148e+00 -6.845038064000359412e+00 -6.954678501895078746e+00 -7.216984948655716714e+00 -7.458896457435614913e+00 -7.657319756644693776e+00 -7.521262825746946490e+00 -7.572245103487754925e+00 -7.644943825949305882e+00 -7.627862587477765466e+00 -7.778293511285175654e+00 -7.938963262121052189e+00 -8.099633012956928724e+00 -8.099633012956928724e+00 -8.225335022396661699e+00 -8.339507050481442363e+00 -8.447210431173839851e+00 -8.448940531611862426e+00 -8.585654884133100850e+00 -8.728726692951916277e+00 -8.842222895344379552e+00 -8.829806815959940991e+00 -8.926532096205479050e+00 -8.992118284230823377e+00 -9.069661919618187795e+00 -9.069661919618187795e+00 -9.169048867917894086e+00 -9.248517787434563431e+00 -9.313460809015598585e+00 -9.345046356827042544e+00
5.183263755618399138e+00 5.104150109135335178e+00 5.011646197281915072e+00 4.989130976174222631e+00 4.972172922434104692e+00 4.960074381301450508e+00 4.981931912127221196e+00 4.921950563918246146e+00 4.912384153476901716e+00 4.863051509467831934e+00 4.948862823694076596e+00 4.948862823694076596e+00 4.801202431445244834e+00 4.939520053475598971e+00 4.725331137762617040e+00 4.743147267266238032e+00 4.634424914256912054e+00 4.188598962776158174e+00 3.914617713128643928e+00 3.997024624714047292e+00 3.751657995359211295e+00 3.532909684448822141e+00 3.355099153701207371e+00 3.355099153701207371e+00 3.204950934493919767e+00 3.054829367574524390e+00 2.916616279355362273e+00 2.940519022278313521e+00 2.868530295042308609e+00 2.841554722358953899e+00 2.803571394922228066e+00 2.805464499190442940e+00 2.743864443233571482e+00 2.671569257980552337e+00 2.695315128248163994e+00 2.598887347731595021e+00 2.489497673313083581e+00 2.413741226710665710e+00 2.413741226710665710e+00 2.242569203628409280e+00 2.063116034160359824e+00 1.871259601773986869e+00 1.903521215746515338e+00 1.947186535881695324e+00 1.849602917708401240e+00 1.176210402639022323e+00 1.045367172806530576e+00 6.976422522013838723e-01 3.983195619289265355e-01 4.076780382535370034e-02 4.076780382535370034e-02 -8.281567793739551264e-02 6.890016277490651486e-02 -1.017615373216367997e-01 -2.766609783921644139e-01 -1.076434173612202727e+00 -1.616465705628444161e+00 -2.299943041419150624e+00 -2.469173908947667861e+00 -2.822184888422494708e+00 -3.299022040328148719e+00 -3.699381545902475921e+00 -3.699381545902475921e+00 -3.951210793977155245e+00 -4.239041255829208765e+00 -4.405420393888553221e+00 -4.406611143675855047e+00 -4.375569716882084847e+00 -4.330227159127895575e+00 -4.138651377626779038e+00 -4.029310513178089970e+00 -3.810811128614094656e+00 -3.341628269004845109e+00 -3.168325890928521904e+00 -2.681294424520226372e+00 -2.576756953369899072e+00 -2.849344928533592558e+00 -2.849344928533592558e+00 -3.342212183617726762e+00 -3.885892965221824369e+00 -4.319414850698049868e+00 -4.459381297869285277e+00 -4.998881708070914698e+00 -5.364584119714290722e+00 -5.860546660755461268e+00 -6.044342648279652508e+00 -6.348564804357564206e+00 -6.716137706034098542e+00 -6.991099822465827174e+00 -6.991099822465827174e+00 -7.206091069385704095e+00 -7.379666778931905924e+00 -7.521262825746946490e+00 -7.394067566970646155e+00 -7.500272321533685727e+00 -7.627862587477765466e+00 -7.803823252011848233e+00 -7.829352992738520811e+00 -7.964493002847724767e+00 -8.123707268827597971e+00 -8.236657821437967542e+00 -8.236657821437967542e+00 -8.356231850463451849e+00 -8.494605456796781695e+00 -8.585654884133100850e+00 -8.600997754803996642e+00 -8.713308722281306373e+00 -8.829806815959940991e+00 -8.812148389983423868e+00 -8.895476593579527247e+00 -8.983585987113768212e+00 -9.117302152195080112e+00 -9.119679106413107306e+00 -9.187700825577707064e+00 -9.285019173871964071e+00 -9.435255496866982838e+00
5.093074837526067711e+00 5.093074837526067711e+00 5.001147751688709953e+00 4.943880395742568545e+00 4.954996390636065229e+00 4.988082120394003560e+00 4.965824420079682611e+00 4.921950563918246146e+00 4.885780584317418018e+00 4.892193461650948372e+00 4.916828643924118225e+00 4.904672081038086162e+00 4.894836453801473475e+00 4.893736495334749748e+00 4.869132861102422716e+00 4.767043973026041215e+00 4.767043973026041215e+00 4.381393372404543740e+00 4.188510022993366277e+00 3.997024624714047292e+00 4.036317262881208734e+00 3.766318090721756384e+00 3.547956652929562971e+00 3.396087833461080230e+00 3.404958917586235145e+00 3.237714640851307557e+00 3.074726944264533302e+00 2.931052616018614110e+00 2.931052616018614110e+00 2.900799793093518542e+00 2.847040379816509592e+00 2.805464499190442940e+00 2.800134427526265402e+00 2.750244405560647198e+00 2.695315128248163994e+00 2.598529358491247443e+00 2.660126988354972966e+00 2.523117498372698719e+00 2.369633189725976141e+00 2.262535553362728713e+00 2.262535553362728713e+00 1.996386844342363354e+00 1.986390969778383475e+00 1.947186535881695324e+00 1.903686368529214246e+00 1.574001343828528299e+00 1.045367172806530576e+00 9.044207367398049424e-01 6.119227511316932544e-01 3.130820371875558394e-01 5.223729898959490747e-02 -8.445410506683747459e-03 -4.834616606464651328e-02 -2.623616094546154728e-02 -5.005077634507484330e-01 -5.005077634507484330e-01 -1.270804530546092437e+00 -1.996978429162516999e+00 -2.469173908947667861e+00 -2.618923965886789773e+00 -3.115483013832189396e+00 -3.411412169498730940e+00 -3.699316705133797178e+00 -3.797913144488151982e+00 -4.049935133961222178e+00 -4.320243536816452234e+00 -4.397434106629344086e+00 -4.397434106629344086e+00 -4.304469265049512217e+00 -4.186746769530898860e+00 -4.029310513178089970e+00 -3.927794599823565047e+00 -3.526035469103542042e+00 -3.168325890928521904e+00 -2.602367277093527775e+00 -2.444471631293532177e+00 -2.529735504861036155e+00 -2.965643609254074775e+00 -3.491085300034709515e+00 -3.491085300034709515e+00 -4.027538358514710204e+00 -4.609788371141407382e+00 -4.609788371141407382e+00 -5.157499504929091039e+00 -5.671389998129416021e+00 -6.044342648279652508e+00 -6.197677112470461935e+00 -6.578504949390675094e+00 -6.745748268506989831e+00 -6.991720453801976376e+00 -6.953285681335792390e+00 -7.151050207514003887e+00 -7.284382757510980078e+00 -7.362967934961062610e+00 -7.362967934961062610e+00 -7.539524879531368740e+00 -7.704104651644074764e+00 -7.829352992738520811e+00 -7.857601334504222379e+00 -8.015552484301071701e+00 -8.126729261975153662e+00 -8.240254324405997366e+00 -8.257863834315807949e+00 -8.358313598021657853e+00 -8.465181189424871633e+00 -8.603001203125330676e+00 -8.603001203125330676e+00 -8.705575836694974257e+00 -8.834885270020464532e+00 -8.895476593579527247e+00 -8.884245930086157372e+00 -9.032043888254360553e+00 -9.123585352813680771e+00 -9.174245794688742350e+00 -9.249927830294605968e+00 -9.384881211042795712e+00
5.166318278357047156e+00 5.056300996396164038e+00 4.987084810054197348e+00 4.981319882443520086e+00 4.946727739061565821e+00 4.963693222950671391e+00 4.963693222950671391e+00 4.897045095854283048e+00 4.888728551192800253e+00 4.892193461650948372e+00 4.976836847144569198e+00 4.930772367804113543e+00 4.894836453801473475e+00 4.945170680945928154e+00 4.932497449460298888e+00 4.853963779252715938e+00 4.605072608253978572e+00 4.342368308837198931e+00 4.342368308837198931e+00 4.276360670975741129e+00 4.049863038209315924e+00 4.049863038209315924e+00 3.772663033098644370e+00 3.595800883531203418e+00 3.404958917586235145e+00 3.440721348070766794e+00 3.232837609173705218e+00 3.060534055798561859e+00 2.934030298506522083e+00 2.963826614413871852e+00 2.899087205777653331e+00 2.848114356603996811e+00 2.814027351719910808e+00 2.814027351719910808e+00 2.791200428716635429e+00 2.759210813010384289e+00 2.660126988354972966e+00 2.680081593998844269e+00 2.518911167068343726e+00 2.411115620614151744e+00 2.186999663453658371e+00 2.122909415839700831e+00 2.014205505723043022e+00 1.980187251487523614e+00 1.859907407621887554e+00 1.859907407621887554e+00 1.442652563206535898e+00 7.849823604469954308e-01 6.119227511316932544e-01 5.340760321213167128e-01 1.659439187877079780e-01 -8.445410506683747459e-03 6.419385260006425786e-02 8.409557516044829928e-02 -9.369779003661264649e-02 -7.151546918762807792e-01 -1.465009186765190208e+00 -1.465009186765190208e+00 -2.217546633062324801e+00 -2.806956394307666525e+00 -2.806956394307666525e+00 -3.217311229443939435e+00 -3.535053577066300523e+00 -3.797913144488151982e+00 -3.932057360974918758e+00 -4.244132007654418004e+00 -4.349763613229606918e+00 -4.334068112067176237e+00 -4.278711370971128858e+00 -4.252523807878326068e+00 -4.122875908110497534e+00 -3.813435559785689488e+00 -3.813435559785689488e+00 -3.373275595530702109e+00 -2.739684822833519551e+00 -2.444471631293532177e+00 -2.347687606240772773e+00 -2.747585252707279047e+00 -3.094686666776643058e+00 -3.625582562307756440e+00 -3.808254758159969278e+00 -4.341170160845337023e+00 -4.769914019373697300e+00 -5.364525294283387424e+00 -5.481614309737446789e+00 -5.833141136230866941e+00 -6.351591101862600119e+00 -6.629755125936560134e+00 -6.629755125936560134e+00 -6.765451567042871872e+00 -6.870845559281971049e+00 -7.095645885970073508e+00 -7.039224969651598052e+00 -7.228192668046545144e+00 -7.404356073185087261e+00 -7.451252644394053881e+00 -7.647715605250160031e+00 -7.735480727308821969e+00 -7.896926150059918825e+00 -7.944712064745313107e+00 -8.025512879726106164e+00 -8.152837979497808973e+00 -8.270508548627109491e+00 -8.270508548627109491e+00 -8.374972783636820850e+00 -8.503773338917165248e+00 -8.584745659034394905e+00 -8.607601572914456156e+00 -8.767143535911671393e+00 -8.800004943832199444e+00 -8.897253847382271985e+00 -8.970940191806526798e+00 -9.043932057183770468e+00 -9.116742173324650977e+00 -9.240196233266164683e+00 -9.240196233266164683e+00
5.138719332822303087e+00 5.019238240120653671e+00 4.987084810054197348e+00 4.949928455977091524e+00 4.891724256060038911e+00 5.007882444927533427e+00 4.949932946035920267e+00 4.773923113299359144e+00 4.862506452381877509e+00 4.920493284598600248e+00 4.973860237662398376e+00 4.973860237662398376e+00 4.956450111169272255e+00 4.934110963140850181e+00 4.932497449460298888e+00 4.943511460082864239e+00 4.586321055990838502e+00 4.502432216570078971e+00 4.457435364795086841e+00 4.497180801618551271e+00 4.321263266952373172e+00 4.007088748079010720e+00 3.772080567954047670e+00 3.772080567954047670e+00 3.604665023467416241e+00 3.398579444842896979e+00 3.232837609173705218e+00 3.184296287994398789e+00 3.001747036472209196e+00 2.963826614413871852e+00 2.900995704009474263e+00 2.890650004722406852e+00 2.844989668263481430e+00 2.821329272069302618e+00 2.867361396656136208e+00 2.819485431708280920e+00 2.825541802806410985e+00 2.678536039970380589e+00 2.678536039970380589e+00 2.577678610575577789e+00 2.310883292746957363e+00 2.122909415839700831e+00 2.142287831241525886e+00 1.942654484988786789e+00 1.862101558464982931e+00 1.792533923762587689e+00 1.789634817667145938e+00 1.237614044258506851e+00 7.092069791169818282e-01 4.254973294237915371e-01 3.466207405701990929e-01 8.442289688971292561e-02 -7.931023133729686592e-02 5.714305258418817673e-02 5.714305258418817673e-02 -3.373057951424484058e-01 -1.127252374085120135e+00 -1.694013816905883374e+00 -1.912034523497801786e+00 -2.559931504498204724e+00 -2.928853934429452632e+00 -3.291153956517315127e+00 -3.416409077348942613e+00 -3.655460193964614302e+00 -4.016490239799326289e+00 -4.279101014404531611e+00 -4.279101014404531611e+00 -4.284823592508013590e+00 -4.248608874277413072e+00 -4.248608874277413072e+00 -4.188949669490797056e+00 -3.941382431027922628e+00 -3.710442669202238086e+00 -3.557356908677974161e+00 -2.932873459768016833e+00 -2.309838690584073095e+00 -2.423828735824097080e+00 -2.512256311544823095e+00 -2.861901444919335624e+00 -3.372045097314593676e+00 -3.938416511398501907e+00 -3.938416511398501907e+00 -4.525831823447902913e+00 -5.073912165324808043e+00 -5.481614309737446789e+00 -5.522475516887089597e+00 -6.021706087595094736e+00 -6.395977536789903439e+00 -6.604287759586719986e+00 -6.566163700675165416e+00 -6.731824236882332002e+00 -6.880711294731590932e+00 -7.074861548954311630e+00 -7.074861548954311630e+00 -7.288183693674663566e+00 -7.502596077629545057e+00 -7.647715605250160031e+00 -7.647504498624090097e+00 -7.827688401133357843e+00 -7.944712064745313107e+00 -8.076036276306645334e+00 -8.130136056823872082e+00 -8.216404673514549728e+00 -8.330822599448325150e+00 -8.438508037297021147e+00 -8.438508037297021147e+00 -8.553495668875100932e+00 -8.673538566379825454e+00 -8.673538566379825454e+00 -8.792072919551410237e+00 -8.905442303766312406e+00 -8.970940191806526798e+00 -9.039441538218966343e+00 -9.136599700726240059e+00 -9.215287823700673897e+00 -9.333383806643190894e+00
5.038866008483584125e+00 5.038866008483584125e+00 4.953106764579030319e+00 4.831933014892980438e+00 4.891724256060038911e+00 4.837434692684929871e+00 4.708781742692579542e+00 4.773923113299359144e+00 4.579462370448968755e+00 4.571222655395216883e+00 4.787184752179074465e+00 4.761309016912236736e+00 4.694546624361784382e+00 4.836536174585795322e+00 4.868782863862572974e+00 4.866892900421942336e+00 4.866892900421942336e+00 4.615984990317331338e+00 4.585245960579943159e+00 4.453528605142061281e+00 4.453528605142061281e+00 4.228119822348228141e+00 3.979177425609139007e+00 3.804283716615957545e+00 3.813930181880598624e+00 3.640366924821278438e+00 3.423307794079987865e+00 3.160876939491591653e+00 3.112530271077337929e+00 3.038226629248992783e+00 2.949817377801521090e+00 2.881226579000153443e+00 2.881226579000153443e+00 2.858625895526874405e+00 2.864186656889089022e+00 2.883212011645963635e+00 2.907025901563002890e+00 2.818796828012146261e+00 2.665174174133363216e+00 2.552357801265036308e+00 2.504549675782144380e+00 2.292943596582723842e+00 2.157661835219331081e+00 1.959564621370840865e+00 1.959564621370840865e+00 1.973396855590498156e+00 1.647669160230918139e+00 1.647669160230918139e+00 9.170091629545989997e-01 6.724177529695791744e-01 3.466207405701990929e-01 2.158189497885865116e-01 -7.688825406335139667e-02 5.432869441613287498e-02 -6.083368285654269791e-03 -6.889885643215735989e-02 -5.494467308635420100e-01 -1.325319080591927268e+00 -2.082390034397027634e+00 -2.082390034397027634e+00 -2.710636031215328146e+00 -3.171165013408685063e+00 -3.416409077348942613e+00 -3.548900982389251890e+00 -3.835638721907870696e+00 -4.076967502318668224e+00 -4.175337787297508818e+00 -4.118319004925563576e+00 -4.206520536897208729e+00 -4.227135355141867556e+00 -4.108552910017085225e+00 -4.108552910017085225e+00 -3.836119436522803738e+00 -3.390039291782073860e+00 -2.932873459768016833e+00 -2.628378246884225611e+00 -2.195145909898944758e+00 -2.512256311544823095e+00 -2.987180724146663913e+00 -3.146058146150740864e+00 -3.543954656719122021e+00 -4.070286726368919084e+00 -4.197235647522234991e+00 -4.620566022662607075e+00 -5.144451116259911139e+00 -5.643667159316635207e+00 -5.643667159316635207e+00 -6.126250566024896038e+00 -6.345091899038205696e+00 -6.566163700675165416e+00 -6.562561441303597753e+00 -6.754378765806640317e+00 -6.912840669895990331e+00 -7.131504442167936553e+00 -7.178690271096227704e+00 -7.351842343953696179e+00 -7.513669919298395783e+00 -7.718915802303211393e+00 -7.718915802303211393e+00 -7.890008165082178060e+00 -8.037135038626498584e+00 -8.130136056823872082e+00 -8.200232244195788667e+00 -8.294039438569214440e+00 -8.386333608948724816e+00 -8.507964124861732813e+00 -8.559808056405254106e+00 -8.614538401729495476e+00 -8.771575121373743400e+00 -8.840852779767621072e+00 -8.840852779767621072e+00 -8.980464579564616301e+00 -9.103657172655687191e+00 -9.136599700726240059e+00 -9.214319551615442805e+00 -9.329108889900105339e+00
4.974432536353202039e+00 4.984166377531268566e+00 4.901651662013215116e+00 4.737218127588349148e+00 4.754451859333682862e+00 4.683802523852612865e+00 4.433088153190603897e+00 4.499021455857494800e+00 4.416979213679399940e+00 4.403519144322039836e+00 4.403519144322039836e+00 4.440214170963329821e+00 4.646822443746128073e+00 4.794084807328855113e+00 4.751661280202494453e+00 4.861693050525139448e+00 4.666147900362828338e+00 4.637492789233643720e+00 4.660584025595640334e+00 4.557975466995067393e+00 4.428276742155941470e+00 4.439552433179058788e+00 4.186357229229957788e+00 4.015210421195688717e+00 3.825558507650517193e+00 3.825558507650517193e+00 3.646720493561713017e+00 3.330519034243780485e+00 3.112530271077337929e+00 3.126464152610318958e+00 2.996759382136435335e+00 2.932543964683959281e+00 2.875042841711420216e+00 2.884681235177053438e+00 2.883471454442556592e+00 2.923347332051604575e+00 2.912464099341124601e+00 2.912464099341124601e+00 2.808101881543169753e+00 2.685448673309900780e+00 2.504549675782144380e+00 2.503293335553050447e+00 2.292811418038081861e+00 2.099231891929018712e+00 1.960983080177182591e+00 1.937465992849863650e+00 1.962755660630769672e+00 1.487472158541777612e+00 8.512039311737625846e-01 8.512039311737625846e-01 5.496787707424825031e-01 1.142875832173352313e-01 -7.688825406335139667e-02 -1.557756058654536334e-02 8.699621190457776376e-02 -6.889885643215735989e-02 -1.779940965833159972e-01 -9.553231952976410923e-01 -1.514476342732266723e+00 -2.264031366455542038e+00 -2.478627905481424420e+00 -2.906541179026042698e+00 -3.310731172631068642e+00 -3.670629949474730758e+00 -3.670629949474730758e+00 -3.847246092641356086e+00 -3.924065903116032317e+00 -4.118319004925563576e+00 -4.088899461323465268e+00 -4.171092257176788110e+00 -4.204264613146182938e+00 -4.039499863603323249e+00 -3.950654305170725689e+00 -3.724860146095473112e+00 -3.216821910408265595e+00 -2.360628845659668240e+00 -2.360628845659668240e+00 -2.254736645563749864e+00 -2.768578184838875078e+00 -3.146058146150740864e+00 -3.279727100915503790e+00 -3.794325470125354371e+00 -4.197235647522234991e+00 -4.683564063896609397e+00 -4.852604770716848037e+00 -5.241914159442480958e+00 -5.788644727191480044e+00 -6.097398294361060955e+00 -6.097398294361060955e+00 -6.333498015076289178e+00 -6.578911804665025898e+00 -6.754378765806640317e+00 -6.793320949476330917e+00 -7.029784176636562520e+00 -7.178690271096227704e+00 -7.246000760647009820e+00 -7.450473743385652270e+00 -7.584308322711344807e+00 -7.761606499014829907e+00 -7.838829266262949957e+00 -7.961364668652574750e+00 -8.110523483439244785e+00 -8.214975592208435984e+00 -8.214975592208435984e+00 -8.378856612607888721e+00 -8.506093995920355866e+00 -8.559808056405254106e+00 -8.623240324523045786e+00 -8.776006706835817184e+00 -8.810243050681677346e+00 -8.935864987331152420e+00 -8.994127754665836250e+00 -9.048777677517549023e+00 -9.161981114089643441e+00 -9.285404061808630871e+00 -9.285404061808630871e+00
4.972873775553846798e+00 4.950958723413073415e+00 4.776435401273007031e+00 4.776435401273007031e+00 4.628515699519843984e+00 4.475543814219711258e+00 4.433088153190603897e+00 4.223571438566096070e+00 4.104720547503911021e+00 4.199142000032985322e+00 4.259207235005462167e+00 4.119793622854645676e+00 4.400406405165153245e+00 4.654058651516860934e+00 4.820324043098667133e+00 4.820324043098667133e+00 4.745974744734819062e+00 4.782294745205363462e+00 4.660584025595640334e+00 4.618770132371584403e+00 4.554617284992362514e+00 4.439552433179058788e+00 4.171048429810565672e+00 4.204693300585870652e+00 4.022859834183591055e+00 3.847317435669276975e+00 3.572925638573424489e+00 3.572925638573424489e+00 3.249255556207366613e+00 3.093416972159584777e+00 2.996759382136435335e+00 2.959090926590043580e+00 2.884774615662106356e+00 2.884681235177053438e+00 2.898824265997581584e+00 2.963482652457245514e+00 2.984680946366615295e+00 2.941688168662760283e+00 2.948926210461746411e+00 2.856465186460149575e+00 2.697449907623166609e+00 2.529960736701621471e+00 2.529960736701621471e+00 2.253142660278236065e+00 1.993990163553491568e+00 1.937465992849863650e+00 1.962562946012177401e+00 1.899798066267950558e+00 1.306118316432992366e+00 7.277701535091126717e-01 7.044459723745881696e-01 4.316099766896454581e-01 5.649131988839549423e-02 -8.463161727733522176e-04 -8.463161727733522176e-04 8.791922263900531220e-02 -3.815457186662191136e-01 -9.553231952976410923e-01 -1.141746399899888464e+00 -1.905685353243273816e+00 -2.478627905481424420e+00 -3.047848800983222972e+00 -3.137387500949404551e+00 -3.442300036884862635e+00 -3.653134839140941281e+00 -3.754176621161310123e+00 -3.754176621161310123e+00 -3.926575183329690244e+00 -4.101137385150870784e+00 -4.101137385150870784e+00 -4.197250424432976246e+00 -4.115565842455858103e+00 -3.950654305170725689e+00 -3.861772168077554745e+00 -3.413740028605837029e+00 -3.008829419098747682e+00 -2.133493514639261068e+00 -2.206134861015204063e+00 -2.427058778590992283e+00 -2.858477702152125488e+00 -3.386676177126493492e+00 -3.386676177126493492e+00 -3.942279453912299392e+00 -4.443976501791216727e+00 -4.852604770716848037e+00 -4.980141268541306232e+00 -5.489141097075618703e+00 -5.806502914698950413e+00 -6.055096149661464366e+00 -6.077811001314026740e+00 -6.331710234211982424e+00 -6.616199061911996360e+00 -6.844021303788793809e+00 -6.915846297062575587e+00 -7.073906213498850626e+00 -7.316639164059957956e+00 -7.521112146798600406e+00 -7.521112146798600406e+00 -7.708379298009383263e+00 -7.907763319993564188e+00 -7.991306447003684532e+00 -8.085239235626128007e+00 -8.198818985815840676e+00 -8.285418434267951326e+00 -8.444218465549155894e+00 -8.510273541693083033e+00 -8.566120443935409057e+00 -8.685400088246778338e+00 -8.780438292297890968e+00 -8.825818432394623159e+00 -8.952669214043801560e+00 -9.058113816816131703e+00 -9.058113816816131703e+00 -9.178628880693924685e+00 -9.296118017701445524e+00 -9.316656976935949075e+00
4.909899040870907783e+00 4.822436321182571817e+00 4.815348755720769702e+00 4.606913700749520224e+00 4.350953558484631500e+00 4.350953558484631500e+00 4.088892841285205471e+00 3.901683548177011129e+00 3.901683548177011129e+00 3.731487684774968727e+00 3.771919134467204948e+00 4.119793622854645676e+00 3.975215128145862309e+00 4.334258242382642123e+00 4.634539696542416820e+00 4.844092090470585532e+00 4.795920202938340537e+00 4.868893887672148146e+00 4.735922090611337509e+00 4.559060686081640945e+00 4.559060686081640945e+00 4.629473999708709542e+00 4.384760570642383115e+00 4.204693300585870652e+00 4.251842474768072755e+00 4.066603157628171594e+00 3.870133193043438613e+00 3.491637636736024675e+00 3.425727495273148460e+00 3.232126414195852782e+00 3.083834610212506711e+00 2.979457601645461473e+00 2.979457601645461473e+00 2.912726111900783899e+00 2.911552925041354989e+00 2.963482652457245514e+00 3.031826744017536157e+00 3.010445235735283553e+00 2.948926210461746411e+00 2.838295692574724693e+00 2.836446443065726353e+00 2.691258787667889951e+00 2.474248807523985683e+00 2.228661384785745714e+00 2.228661384785745714e+00 2.000033636143685456e+00 2.001915694590180372e+00 2.001915694590180372e+00 1.719129583095642122e+00 1.020479785171369169e+00 7.044459723745881696e-01 7.123076290908223474e-01 2.353438648769767272e-01 -1.069921999550627750e-02 1.244896539080743159e-01 1.527712849501542958e-01 -1.324458859068335104e-02 -5.811310835351668480e-01 -1.288604326358577579e+00 -1.288604326358577579e+00 -2.039376710979812213e+00 -2.718210671659357036e+00 -3.180630423966383624e+00 -3.180630423966383624e+00 -3.443473527546415447e+00 -3.665561928506507972e+00 -3.735565422663240653e+00 -3.845590998748983580e+00 -4.053490969624684581e+00 -4.166497768699738202e+00 -4.185243012557497977e+00 -4.153160335674317416e+00 -4.022435391139693728e+00 -3.737049202961887140e+00 -3.247473909250025326e+00 -3.247473909250025326e+00 -2.485991658144278027e+00 -2.246001380021472649e+00 -2.467896823391399153e+00 -2.544018149705436382e+00 -3.097172836382753758e+00 -3.521620761000466171e+00 -3.690287071914583272e+00 -4.211844823208198640e+00 -4.592007943281393167e+00 -5.107081308975513601e+00 -5.172014341017515449e+00 -5.501586887326040731e+00 -5.824045017949309511e+00 -6.121079492012201584e+00 -6.121079492012201584e+00 -6.456516397530641882e+00 -6.708041464694357359e+00 -6.915846297062575587e+00 -6.967408283654964229e+00 -7.215240509515385092e+00 -7.384937928785937800e+00 -7.591553750562997749e+00 -7.676192493943572615e+00 -7.784117244593920404e+00 -7.955851520813142841e+00 -8.167887385558268321e+00 -8.167887385558268321e+00 -8.276797429966688213e+00 -8.447073679675224156e+00 -8.510273541693083033e+00 -8.570067452391404217e+00 -8.691516770469963404e+00 -8.780438292297890968e+00 -8.885547476071609552e+00 -8.969473440756450699e+00 -9.008162691591401483e+00 -9.128793721573476461e+00 -9.233985817187775780e+00 -9.233985817187775780e+00 -9.310594073469092180e+00
