4.579590317200822547e+00 4.188702778076376809e+00 3.703300218264784061e+00 3.551098299070829079e+00 3.319191061432475554e+00 3.015477125614274723e+00 2.875280335208139082e+00 2.875280335208139082e+00 2.449337511621056507e+00 2.161159383752547125e+00 2.161159383752547125e+00 1.693266246884961523e+00 1.324015993925355295e+00 1.221836641870327256e+00 1.165353314204266022e+00 1.221421759920824357e+00 1.129266201071501996e+00 7.422041496535172200e-01 5.559738286325596190e-01 3.569155806045609669e-01 -2.174378045581583652e-01 -1.271057081471373085e+00 -1.271057081471373085e+00 -1.648529715721620992e+00 -1.939365776723686707e+00 -1.979590770611967088e+00 -1.947598730193265126e+00 -1.904033453777658647e+00 -1.919897086919516660e+00 -1.933376736970402021e+00 -1.976228540478766504e+00 -2.013474438223993523e+00 -2.436428881605567032e+00 -3.202471347156448545e+00 -3.202471347156448545e+00 -3.983500649651000369e+00 -4.459524290889667952e+00 -4.564099200237357934e+00 -4.678266245028325443e+00 -4.496302548651469166e+00 -3.385257259763911897e+00 -2.567975947412734161e+00 -2.555244701385229078e+00 5.511030229146243742e-03 5.889596050168132146e-01 1.022238491697977647e+00 1.219318682324834535e+00 1.319390287949419260e+00 1.507508637335037038e+00 1.655112789888829816e+00 1.726927477232321095e+00 2.016151440986466259e+00 2.347678021622377820e+00 2.347678021622377820e+00 2.678760475706660316e+00 3.104944119293056914e+00 3.309601086165063766e+00 3.429965823821602644e+00 3.699771724022606456e+00 3.892928377565187947e+00 4.022505729883214975e+00 4.033684119384651545e+00 4.125881167612798883e+00 4.098381596215711298e+00 3.908192936745640278e+00 3.908192936745640278e+00 3.785109972907486409e+00 3.409647456557929335e+00 3.251240695288063698e+00 3.231832375573532534e+00 3.276638441947289593e+00 3.310127372176641547e+00 3.329740729148409351e+00 3.319255269049865120e+00 3.259159161893637080e+00 3.283003464900287049e+00 3.322857565972014982e+00 3.322857565972014982e+00 3.274413882140016607e+00 3.225398126407247990e+00 3.242626964023151537e+00 3.231709057524922102e+00 3.161960001009489929e+00 3.163412836057842625e+00 3.181674975725110599e+00 2.864791152335388169e+00 2.688362063464326379e+00 1.815210593222692292e+00 1.349750108495018086e+00 1.016984513482990016e+00 4.997703345473346048e-01 1.684069609248664556e-01 1.684069609248664556e-01 2.167483910355535656e-02 -6.442075887208078555e-01 -9.849381089469828598e-01 -1.329621443413981918e+00 -1.827238480669716836e+00 -2.018875047799572719e+00 -2.297746293219909308e+00 -2.272142009819727804e+00 -2.344891319959507392e+00 -2.300092419736848193e+00 -2.459052539131796333e+00 -2.459052539131796333e+00 -2.604931818905022567e+00 -2.579927646683513931e+00 -2.799334240025455500e+00 -2.440146784143840009e+00 -2.359562454209628513e+00 -2.464301439240212499e+00 -2.811307944803498327e+00 -3.254151095056811105e+00 -3.438028361424035673e+00 -3.896169821071571615e+00 -4.569640575974995400e+00
4.546481090878693010e+00 4.072104872982565738e+00 3.745393696844433240e+00 3.551098299070829079e+00 3.331762382275386791e+00 3.018008229164350187e+00 2.989349892766070216e+00 2.699436597869440568e+00 2.484783816300651260e+00 2.202117654860124674e+00 1.989536945885983954e+00 1.458055022577275928e+00 1.333695133375126129e+00 1.217027316556652083e+00 1.162669082063267689e+00 1.208847106732891641e+00 1.208847106732891641e+00 7.629406582251878621e-01 3.463784224384689470e-01 1.091103300964685330e-01 -3.794260812329107724e-01 -1.210304974944800271e+00 -1.461957214623266665e+00 -1.653913938536065498e+00 -1.920626957260648915e+00 -1.944119145745730304e+00 -1.901045923943558202e+00 -1.870233553980797714e+00 -1.926364479442839395e+00 -1.948298975201216088e+00 -1.975728941746123235e+00 -1.975728941746123235e+00 -2.342801422803435951e+00 -3.181664001699918032e+00 -3.592213481872093883e+00 -3.922014314592297435e+00 -4.457210848767676481e+00 -4.574448889843909960e+00 -4.661480307065615669e+00 -4.556157095400827473e+00 -4.090425315842598941e+00 -3.017116645598040492e+00 -1.592758880289987911e+00 -1.592758880289987911e+00 7.207396732368793746e-01 1.099866336461244209e+00 1.219318682324834535e+00 1.319410432469387828e+00 1.483315685293875363e+00 1.655112789888829816e+00 1.874754834593821196e+00 1.981440921065892757e+00 2.185158563441954360e+00 2.469706095755493269e+00 2.875283564178957807e+00 2.875283564178957807e+00 3.283607630646253384e+00 3.527402667521109869e+00 3.527402667521109869e+00 3.842051146491736624e+00 4.007514421133025806e+00 4.033684119384651545e+00 4.084883575421769386e+00 4.074156403494513690e+00 4.014374278748496394e+00 3.829891611867193291e+00 3.792436441460262486e+00 3.537807869592254573e+00 3.282067025790973425e+00 3.255336164507157015e+00 3.255336164507157015e+00 3.281136984882399688e+00 3.310436824550652801e+00 3.319255269049865120e+00 3.289998150984064118e+00 3.262585141603288719e+00 3.278978889259383855e+00 3.293321436519804468e+00 3.262576013215495063e+00 3.239836752720314905e+00 3.248936359930169715e+00 3.184342877775220071e+00 3.184342877775220071e+00 3.147008745400878826e+00 2.949168759880503199e+00 2.864791152335388169e+00 2.439007707069805964e+00 1.633469577662791439e+00 1.349750108495018086e+00 6.978543328141713076e-01 4.853486480474804576e-01 3.285045498145406917e-01 8.440715360516257149e-02 -6.805275535709698342e-02 -3.239816401358200926e-01 -1.046533971207635583e+00 -1.594884906958697002e+00 -1.594884906958697002e+00 -1.962334241483751907e+00 -2.200819798745154543e+00 -2.272142009819727804e+00 -2.141758283726725054e+00 -1.964274114179928254e+00 -2.185916760544354354e+00 -2.303764537623319342e+00 -2.065396501598615320e+00 -2.310873056984094731e+00 -2.262407491375353352e+00 -2.256008790146730725e+00 -2.256008790146730725e+00 -2.474846006518538033e+00 -2.959249006817745276e+00 -3.254151095056811105e+00 -3.547325831116994621e+00 -4.097478102514974019e+00 -4.335312054616684563e+00
4.603443930921182314e+00 4.270972699826252494e+00 3.794628531256084347e+00 3.544385269935055316e+00 3.131391307914824118e+00 3.014412589760009364e+00 2.980921520540098513e+00 2.731139764405509762e+00 2.353267068199807355e+00 2.353267068199807355e+00 2.010250830225508434e+00 1.486289904549584984e+00 1.333695133375126129e+00 1.240397941261569770e+00 1.186419575443983021e+00 1.218496039539477493e+00 9.998176332055992432e-01 7.509239424119402706e-01 5.693933190074697004e-01 7.784659385648588781e-03 -8.161833594705794059e-01 -8.161833594705794059e-01 -1.438071219617371277e+00 -1.738098243329697645e+00 -1.920626957260648915e+00 -1.932960179183215166e+00 -1.858867535952545058e+00 -1.870233553980797714e+00 -1.961445639534833862e+00 -1.901082752221564309e+00 -1.926146624035577792e+00 -2.142704811214859006e+00 -2.349908406184517240e+00 -2.683583151138388967e+00 -3.554081965727822201e+00 -4.257589898267575279e+00 -4.257589898267575279e+00 -4.580580951803042034e+00 -4.617701992651205067e+00 -4.556157095400827473e+00 -4.208266257899178520e+00 -3.399011819024648773e+00 -2.879451506731474097e+00 7.621210898282508583e-02 5.407982150740268112e-01 9.748538141864029338e-01 1.198056530971462141e+00 1.417611120747137798e+00 1.417611120747137798e+00 1.628592698643311909e+00 1.887456133942184033e+00 1.981440921065892757e+00 2.160512744967558074e+00 2.416382419843080775e+00 2.660571078318816340e+00 3.089938060628466321e+00 3.182431132063197055e+00 3.343924802342796099e+00 3.672217510297842935e+00 3.938819840402481898e+00 3.938819840402481898e+00 3.993631866643018835e+00 4.112825006231097369e+00 4.074156403494513690e+00 3.957821222395513594e+00 3.791870721470805172e+00 3.792436441460262486e+00 3.441008622608475953e+00 3.337376302086567215e+00 3.295981177639003334e+00 3.218106947527031192e+00 3.173992214254377942e+00 3.250080006739468619e+00 3.290390965800008782e+00 3.270248538280085882e+00 3.270248538280085882e+00 3.292340869166620720e+00 3.270815565291933957e+00 3.262576013215495063e+00 3.248836253114946615e+00 3.225475549046625812e+00 3.234855822812903625e+00 3.164495612647289846e+00 3.156054732011293495e+00 3.131669308646136241e+00 2.776249564811196446e+00 1.908881031814019469e+00 1.908881031814019469e+00 1.235243874769267780e+00 6.484104109527484283e-01 4.853486480474804576e-01 2.990050177391411212e-01 7.416184524831932745e-02 -6.805275535709698342e-02 -6.598612170268260968e-01 -1.089941564673426955e+00 -1.351334036420548834e+00 -1.760782796706392261e+00 -2.094374352128131722e+00 -2.094374352128131722e+00 -2.103825426461587433e+00 -1.802195416293170149e+00 -1.964274114179928254e+00 -1.835405160900255295e+00 -1.873165910095028419e+00 -2.065396501598615320e+00 -1.842494199224734563e+00 -2.076741296369018386e+00 -2.195390080624726625e+00 -2.349375678424016733e+00 -2.655580210164572463e+00 -2.762274244594517647e+00 -3.347692864268776880e+00 -3.902589843459018049e+00 -4.167635341980198582e+00 -4.471169905943603418e+00
4.626523821539220371e+00 4.092260065426377658e+00 3.794628531256084347e+00 3.531124534535440063e+00 3.142412487587417758e+00 3.014412589760009364e+00 2.898976037140930995e+00 2.722347839539764447e+00 2.497471132894610868e+00 2.198063770836975461e+00 2.027219267134218406e+00 1.795698385620359661e+00 1.391198637482918610e+00 1.183415065433108371e+00 1.183415065433108371e+00 1.185367057055957796e+00 8.866062170682150745e-01 7.509239424119402706e-01 5.299350049766128334e-01 -4.436735468686464623e-02 -3.944524026348944501e-01 -1.201750730112026488e+00 -1.464527641184009354e+00 -1.602008194031289579e+00 -1.867273392315229152e+00 -1.897537980569166782e+00 -1.897537980569166782e+00 -1.822726896581406519e+00 -1.905308124839451001e+00 -1.901082752221564309e+00 -1.888201364392901871e+00 -2.104416416729822714e+00 -2.349908406184517240e+00 -3.134055602724463263e+00 -3.508787739301781450e+00 -3.881495294083245007e+00 -4.495769659667267604e+00 -4.614749175417351523e+00 -4.614749175417351523e+00 -4.506964139802001945e+00 -3.937562547455749407e+00 -3.399011819024648773e+00 -3.147912993218247912e+00 -6.760719566272306302e-01 5.407982150740268112e-01 9.493664548191799168e-01 1.178764578170845567e+00 1.294101925824278299e+00 1.500258263619583143e+00 1.572999178217634242e+00 1.735980325121374346e+00 1.982007118079419650e+00 2.263508008741453637e+00 2.263508008741453637e+00 2.616241313459855000e+00 3.014736426350474119e+00 3.182431132063197055e+00 3.312227190865157489e+00 3.641662453327076499e+00 3.786868035309319147e+00 3.985406951767898942e+00 3.970777086476483309e+00 4.015730788225737591e+00 4.013225126715072477e+00 3.838943453500269332e+00 3.838943453500269332e+00 3.729263136821146407e+00 3.489707618043190962e+00 3.337376302086567215e+00 3.346151963110494343e+00 3.192837399765387829e+00 3.173992214254377942e+00 3.261034180941251748e+00 3.261568315466222501e+00 3.285604117065546781e+00 3.262625364172957454e+00 3.275767645918037374e+00 3.275767645918037374e+00 3.258430680397415902e+00 3.241594857314222811e+00 3.241594857314222811e+00 3.234276503547404591e+00 3.180654068430906811e+00 3.154153790427504767e+00 3.154153790427504767e+00 2.498153165674203535e+00 1.740064262440210285e+00 1.481226418532219924e+00 1.131003972173878491e+00 6.159814148977797998e-01 4.604001075061996406e-01 1.561032033339822545e-01 8.845897559384080511e-02 -1.398499254791629731e-01 -7.217838150369551009e-01 -1.331914458586640038e+00 -1.331914458586640038e+00 -1.726746573056703760e+00 -1.977205650760633926e+00 -2.051433059807489911e+00 -1.830940810052756440e+00 -1.486556546933021528e+00 -1.569031799931419391e+00 -1.680935318591441741e+00 -1.620098824521282399e+00 -1.728246837064950192e+00 -1.959339514374327962e+00 -2.180558530813356821e+00 -2.180558530813356821e+00 -2.547229430816402740e+00 -2.951535550469885472e+00 -3.127225833215691253e+00 -3.481718582779409488e+00 -3.950208030609121401e+00 -4.167635341980198582e+00 -4.756092956421682949e+00
4.679947411100641830e+00 4.422564601863932410e+00 3.807617899852960175e+00 3.350288004669822239e+00 3.350288004669822239e+00 3.015036811398331018e+00 2.873188054100285882e+00 2.722347839539764447e+00 2.515754954948544064e+00 2.189121806170336804e+00 2.027219267134218406e+00 1.556093025921528206e+00 1.382638317797826755e+00 1.243587782306195377e+00 1.199392476165141996e+00 1.038498891377124478e+00 1.038498891377124478e+00 7.203042334409730518e-01 2.672040544940993412e-01 2.672040544940993412e-01 -4.963462537862054491e-01 -1.327401626981969285e+00 -1.464527641184009354e+00 -1.604553837519989479e+00 -1.813585930159121951e+00 -1.921801212620699584e+00 -1.820268845695476534e+00 -1.774279923214322041e+00 -1.823600232599037030e+00 -1.874605924223775366e+00 -1.954680461325867702e+00 -1.954680461325867702e+00 -2.292618370250627979e+00 -2.991495000139144267e+00 -3.508787739301781450e+00 -3.847194562464366641e+00 -4.528048456945196421e+00 -4.571556679268331536e+00 -4.613611102977531075e+00 -4.457771184203176418e+00 -4.321915083601152396e+00 -3.667473305511423032e+00 -2.868668505202434105e+00 -2.868668505202434105e+00 4.789878074566864541e-01 1.071868691419925135e+00 1.178764578170845567e+00 1.282199302649198236e+00 1.477872332344531081e+00 1.572999178217634242e+00 1.812175147797450592e+00 1.890818494328458055e+00 2.202460926857305434e+00 2.370553236293181154e+00 2.762257345059227820e+00 2.955067218233230264e+00 3.136435182294468937e+00 3.449331727443256668e+00 3.608575167830281316e+00 3.731684924126901670e+00 3.961543449907950709e+00 3.951121211098249209e+00 3.951121211098249209e+00 3.959935367668288464e+00 3.806028676838917324e+00 3.753849831074417942e+00 3.668065080646644827e+00 3.512711288268906440e+00 3.395819907831394424e+00 3.272780249703586275e+00 3.203018806596048762e+00 3.216685827165866485e+00 3.231115089009798602e+00 3.266076636434786629e+00 3.266076636434786629e+00 3.310778152678596875e+00 3.254147650539525927e+00 3.241170183891793233e+00 3.241312662627646279e+00 3.230145413663030318e+00 3.238546738234390432e+00 3.205360940430750816e+00 3.210910367875470239e+00 3.176863730165403243e+00 2.815356181565656257e+00 1.914700287477294038e+00 1.914700287477294038e+00 1.369999674550371749e+00 7.713606512990849318e-01 6.159814148977797998e-01 4.361560130136132862e-01 1.546125692527638984e-01 8.845897559384080511e-02 -2.327109793781194716e-02 -6.046324860999244821e-01 -1.000926302902725551e+00 -1.522911822628835843e+00 -1.685773559224094775e+00 -1.842228981461164983e+00 -1.834125094844636816e+00 -1.538398475021550027e+00 -1.538398475021550027e+00 -1.377499461506208389e+00 -1.454966139104598266e+00 -1.620098824521282399e+00 -1.705602729100445636e+00 -2.003777587704834495e+00 -2.087704813057628339e+00 -2.395578724036458773e+00 -2.635861940159191175e+00 -2.856762323220820576e+00 -3.310004534970736323e+00 -3.737881839354820102e+00 -3.737881839354820102e+00 -4.301304423808741006e+00 -4.863565953436592260e+00
4.679947411100641830e+00 4.491737928349242459e+00 3.784815251278037529e+00 3.522975734279543580e+00 3.153433667260010953e+00 3.048828221412698269e+00 2.935931343627131707e+00 2.702612781819700771e+00 2.412742428109278858e+00 2.412742428109278858e+00 2.039009534487882469e+00 1.638504626395585806e+00 1.382638317797826755e+00 1.243319390602876107e+00 1.158292741602305220e+00 1.177368287040364336e+00 9.384849669844287368e-01 7.157982449480511100e-01 4.977942190688968149e-01 -5.856374412842348803e-02 -1.150331686883008242e+00 -1.235854461633443702e+00 -1.507652020425453321e+00 -1.751651572328680739e+00 -1.907725462504705094e+00 -1.907725462504705094e+00 -1.719263422394208929e+00 -1.792194209858211540e+00 -1.849170610144068805e+00 -1.802777408401767145e+00 -1.936508120442482994e+00 -2.095341827231185672e+00 -2.239406268585692139e+00 -2.785649370823749749e+00 -3.352298003552864003e+00 -4.178625971586969357e+00 -4.453359726204586977e+00 -4.554142738700261539e+00 -4.609054147920041977e+00 -4.361439386817552055e+00 -4.361439386817552055e+00 -3.956043731469153002e+00 -3.099628394410093524e+00 -5.041407120693524035e-01 2.849992853925554792e-01 1.019107906962127830e+00 1.164724012656440433e+00 1.395936150338296100e+00 1.449395106451929038e+00 1.533235419679127354e+00 1.791404580895111343e+00 2.037445623745999246e+00 2.037445623745999246e+00 2.333296347581709007e+00 2.743217724018682802e+00 2.955067218233230264e+00 3.094659816119440965e+00 3.442677203250807949e+00 3.608575167830281316e+00 3.831292256261329854e+00 3.984034588913459185e+00 3.956948947070269007e+00 4.057581869103666250e+00 3.876249869208120202e+00 3.876249869208120202e+00 3.708702214357931126e+00 3.590307587899689956e+00 3.590307587899689956e+00 3.425064599567011925e+00 3.234955577741250199e+00 3.203018806596048762e+00 3.211684334748765579e+00 3.207393545345040398e+00 3.229365350797701151e+00 3.284358921691797661e+00 3.231689228077844867e+00 3.259052770098736396e+00 3.236825860149954437e+00 3.232898562901114659e+00 3.232898562901114659e+00 3.231456114374418043e+00 3.219113474101801042e+00 3.210910367875470239e+00 3.174803143158220209e+00 2.519070181651672957e+00 2.238310529185675524e+00 1.680228299565260208e+00 1.315453591901495356e+00 1.063228528144395613e+00 6.028721274696366983e-01 2.961321531657964412e-01 2.961321531657964412e-01 1.311517013055445990e-01 -3.070948901731428982e-01 -6.046324860999244821e-01 -8.508734897906090611e-01 -1.377837632972892523e+00 -1.685773559224094775e+00 -1.827494551387975008e+00 -1.574196190826639530e+00 -1.573184128375224144e+00 -1.349354857115295570e+00 -1.395379938650581186e+00 -1.395379938650581186e+00 -1.554550486452336067e+00 -1.841261879896163300e+00 -1.841261879896163300e+00 -2.121839416080335106e+00 -2.529148574650387893e+00 -2.635861940159191175e+00 -2.964210938672502405e+00 -3.454444787048232435e+00 -3.563501927376081291e+00 -4.056119788370567747e+00 -4.406236129894247178e+00 -4.627976163605124427e+00
4.659102135075713136e+00 4.079873400820360985e+00 3.577902230938918127e+00 3.577902230938918127e+00 3.233962566674616568e+00 2.997954711556144680e+00 2.997954711556144680e+00 2.794363138384284184e+00 2.434141149208259858e+00 2.189768636347397379e+00 2.059664907572854808e+00 1.698063073055182670e+00 1.478594023808835756e+00 1.184173333985545806e+00 1.196360832019532916e+00 1.112394941455233877e+00 8.522338968270615212e-01 4.835153965015224764e-01 4.835153965015224764e-01 -1.259258073092084096e-01 -8.301808517555099298e-01 -1.235854461633443702e+00 -1.409999969905395334e+00 -1.698712066416833810e+00 -1.815872707785389562e+00 -1.736285865634748626e+00 -1.621536069224297272e+00 -1.716640737816111706e+00 -1.785009678220184748e+00 -1.851147738597791470e+00 -1.851147738597791470e+00 -2.071775462899037468e+00 -2.338463210657526492e+00 -2.785649370823749749e+00 -3.207446201238076000e+00 -4.007651042417164966e+00 -4.453359726204586977e+00 -4.563814149614953131e+00 -4.640703721801743953e+00 -4.579969423520592109e+00 -4.332084229950750043e+00 -3.697623011109375302e+00 -3.697623011109375302e+00 -2.345176035943018267e+00 7.968119246609318695e-01 7.968119246609318695e-01 1.120098989980425230e+00 1.325784234294425490e+00 1.449395106451929038e+00 1.516859575313408870e+00 1.718789239762838150e+00 1.844462471947530435e+00 2.128942280342521531e+00 2.308076116969802527e+00 2.525646920494242664e+00 2.925701721104299047e+00 3.253945981826868561e+00 3.253945981826868561e+00 3.572990996477391157e+00 3.854722368355250950e+00 3.984034588913459185e+00 3.970342592351022937e+00 4.018863131094954078e+00 3.945784159000348623e+00 3.795641277934155955e+00 3.661089951428887268e+00 3.625493111745144770e+00 3.459575624893919343e+00 3.357693456771707385e+00 3.357693456771707385e+00 3.193111996050592705e+00 3.204292255790936572e+00 3.207393545345040398e+00 3.185134744818348018e+00 3.242510837932061740e+00 3.231689228077844867e+00 3.229717310195857838e+00 3.212395519806285904e+00 3.219504069760382503e+00 3.245482561286524792e+00 3.259517628563014302e+00 3.250510514105938942e+00 3.210586026309637298e+00 2.877247923026270193e+00 2.877247923026270193e+00 2.083163474548983984e+00 1.520192811976804670e+00 1.315453591901495356e+00 9.676828546939565401e-01 5.947512994327978086e-01 4.458350605984024995e-01 2.091762044523968744e-01 8.313099752223879202e-02 -3.695022897711953275e-02 -5.184909512734855452e-01 -1.089143213348432226e+00 -1.089143213348432226e+00 -1.451251515261078096e+00 -1.628519982510331143e+00 -1.574196190826639530e+00 -1.336118463947383983e+00 -1.311033938608960003e+00 -1.337877403970784140e+00 -1.465165829147731635e+00 -1.630536162699378844e+00 -1.703048112261673630e+00 -2.000029990274462932e+00 -2.352536907150988732e+00 -2.352536907150988732e+00 -2.799758847115407789e+00 -3.266287696935298523e+00 -3.454444787048232435e+00 -3.719049202188846159e+00 -4.158896182582001444e+00 -4.406236129894247178e+00 -4.720277556223975601e+00
4.638256859050784442e+00 4.117782737969223561e+00 3.858444129083736129e+00 3.397712432127688587e+00 3.307326442968045122e+00 3.113709170659440417e+00 2.949631699715437705e+00 2.605212465981343151e+00 2.605212465981343151e+00 2.219954144991305611e+00 1.910796566261165452e+00 1.698063073055182670e+00 1.532843371056740178e+00 1.243962081240036266e+00 1.196360832019532916e+00 9.821261042910465200e-01 8.046118644081481364e-01 6.134076039655074197e-01 2.446891036399683195e-01 -8.901757752723979400e-02 -5.353459334316152951e-01 -1.171440987169865888e+00 -1.559739716118205166e+00 -1.559739716118205166e+00 -1.634516575213336376e+00 -1.579476169438216893e+00 -1.621536069224297272e+00 -1.643245922596714204e+00 -1.750505810356988379e+00 -1.807451872414896688e+00 -1.932589014069185485e+00 -2.041734352930324015e+00 -2.172593827060654625e+00 -2.687788822107831876e+00 -3.567533570790472730e+00 -3.567533570790472730e+00 -4.264189981810385888e+00 -4.540615153875524612e+00 -4.640703721801743953e+00 -4.692763631459474283e+00 -4.599764124951174260e+00 -4.289868484634514090e+00 -3.429259552341165751e+00 -3.233750022176946626e+00 -1.329404777233402335e+00 9.818689185614092318e-01 1.221762737982532654e+00 1.221762737982532654e+00 1.400854014674386416e+00 1.573675348845932298e+00 1.718789239762838150e+00 1.837467481117016632e+00 2.093527975842631506e+00 2.308076116969802527e+00 2.437012868515436637e+00 2.782125872920479637e+00 3.044082016136201219e+00 3.395916693801757091e+00 3.537406825124500553e+00 3.724795511217157351e+00 3.982933135565034810e+00 3.961282537410514060e+00 3.961282537410514060e+00 3.939161249882705107e+00 3.791193324194655823e+00 3.661089951428887268e+00 3.585053203143223843e+00 3.450775058211168034e+00 3.451109598340237561e+00 3.255704460216501950e+00 3.190914313412522407e+00 3.196248078779683421e+00 3.195315278994950603e+00 3.190830059387871565e+00 3.190830059387871565e+00 3.204185752677928267e+00 3.205286969852190193e+00 3.212395519806285904e+00 3.213924190401439951e+00 3.244030934562836421e+00 3.259517628563014302e+00 3.259990250204135798e+00 3.141212220092767904e+00 2.964693019861526668e+00 2.289288449491491573e+00 1.662697024627890041e+00 1.662697024627890041e+00 1.236584056892182648e+00 7.263040473488395765e-01 5.947512994327978086e-01 4.313267716379282080e-01 1.668276820236503644e-01 8.313099752223879202e-02 -8.618688195872409308e-02 -4.633316534806602438e-01 -1.046476762520145654e+00 -1.272522387257783771e+00 -1.473373819532872497e+00 -1.473013035722114950e+00 -1.351340714012253530e+00 -1.287849683457451100e+00 -1.261375102636136836e+00 -1.309807594837749223e+00 -1.540183164673438521e+00 -1.841250978144117756e+00 -1.841250978144117756e+00 -2.221341218441323040e+00 -2.516624122128051866e+00 -2.657187245695630917e+00 -2.993821418744933016e+00 -3.476375313409442391e+00 -3.517426473825892241e+00 -3.983653617329460328e+00 -4.262275802778575873e+00 -4.529068802603608113e+00 -5.043303802653847256e+00
4.480459627892841468e+00 4.480459627892841468e+00 3.910242155870073955e+00 3.455533161983781021e+00 3.307326442968045122e+00 3.178590119906181677e+00 3.006809068800735396e+00 2.886113494948867597e+00 2.456629429921641350e+00 2.250139653635213399e+00 2.078378283350769795e+00 1.752312420303086649e+00 1.356325184323832422e+00 1.356325184323832422e+00 1.251895006865141990e+00 1.024474099294992113e+00 8.046118644081481364e-01 6.822500776154363233e-01 3.280127047278025287e-01 -8.901757752723979400e-02 -9.644096242932456153e-01 -1.120970441114841787e+00 -1.435909192486976016e+00 -1.583601361274312946e+00 -1.483817183577586407e+00 -1.483817183577586407e+00 -1.530734474309510151e+00 -1.658650388397332254e+00 -1.750505810356988379e+00 -1.820787310929036007e+00 -1.922407464783685516e+00 -2.041734352930324015e+00 -2.105900784374766133e+00 -2.574376563118510930e+00 -3.082557291126231114e+00 -3.921871321159188906e+00 -4.186964790703146200e+00 -4.439616405205543792e+00 -4.673686258450925557e+00 -4.788812225166934056e+00 -4.788812225166934056e+00 -4.597860649416951162e+00 -3.878191322227069637e+00 -3.233750022176946626e+00 -2.610038841096673945e+00 8.544780312406063949e-01 1.083532666563516544e+00 1.284657183248035572e+00 1.398952862215582238e+00 1.467498095688283266e+00 1.664656876364756677e+00 1.946011964662813121e+00 1.946011964662813121e+00 2.177601114197075471e+00 2.520169729704757167e+00 2.782125872920479637e+00 2.955123945835728350e+00 3.327601274853850377e+00 3.537406825124500553e+00 3.878152480449172046e+00 3.973897342426391699e+00 3.992683065189391201e+00 3.974791774723742677e+00 3.862232642871823440e+00 3.780091237416788097e+00 3.636769705602705294e+00 3.452239950981470074e+00 3.395056018262794240e+00 3.474334633129830596e+00 3.276453342691754589e+00 3.180811822810601264e+00 3.180811822810601264e+00 3.152013768971746899e+00 3.212961239949478021e+00 3.188266280599063585e+00 3.198594144663853278e+00 3.182971452078726227e+00 3.189609383196756909e+00 3.219223604833179486e+00 3.250943387332125400e+00 3.303125504753818831e+00 3.281723630655004165e+00 2.896995104939811938e+00 2.896995104939811938e+00 2.067251795686048332e+00 1.570592712345976416e+00 1.447909436694398089e+00 1.144711404469486382e+00 6.842283055475111286e-01 5.576886779028071839e-01 2.549956386343018022e-01 1.027690616020917047e-01 4.698361512837051501e-02 -2.547321752378193804e-01 -7.164647580839995644e-01 -7.164647580839995644e-01 -1.277072134942355497e+00 -1.517226361346725838e+00 -1.473013035722114950e+00 -1.222702559989309545e+00 -1.264913229456809507e+00 -1.261375102636136836e+00 -1.370297220170655139e+00 -1.647442950662419747e+00 -1.760140714274198270e+00 -2.117876090524765775e+00 -2.424187628137949524e+00 -2.498427991877393062e+00 -2.903951091257904960e+00 -3.304675596229748713e+00 -3.304675596229748713e+00 -3.670073207402187787e+00 -4.159388716318549228e+00 -4.262275802778575873e+00 -4.628792494449842643e+00 -5.129506983929497110e+00
4.617411583025855748e+00 4.010999352706156706e+00 3.700334319220044854e+00 3.700334319220044854e+00 3.380615143619215779e+00 3.118540800087923781e+00 3.118540800087923781e+00 2.946686142812347864e+00 2.494266695751754526e+00 2.250139653635213399e+00 2.096950399836018164e+00 1.807968906103397888e+00 1.594269930781037514e+00 1.271527149966266812e+00 1.267976680592993954e+00 1.155587798277195821e+00 8.890234140715097544e-01 5.888833790977168192e-01 5.888833790977168192e-01 1.409087984344967737e-01 -3.873215435029580545e-01 -1.120970441114841787e+00 -8.177847285211630179e-01 -1.171967364240710463e+00 -1.411593420446075831e+00 -1.422666473241685159e+00 -1.516876369084124487e+00 -1.590459493509861932e+00 -1.742911189256143301e+00 -1.892255561477405035e+00 -1.892255561477405035e+00 -2.013917431890386300e+00 -2.222915653815885850e+00 -2.971485755118046246e+00 -2.971485755118046246e+00 -3.814330920152352533e+00 -4.385401091219130798e+00 -4.544617444223942648e+00 -4.748792110106819564e+00 -4.838297986452041677e+00 -4.775541370954302423e+00 -4.668151945124397351e+00 -4.155601002812964850e+00 -3.971096222622658711e+00 -1.753456282629621166e+00 1.378779401399001237e-01 9.801083614037311431e-01 1.213516729196191246e+00 1.457745716458662688e+00 1.457745716458662688e+00 1.616699180542296777e+00 1.880393209282532396e+00 2.034515997841676693e+00 2.113635583495813819e+00 2.437815106869789084e+00 2.678809238194745923e+00 3.119358456931410117e+00 3.263221026767902710e+00 3.497792870074520000e+00 3.823040849998186719e+00 3.959537755322339869e+00 3.959537755322339869e+00 3.906582055787619190e+00 3.774341958402548158e+00 3.780091237416788097e+00 3.585694359916449248e+00 3.376057071564069645e+00 3.395056018262794240e+00 3.354740416946381032e+00 3.192796463588387645e+00 3.176902198165827862e+00 3.179804810964411033e+00 3.182270041130373706e+00 3.182270041130373706e+00 3.189162386140792727e+00 3.176481308302002482e+00 3.182971452078726227e+00 3.195542767838111420e+00 3.204620469177355879e+00 3.250943387332125400e+00 3.263116338751938628e+00 3.186819526669602887e+00 3.071055500237634739e+00 2.367599329289829857e+00 1.862525218453472409e+00 1.688164964829756975e+00 1.291524998757145770e+00 8.170192215471159258e-01 8.170192215471159258e-01 5.305023619335527130e-01 2.453360664869929653e-01 1.027690616020917047e-01 -2.507656001718999023e-02 -3.314322327077133257e-01 -4.907867045832510211e-01 -1.064114381037462032e+00 -1.221732923535370663e+00 -1.399612363402162218e+00 -1.271250417732283644e+00 -1.210766162304021787e+00 -1.210766162304021787e+00 -1.324534654340805417e+00 -1.456732722300944083e+00 -1.647442950662419747e+00 -1.776491849842251058e+00 -2.181999269566749611e+00 -2.424187628137949524e+00 -2.661322426801295826e+00 -2.967866786096101883e+00 -3.184446507879088450e+00 -3.571063800922034126e+00 -4.042929100772974849e+00 -4.042929100772974849e+00 -4.458154546019803099e+00 -4.994934760745060487e+00 -4.994934760745060487e+00
4.596566307000927942e+00 4.166316525105277613e+00 3.703479355754472291e+00 3.526407305914463830e+00 3.441275096247163212e+00 3.146398981406482775e+00 3.038918645777800798e+00 2.823555807407789331e+00 2.617245121904112182e+00 2.328966914969400115e+00 1.985013270845082500e+00 1.680539530039976803e+00 1.680539530039976803e+00 1.306124482672477605e+00 1.188961187643307049e+00 1.031634452067035301e+00 8.976171709188897063e-01 6.130945916703716136e-01 4.108584158133741226e-01 2.916702975369351858e-01 2.804222828863999969e-02 -3.453665962123864674e-01 -6.609769054771443830e-01 -7.752529464195336839e-01 -1.087206304582731597e+00 -1.440269490187838342e+00 -1.613969862317321091e+00 -1.613969862317321091e+00 -1.790226836128040455e+00 -1.938012177059522667e+00 -1.951094973968272583e+00 -2.013204771369053070e+00 -2.166873543486768305e+00 -2.468275507989988959e+00 -3.361053477827053992e+00 -3.729447635541458084e+00 -4.117065332336037997e+00 -4.612491516018096149e+00 -4.856984118530840000e+00 -4.856984118530840000e+00 -4.728852768995771783e+00 -4.409397128954472223e+00 -4.155601002812964850e+00 -3.887447887644944977e+00 -2.946793045082142459e+00 1.378779401399001237e-01 1.042204385334077443e+00 1.138923220841299599e+00 1.256836383769939447e+00 1.511914530816798496e+00 1.728325873220825315e+00 1.728325873220825315e+00 1.970083138338782458e+00 2.196820975544832244e+00 2.196820975544832244e+00 2.610530456570690383e+00 3.026600026570150259e+00 3.263221026767902710e+00 3.345217382253661498e+00 3.673902152009731914e+00 3.839195110396956601e+00 3.881776518372634044e+00 3.805485638858348452e+00 3.797931190023005499e+00 3.645707922238027976e+00 3.456208227519227627e+00 3.456208227519227627e+00 3.268740590813166147e+00 3.259836541788754705e+00 3.192796463588387645e+00 3.150607408444951574e+00 3.175099979035124420e+00 3.169366292586538236e+00 3.224034108115643615e+00 3.197173395001906115e+00 3.188489224227962104e+00 3.180399059805887774e+00 3.187874237304543001e+00 3.187874237304543001e+00 3.218036166952014998e+00 3.238503623544602306e+00 3.186819526669602887e+00 2.929440280704110666e+00 2.184702974592753755e+00 1.862525218453472409e+00 1.432832755176904005e+00 1.162718800081684822e+00 9.913298607060975209e-01 6.425528603471299949e-01 3.752265480836517453e-01 3.752265480836517453e-01 8.156260155452695060e-02 -2.090815410301689603e-01 -2.090815410301689603e-01 -5.495946277918963840e-01 -1.065657296047828106e+00 -1.221732923535370663e+00 -1.394818882255827397e+00 -1.151544577431214966e+00 -1.154491138772016035e+00 -1.223512361862898690e+00 -1.340582010608513563e+00 -1.441604303086420069e+00 -1.671218610311345110e+00 -1.980411997132704549e+00 -1.980411997132704549e+00 -2.351569317438741535e+00 -2.751287064313115760e+00 -2.967866786096101883e+00 -3.298524360232050423e+00 -3.758928650190278553e+00 -3.939491511229119780e+00 -4.420383967034403838e+00 -4.702592007696051901e+00 -4.848519084049807581e+00 -5.263357474200509145e+00
4.541684364603664648e+00 4.251075208252857784e+00 3.981950776056939922e+00 3.582393979963038433e+00 3.327431031249174609e+00 3.327431031249174609e+00 3.058691007678445928e+00 2.882773992243863326e+00 2.617245121904112182e+00 2.443696999271383064e+00 2.050912086243030341e+00 1.843783552434992146e+00 1.536145249764650167e+00 1.408805683715480317e+00 1.272599955604329258e+00 1.060152197469270252e+00 7.788843206281719223e-01 7.788843206281719223e-01 4.806500366599565366e-01 2.088540838850732606e-01 2.804222828863999969e-02 -7.376910858003010718e-02 -4.031987875600272497e-01 -7.752529464195336839e-01 -1.164742971446343534e+00 -1.406562813858537098e+00 -1.547639721630334364e+00 -1.725756172658629239e+00 -1.837542482999937388e+00 -1.886515451287412271e+00 -1.992323464442071312e+00 -2.042191688196173693e+00 -2.042191688196173693e+00 -2.370176914134755286e+00 -3.315368850512636634e+00 -3.729447635541458084e+00 -4.088485626140990092e+00 -4.652260488736723154e+00 -4.787993187581268018e+00 -4.801746701200428902e+00 -4.711551670301998840e+00 -4.650850846430623520e+00 -4.121613904592042132e+00 -3.576828215053191151e+00 -3.576828215053191151e+00 -3.319778464617262337e-01 1.021429482265193478e+00 1.138923220841299599e+00 1.235175783566611507e+00 1.446878751315670231e+00 1.581518397273833143e+00 1.786615081768677893e+00 1.809362814295368382e+00 2.002981459512988671e+00 2.354172915246444120e+00 2.767034644046338698e+00 2.767034644046338698e+00 3.119405886344249978e+00 3.432519967835222729e+00 3.673902152009731914e+00 3.702633323254404196e+00 3.774328540316181702e+00 3.805485638858348452e+00 3.640835708923439995e+00 3.501235560126062740e+00 3.488777958595599138e+00 3.306720930861831942e+00 3.171259396977481160e+00 3.255792322247991422e+00 3.107806209689701227e+00 3.148531678521734101e+00 3.148531678521734101e+00 3.182026256511273576e+00 3.231684437952451638e+00 3.197173395001906115e+00 3.199299798090188940e+00 3.233992343689755522e+00 3.186122370740187115e+00 3.208695720729625389e+00 3.212217757262281648e+00 3.230712518993988702e+00 3.181976409865286293e+00 2.519093526307740305e+00 2.519093526307740305e+00 1.738481806417497832e+00 1.310112817645340488e+00 1.162718800081684822e+00 8.588089515577828070e-01 5.712196404943845618e-01 4.793387776916472331e-01 1.964918508075550185e-01 3.416197035363822965e-02 -8.524528390828432778e-02 -4.375435566052408021e-01 -8.627418959897248385e-01 -8.627418959897248385e-01 -1.274489815255850811e+00 -1.217985700410437300e+00 -1.151544577431214966e+00 -1.123185638338301651e+00 -1.211914153089097779e+00 -1.340582010608513563e+00 -1.421529668133982183e+00 -1.730495116701292080e+00 -2.174265371349162201e+00 -2.235669375916503387e+00 -2.487819470070081529e+00 -2.970107416432833158e+00 -2.998014317475728330e+00 -3.476169678273645758e+00 -3.755606758062027595e+00 -4.016107976314880368e+00 -4.491487034295164271e+00 -4.950034482150312165e+00 -4.950034482150312165e+00 -5.377092065453002334e+00
4.572296732959076238e+00 4.251075208252857784e+00 3.758174414900247839e+00 3.587803106433323563e+00 3.466885018125782203e+00 3.156535696346060682e+00 3.110305769333017611e+00 2.980618680911477192e+00 2.804701665476893702e+00 2.286498522777175246e+00 2.286498522777175246e+00 1.919626463937043948e+00 1.562900910278903543e+00 1.408805683715480317e+00 1.245802813115998386e+00 1.141300279877427215e+00 9.603541104008264107e-01 6.573365132139936673e-01 5.472287462385249102e-01 3.751017075417950042e-01 1.572494643636416778e-01 -1.359081794110857111e-01 -1.359081794110857111e-01 -5.242450353595250467e-01 -1.218729297904924902e+00 -1.406562813858537098e+00 -1.546025099035939210e+00 -1.761932418176299642e+00 -1.837542482999937388e+00 -1.988422336789346989e+00 -2.033551954915870041e+00 -2.005835721268598881e+00 -2.121612205737748003e+00 -2.797872618494485764e+00 -2.797872618494485764e+00 -3.662792209146113809e+00 -4.410458455937328104e+00 -4.652260488736723154e+00 -4.810957900294624778e+00 -4.790732705345391196e+00 -4.711551670301998840e+00 -4.633244751407899820e+00 -3.999738661714423493e+00 -3.890993050077236060e+00 -2.579414066049758425e+00 -1.667294055896480498e-01 8.740361478700547915e-01 1.115651661844168530e+00 1.302076252924428523e+00 1.302076252924428523e+00 1.453957109699205885e+00 1.663753227540135216e+00 1.809362814295368382e+00 1.893343863471445232e+00 2.320973636465943013e+00 2.507776832461570571e+00 2.988802216402085765e+00 3.149080732382846470e+00 3.225740261929545660e+00 3.522157399230108954e+00 3.706526708077196197e+00 3.706526708077196197e+00 3.702608675200771859e+00 3.571594877003549051e+00 3.501235560126062740e+00 3.382118309971696046e+00 3.235513395853079288e+00 3.171259396977481160e+00 3.157867065629763825e+00 3.030780751781631643e+00 3.127320571932737270e+00 3.159249969193370866e+00 3.204734344307730076e+00 3.231081099211193575e+00 3.195284611093755611e+00 3.217127291159397551e+00 3.236219133200312736e+00 3.236219133200312736e+00 3.213552920012377800e+00 3.223740305809004170e+00 3.223740305809004170e+00 3.115119332654795237e+00 2.288142568903521745e+00 2.026708012368875433e+00 1.587383084656685872e+00 1.146479543051087013e+00 1.017209462708057677e+00 6.591275938472862528e-01 4.794342865618674288e-01 4.079712036439773759e-01 1.388479917305315836e-01 -1.547179922225622728e-01 -1.547179922225622728e-01 -5.776926987329512597e-01 -9.437659693945958939e-01 -1.124041498691211061e+00 -1.296390250192443361e+00 -1.129225758299934324e+00 -1.092353478839049208e+00 -1.186949537876489158e+00 -1.257494145079018466e+00 -1.302320234137032795e+00 -1.567638582824851801e+00 -1.880280271741944453e+00 -1.880280271741944453e+00 -2.388660797797877322e+00 -2.857993975334375047e+00 -2.970107416432833158e+00 -3.383020717978467928e+00 -3.727618678749412329e+00 -3.755606758062027595e+00 -4.274929769022050685e+00 -4.584546978666895534e+00 -4.749070885608238868e+00 -5.144052571774843763e+00 -5.374400086178725999e+00
4.538094500238255335e+00 4.259220269465373576e+00 3.845277978640821992e+00 3.587803106433323563e+00 3.466483459507509579e+00 3.172228810188338688e+00 3.110305769333017611e+00 2.958949783507399900e+00 2.871360419759303007e+00 2.614912298423301529e+00 2.114321690724652925e+00 1.836007700202414217e+00 1.836007700202414217e+00 1.333352564500090320e+00 1.225373651759620763e+00 1.141300279877427215e+00 1.017693225621240316e+00 7.226200085515532834e-01 5.472287462385249102e-01 4.316411114802028992e-01 2.106455950174122294e-01 7.058108152290988591e-02 -2.485420460008597454e-01 -5.217354036685537544e-01 -9.399431016150611162e-01 -1.372192098389408921e+00 -1.667950672585458260e+00 -1.667950672585458260e+00 -1.873464772164361136e+00 -2.044656699853665494e+00 -2.033551954915870041e+00 -2.019742657796776975e+00 -2.088803250410246726e+00 -2.303769454516057191e+00 -3.225369815461075262e+00 -3.640973986380720895e+00 -4.009176616881219068e+00 -4.619042035600638307e+00 -4.883794390714078837e+00 -4.883794390714078837e+00 -4.762710384725745705e+00 -4.308143098898566059e+00 -3.803460342853800302e+00 -3.803460342853800302e+00 -2.545419228225190622e+00 3.479242231164991761e-02 9.936270805092087821e-01 1.035137285015577113e+00 1.224241836551394291e+00 1.325555428252670698e+00 1.505922463922266363e+00 1.604128899672729869e+00 1.733244427900274776e+00 2.105631532208436685e+00 2.350237757038335040e+00 2.525952641689258371e+00 2.942825504351558319e+00 3.187887632747411715e+00 3.187887632747411715e+00 3.405763194285764239e+00 3.530515066307949645e+00 3.647980177681799940e+00 3.533268811003430709e+00 3.447312295271900418e+00 3.369886592153439775e+00 3.315535204447957351e+00 3.220438385947296922e+00 3.127398362416742739e+00 3.115171980845620858e+00 3.135203948514301064e+00 3.135203948514301064e+00 3.138040462762407667e+00 3.195890049909282382e+00 3.231081099211193575e+00 3.200942225673021557e+00 3.229200129003919173e+00 3.275458447315951815e+00 3.197953927083716952e+00 3.230853565774026936e+00 3.229648863313658413e+00 3.110228205002928625e+00 2.462724650622925449e+00 2.462724650622925449e+00 1.724377089021189580e+00 1.275379529631137432e+00 1.146479543051087013e+00 8.582000499727910903e-01 5.638081584897505216e-01 4.794342865618674288e-01 3.050506733317959740e-01 2.838385863980148055e-02 -6.468873838912132801e-02 -4.073188874813528648e-01 -6.573664413996480604e-01 -7.885976476900506960e-01 -1.110632919067802593e+00 -1.145082528241240905e+00 -1.145082528241240905e+00 -1.085648905360609096e+00 -1.216419147832755510e+00 -1.257494145079018466e+00 -1.355981689806069257e+00 -1.652944767023404760e+00 -1.765679996454708967e+00 -2.194847582587964308e+00 -2.535855327987309060e+00 -2.717295831323267130e+00 -3.178333463029308081e+00 -3.666241010660283628e+00 -3.666241010660283628e+00 -3.950946458819962537e+00 -4.455168295836318570e+00 -4.584546978666895534e+00 -4.864936756023698017e+00 -5.184588378413036658e+00 -5.374400086178725999e+00
4.602909101314487827e+00 4.333702803635518741e+00 4.167626121220592950e+00 3.677800452859319336e+00 3.426366516319200084e+00 3.426366516319200084e+00 3.183054220722777661e+00 2.866446917357619029e+00 2.871360419759303007e+00 2.489873877391946877e+00 2.217563828232678613e+00 1.915656152678697044e+00 1.636925308742213758e+00 1.472115050767354605e+00 1.203009566510261141e+00 1.182835560214717141e+00 9.029702011645034387e-01 7.939781642738786838e-01 6.101875335043959181e-01 3.438994835795500249e-01 1.077575941013382832e-01 1.077575941013382832e-01 -2.486085125773793980e-01 -9.311739487704469020e-01 -1.167765661098836949e+00 -1.352755848079332246e+00 -1.692864042171355221e+00 -1.820471944636148365e+00 -1.961016476517278617e+00 -2.131263795966528374e+00 -2.024929523332148484e+00 -2.016192047097836504e+00 -2.122563436133432457e+00 -2.353168599776328307e+00 -3.196806221626278699e+00 -3.980732933842941801e+00 -3.980732933842941801e+00 -4.597645134122364752e+00 -4.786607151859220366e+00 -4.854421616771663395e+00 -4.782318466004331192e+00 -4.563769499955006914e+00 -4.220295657260325406e+00 -3.443411893455482264e+00 -3.107244163629788947e+00 -1.758426799635093740e+00 4.885682487929631224e-01 1.058012153473672612e+00 1.058012153473672612e+00 1.262682037891305287e+00 1.461213874012846858e+00 1.604128899672729869e+00 1.761499681224288461e+00 2.166073729836080375e+00 2.350237757038335040e+00 2.651704634620764445e+00 2.787785428470649585e+00 2.990461096517009310e+00 3.241573193900764149e+00 3.434862676343184873e+00 3.434862676343184873e+00 3.474567812554724355e+00 3.421702012080442223e+00 3.447312295271900418e+00 3.256533498350678180e+00 3.256856942688453493e+00 3.220438385947296922e+00 3.156082482255442301e+00 3.131260821245550829e+00 3.113195515834219051e+00 3.154190458285876630e+00 3.136823346103738253e+00 3.165584823725478891e+00 3.209755447662374195e+00 3.231354412665686571e+00 3.231354412665686571e+00 3.272889709577496031e+00 3.237505240958419961e+00 3.230853565774026936e+00 3.250797640077326633e+00 2.969039505965807457e+00 2.659920763069726135e+00 1.959575346751967651e+00 1.549293335349862577e+00 1.399917993828912577e+00 9.672525034085615037e-01 6.496580498004327353e-01 6.496580498004327353e-01 3.834148866031311664e-01 1.330819681975440594e-01 2.838385863980148055e-02 -1.851019109992214917e-01 -6.087861561839409408e-01 -6.573664413996480604e-01 -9.133518594079415021e-01 -9.630438289552998299e-01 -1.160324888615161143e+00 -1.034156031451762825e+00 -1.159592221965279446e+00 -1.159592221965279446e+00 -1.288993420535826884e+00 -1.533991474104211328e+00 -1.533991474104211328e+00 -1.881335879841776526e+00 -2.322570930535176270e+00 -2.535855327987309060e+00 -2.730006438518646661e+00 -3.262700776188218299e+00 -3.473548486661585777e+00 -3.867244384916966649e+00 -4.155688129902511463e+00 -4.257495454353463771e+00 -4.809290224559450877e+00 -5.033374455085741772e+00 -5.033374455085741772e+00 -5.411319611975190291e+00
4.603755823709737349e+00 4.286108106136858886e+00 3.970836172456278845e+00 3.761169624178946957e+00 3.490635715323890942e+00 3.359377277951026475e+00 3.212561328560683549e+00 2.904969469260552550e+00 2.705562927793698780e+00 2.399004020965726625e+00 2.269918440888655020e+00 2.101913769390570952e+00 1.729465608753108397e+00 1.315463117515527358e+00 1.315463117515527358e+00 1.172926423571192256e+00 9.738168871011916305e-01 7.939781642738786838e-01 6.697880488846625902e-01 3.855570195530618749e-01 2.503873837408101544e-01 -2.923661293991493271e-02 -4.346819795681021725e-01 -8.995278487745055340e-01 -1.188460759865795247e+00 -1.517925501583280212e+00 -1.517925501583280212e+00 -1.870103054707207502e+00 -2.085433059827394686e+00 -2.131263795966528374e+00 -2.130497428378398173e+00 -2.038923797504383018e+00 -2.122563436133432457e+00 -2.736254561014637599e+00 -3.175618129209336615e+00 -3.648429769175585591e+00 -4.275106861745651798e+00 -4.763604252049283616e+00 -4.763604252049283616e+00 -4.854101192455338776e+00 -4.606791787486386625e+00 -4.606791787486386625e+00 -4.318776632619523603e+00 -3.773003219004416486e+00 -3.107244163629788947e+00 -2.613793690941737857e+00 -8.548210916696391548e-01 9.126700079114895559e-01 1.104472037327463019e+00 1.192331267257255689e+00 1.352764746668997597e+00 1.605480731469366207e+00 1.959959526166851873e+00 1.959959526166851873e+00 2.258571450641763789e+00 2.560360504825720973e+00 2.787785428470649585e+00 2.906423354114821223e+00 3.130177315403535054e+00 3.318618967242506823e+00 3.332819960641944412e+00 3.308571072277807890e+00 3.371070397050811795e+00 3.289809055328889453e+00 3.204332972565237192e+00 3.204332972565237192e+00 3.198361489076299247e+00 3.113892663374262959e+00 3.131260821245550829e+00 3.188228311438705997e+00 3.180459539403278413e+00 3.136823346103738253e+00 3.177216660734629716e+00 3.190775781502021680e+00 3.200157340976924392e+00 3.242723021304450004e+00 3.267249574410657331e+00 3.237198882972644576e+00 3.234119075703723034e+00 3.050294886315462417e+00 3.050294886315462417e+00 2.205954489388112894e+00 1.678041420149911866e+00 1.549293335349862577e+00 1.195309748507713099e+00 7.697043250480013477e-01 7.248731922263822458e-01 4.337247253923439128e-01 2.608475299411111559e-01 2.256198264878327420e-01 -9.729527797069081885e-02 -4.578089800171084578e-01 -4.578089800171084578e-01 -8.872887796353841061e-01 -9.880230230766512411e-01 -9.630438289552998299e-01 -1.012735798502658380e+00 -1.062268143512066443e+00 -1.106528395200053527e+00 -1.253597497095809921e+00 -1.317274737811372498e+00 -1.451821567591495610e+00 -1.724287684984964653e+00 -2.170932156193039031e+00 -2.170932156193039031e+00 -2.551917901579325410e+00 -3.048443430990921854e+00 -3.262700776188218299e+00 -3.504453855857760036e+00 -4.006562656594395477e+00 -4.155688129902511463e+00 -4.584486006700455363e+00 -4.798565158899012140e+00 -4.976763222862889080e+00 -5.225124185051228665e+00 -5.441385547860752681e+00
4.600994978217375575e+00 4.422449299780012666e+00 4.023853344579700675e+00 3.606697466356700410e+00 3.606697466356700410e+00 3.335056037804625895e+00 3.081315498233691663e+00 2.904969469260552550e+00 2.871668641910304132e+00 2.471638322419628331e+00 2.269918440888655020e+00 1.972954130777490489e+00 1.851340642803512848e+00 1.577284086075675607e+00 1.215976620523670393e+00 1.177769572408365439e+00 1.105879658425058976e+00 8.650130019871582476e-01 5.468329436723362580e-01 5.468329436723362580e-01 2.912567266061617532e-01 2.652002872154914093e-02 -4.346819795681021725e-01 -8.352510117452953686e-01 -1.273868246751610478e+00 -1.352701758078024952e+00 -1.691303446049239989e+00 -1.922463227970505617e+00 -2.053906504426192825e+00 -2.209849643137511421e+00 -2.057910713078290321e+00 -2.057910713078290321e+00 -2.190671189972851263e+00 -2.726150127705976534e+00 -3.175618129209336615e+00 -3.646956195798838785e+00 -4.363674920830224124e+00 -4.569480789648362240e+00 -4.838204320517148105e+00 -4.844716718807763556e+00 -4.708753803925974424e+00 -4.224108700924586124e+00 -4.073783765284040292e+00 -4.073783765284040292e+00 -3.235716750795831764e+00 -2.349279680589908104e+00 -8.548210916696391548e-01 -9.895825038751704383e-02 1.013984485905533806e+00 1.192331267257255689e+00 1.425994213962235246e+00 1.615543164015287747e+00 1.751785598454709048e+00 2.082829080497117680e+00 2.204693272884374444e+00 2.357145003264055738e+00 2.650574210830810351e+00 3.021173828793468186e+00 3.021173828793468186e+00 3.218590204250731723e+00 3.176893215402061710e+00 3.308571072277807890e+00 3.212895786083690197e+00 3.136439289428269550e+00 3.156794202772096547e+00 3.183463095626502870e+00 3.162164538276846848e+00 3.180543257365949117e+00 3.132153073424061240e+00 3.185974972993450560e+00 3.185974972993450560e+00 3.150037314400135458e+00 3.174654550945449571e+00 3.190775781502021680e+00 3.199075594149853430e+00 3.251786037930925133e+00 3.267249574410657331e+00 3.243297933307251579e+00 3.219384402455461647e+00 3.200301370259552414e+00 2.399792541650813682e+00 1.775128518420968193e+00 1.775128518420968193e+00 1.309485561229870365e+00 8.315721174331974774e-01 5.488944654925788091e-01 5.488944654925788091e-01 3.145085788420847184e-01 4.477049969403590346e-02 4.477049969403590346e-02 -3.409890208868850969e-01 -7.457069664516359220e-01 -7.668332412869842685e-01 -1.063546024575546145e+00 -1.093401681636011702e+00 -1.021924404448892210e+00 -9.786938140237330108e-01 -1.083541994648485218e+00 -1.164585324590883708e+00 -1.294167382798539823e+00 -1.474858396786224324e+00 -1.474858396786224324e+00 -1.864953787580752476e+00 -2.321899657095935154e+00 -2.517659210951024740e+00 -2.785070465408428397e+00 -3.062100090382284812e+00 -3.323058591328156286e+00 -3.841390298139066850e+00 -4.110450289141373226e+00 -4.354981233813488117e+00 -4.635658388964405852e+00 -4.977091600333059418e+00 -4.977091600333059418e+00 -5.364806805377305032e+00 -5.697805894596671195e+00
4.600994978217375575e+00 4.511195795924504814e+00 4.016802330118538933e+00 3.788491242207114862e+00 3.478904982014610070e+00 3.377169717361892864e+00 3.240944034358526515e+00 2.998679544263407770e+00 2.626774502122293242e+00 2.626774502122293242e+00 2.311678120728394514e+00 2.023182974777591348e+00 1.851340642803512848e+00 1.679441504144195241e+00 1.238951751626499398e+00 1.177769572408365439e+00 1.016384494132594352e+00 8.952927469959846007e-01 7.297931933341436084e-01 4.633245142262520933e-01 2.270621868678429078e-01 2.270621868678429078e-01 -3.976795368288087995e-01 -1.223962536743857354e+00 -1.273868246751610478e+00 -1.519830852194935300e+00 -1.773363864765340026e+00 -1.922463227970505617e+00 -2.102541921740124664e+00 -2.218834941039541597e+00 -2.172532964537055911e+00 -1.979998635008752839e+00 -2.069887700863826119e+00 -2.295662713485410400e+00 -3.139476257934677328e+00 -4.035541515326542594e+00 -4.035541515326542594e+00 -4.606817331047204256e+00 -4.821019546270222556e+00 -4.844716718807763556e+00 -4.677529025582951583e+00 -4.307317448046024566e+00 -3.973002549826036844e+00 -3.741179727800341581e+00 -3.646633941257390710e+00 -3.093827802389996329e+00 -2.168175329959268538e+00 5.406253009309129887e-01 5.406253009309129887e-01 1.103231828720081964e+00 1.387091016083080053e+00 1.615543164015287747e+00 1.743746574318697506e+00 2.059955570129008873e+00 2.314870901761143518e+00 2.500875697011605059e+00 2.608666873037839729e+00 2.822592614898561170e+00 3.012093328215404764e+00 3.274031783780920524e+00 3.149921383183464929e+00 3.227627806196347482e+00 3.127722046284927337e+00 3.105617521587650920e+00 3.111092219715833274e+00 3.147170842265689661e+00 3.155853580707455475e+00 3.155853580707455475e+00 3.141430992444106174e+00 3.194713340118471745e+00 3.185071900124714972e+00 3.168242174658844501e+00 3.187127938148770046e+00 3.192264482840263540e+00 3.244145605809690469e+00 3.241786542685788142e+00 3.257631109174552897e+00 3.290972241220400996e+00 2.834604202353851132e+00 2.834604202353851132e+00 1.932978119110957849e+00 1.441553127094471032e+00 1.429757627255983987e+00 9.989048658277445147e-01 6.598659928406536146e-01 6.130498856426634946e-01 3.226271251677662044e-01 1.597971460236917163e-01 1.054607324433584625e-01 -2.834115378754471504e-01 -6.812370760601187403e-01 -6.812370760601187403e-01 -1.048256309236850647e+00 -1.119739851000575381e+00 -1.093401681636011702e+00 -9.264770987938396596e-01 -1.016422138066821246e+00 -1.083541994648485218e+00 -1.255900511614902015e+00 -1.321601169744897497e+00 -1.372668646770422995e+00 -1.751236101395228673e+00 -2.012781603726049973e+00 -2.153648345677194875e+00 -2.595147365426366814e+00 -2.997919698221729323e+00 -2.997919698221729323e+00 -3.415316358323712276e+00 -3.913797229248797915e+00 -4.110450289141373226e+00 -4.350435168325765822e+00 -4.719520410043793746e+00 -4.894584543986779224e+00 -5.243109549978464123e+00 -5.459807484711006964e+00 -5.587064616094697733e+00
4.612255340824846783e+00 4.381660863118955973e+00 4.381660863118955973e+00 3.831470908944375253e+00 3.556438527210548539e+00 3.377169717361892864e+00 3.267358660429924289e+00 3.041106288865227825e+00 2.851363044119912260e+00 2.476367630333785375e+00 2.338546657162054565e+00 2.151993398068481333e+00 1.854424947826438963e+00 1.509727431387424046e+00 1.509727431387424046e+00 1.212207540740188660e+00 1.003176587525695052e+00 8.952927469959846007e-01 7.699026212199990837e-01 5.574776620999615240e-01 3.795646794156541937e-01 2.692270981040555122e-02 -2.757479647640096454e-01 -1.312929492652544994e+00 -1.423103321813528055e+00 -1.686784838355694038e+00 -1.846850561319914874e+00 -1.967018899613960814e+00 -2.240425712914748679e+00 -2.097107110239979200e+00 -2.097107110239979200e+00 -1.934618898781481189e+00 -2.473434388715136212e+00 -2.676891096052491648e+00 -3.139661022169765392e+00 -4.002959409553112025e+00 -4.304888370300157696e+00 -4.752567064177386946e+00 -4.809784229518344389e+00 -4.832354907473642491e+00 -4.563042285105172624e+00 -4.505066046389988976e+00 -4.293321927213974654e+00 -4.212054798964875779e+00 -3.593184394393409864e+00 -3.593184394393409864e+00 -2.924191339649282462e+00 -2.278206608278241951e+00 7.063594267735424648e-01 9.233116538460315326e-01 1.331636654143864007e+00 1.564784673002655557e+00 1.970016852175596078e+00 2.125470760517877533e+00 2.231095804717419639e+00 2.410551474966796448e+00 2.639515643938860734e+00 2.639515643938860734e+00 2.887519965608813521e+00 3.141406381781481905e+00 3.149921383183464929e+00 3.182527683261862972e+00 3.085030978510562960e+00 3.105617521587650920e+00 3.135487586110839331e+00 3.152282423814818380e+00 3.143361062321831767e+00 3.105678907440919456e+00 3.174658214648077070e+00 3.174658214648077070e+00 3.186531384535641998e+00 3.156741832337459641e+00 3.187127938148770046e+00 3.193753184178504512e+00 3.242036348369947696e+00 3.241786542685788142e+00 3.247348426819715250e+00 3.125758075323285645e+00 2.985212760961413192e+00 2.098267344099860487e+00 1.703181338657825394e+00 1.578845290947084479e+00 1.101340145552368810e+00 7.030035216196435233e-01 7.030035216196435233e-01 4.609464238958819182e-01 2.056247192883778330e-01 1.597971460236917163e-01 -2.062366593132948234e-01 -6.616435663485812357e-01 -6.486107886346836882e-01 -1.012633387537380525e+00 -1.245816218531696995e+00 -1.218281461989432213e+00 -9.582503839135321222e-01 -9.712641964413185613e-01 -9.712641964413185613e-01 -1.115289233065992924e+00 -1.297541125144205498e+00 -1.321601169744897497e+00 -1.498588870925480432e+00 -1.860182465407242747e+00 -2.012781603726049973e+00 -2.516525231551346664e+00 -2.744331680518562244e+00 -2.878310096454302691e+00 -3.327602763333318947e+00 -3.806353793340246483e+00 -3.806353793340246483e+00 -4.195558840263520217e+00 -4.550103323948897049e+00 -4.550103323948897049e+00 -4.993781634310508366e+00 -5.332550353327317971e+00 -5.459807484711006964e+00 -5.659817268031138049e+00
4.657805070662345059e+00 4.383384569832015742e+00 4.190912973145227483e+00 3.727988021690373799e+00 3.585260573519926108e+00 3.431154720630632760e+00 3.156457163000881749e+00 2.885388581751104020e+00 2.885388581751104020e+00 2.499189587974960602e+00 2.197866837844645094e+00 2.003953442494784021e+00 1.879524287295378127e+00 1.564210483290921161e+00 1.295346699780551170e+00 1.222869793888246903e+00 1.039416229796938262e+00 9.026139914338988657e-01 7.218173426500292811e-01 6.806869446262159284e-01 4.837282426797219759e-01 1.342150665715006186e-01 -6.736059988853695391e-01 -6.736059988853695391e-01 -1.466877170960956711e+00 -1.738460059551747205e+00 -1.846850561319914874e+00 -2.026579402997050749e+00 -2.192873333246964318e+00 -2.153973549882126193e+00 -1.964782124151943199e+00 -1.881776499859591167e+00 -2.192611633949318239e+00 -2.844561143159952454e+00 -3.646421395044908031e+00 -3.646421395044908031e+00 -4.241481330769578229e+00 -4.740462454656595881e+00 -4.809784229518344389e+00 -4.811850346351182139e+00 -4.741571305533870628e+00 -4.505066046389988976e+00 -4.372492527512543248e+00 -4.398802780239154941e+00 -4.146130439792465872e+00 -3.522636346378104300e+00 -3.076773869017979113e+00 -3.076773869017979113e+00 -1.220555166948886772e+00 1.014575821415101053e+00 1.014575821415101053e+00 1.492335417666272424e+00 1.899093241865121406e+00 2.125470760517877533e+00 2.229920412255750328e+00 2.407028935839540917e+00 2.469226172283402132e+00 2.710634945730150847e+00 2.773390780090139618e+00 2.964960744812248805e+00 3.192350063500903445e+00 3.211645486260609417e+00 3.211645486260609417e+00 3.073877416578969068e+00 3.146265150849319792e+00 3.152282423814818380e+00 3.124557586366815798e+00 3.115253127292729296e+00 3.141374283251795241e+00 3.204986774919947656e+00 3.185867617981559263e+00 3.141322286223243498e+00 3.187629410536335861e+00 3.215327593553721108e+00 3.215327593553721108e+00 3.241304692466818516e+00 3.147654072590697627e+00 3.125758075323285645e+00 2.445489961103801679e+00 1.829860694453776970e+00 1.703181338657825394e+00 1.214967189651780188e+00 8.328084189482057864e-01 7.429249646165545506e-01 4.974422893422547620e-01 2.664743667293820173e-01 2.664743667293820173e-01 -8.592380773459214194e-02 -6.330325968311727447e-01 -6.330325968311727447e-01 -1.014486961194231762e+00 -1.194001897517879662e+00 -1.245816218531696995e+00 -1.043703117595548013e+00 -9.219349918479272654e-01 -9.389304402462266275e-01 -1.066008767628098486e+00 -1.211440684663829703e+00 -1.236521786594456884e+00 -1.375423665495213887e+00 -1.718053640819500405e+00 -1.718053640819500405e+00 -2.144378805619813200e+00 -2.599061383090939259e+00 -2.744331680518562244e+00 -3.030481776162628815e+00 -3.404588372415108033e+00 -3.636240815922108016e+00 -4.009583216197067479e+00 -4.289476104132326384e+00 -4.416013768659124317e+00 -4.843949960557649703e+00 -5.207917865434747107e+00 -5.207917865434747107e+00 -5.524552632622868664e+00 -5.862521732993167589e+00
4.534850820537550398e+00 4.534850820537550398e+00 4.185366860064272387e+00 3.672163051360564534e+00 3.585260573519926108e+00 3.442533125349477974e+00 3.159444855675625163e+00 3.051950268892090534e+00 2.701510450755332471e+00 2.521284421291009714e+00 2.359575629567826738e+00 2.044574023541461116e+00 1.752896092680193085e+00 1.752896092680193085e+00 1.354624815595268483e+00 1.157667571420795127e+00 1.039416229796938262e+00 9.713149850986431133e-01 7.980029173148988075e-01 6.806869446262159284e-01 4.201405790698166109e-01 4.055179886040772286e-01 -7.148022645650106699e-02 -1.090873373523905121e+00 -1.624565087444728606e+00 -1.624565087444728606e+00 -1.910177149385601014e+00 -2.169464819648174725e+00 -2.169464819648174725e+00 -2.053508582666132121e+00 -1.864381698985765112e+00 -1.881776499859591167e+00 -2.015273739075266857e+00 -2.618929383290343971e+00 -3.185067415246333855e+00 -4.010273362981213729e+00 -4.303042689252521313e+00 -4.508708997560162857e+00 -4.840125781792779414e+00 -4.793691861591849346e+00 -4.793691861591849346e+00 -4.684922903491582247e+00 -4.510509219050660157e+00 -4.398802780239154941e+00 -4.200825554501542491e+00 -3.963227011026510649e+00 -3.460209814477634094e+00 -2.983851835814217424e+00 -2.013963341330294199e+00 4.756868118055118666e-01 1.212128456694408385e+00 1.573203910577742004e+00 1.573203910577742004e+00 2.055093484053107211e+00 2.289042183669839581e+00 2.407028935839540917e+00 2.428282605636267188e+00 2.799749652445260750e+00 2.773390780090139618e+00 3.022076126389633188e+00 3.197121143456175929e+00 3.126425143901015336e+00 3.046015004169151830e+00 3.066187880467787785e+00 3.117995424170027174e+00 3.151093301518168577e+00 3.110983758612985373e+00 3.110983758612985373e+00 3.143923347043204419e+00 3.193444523698622639e+00 3.185867617981559263e+00 3.136316443563064382e+00 3.184390693254248283e+00 3.195241885516746372e+00 3.239927090930205811e+00 3.245450852999729019e+00 3.265812795214526165e+00 2.662741537710538786e+00 1.932875969626036472e+00 1.932875969626036472e+00 1.399550441576037807e+00 9.332492274879259364e-01 8.328084189482057864e-01 6.182258456639545541e-01 3.740399460319956404e-01 3.243816222235593738e-01 7.441468713009054270e-03 -4.760159286346023477e-01 -5.781711389722978822e-01 -1.020973608598322091e+00 -1.256513476765284798e+00 -1.256513476765284798e+00 -1.128433043788311441e+00 -9.329120841197073855e-01 -9.219349918479272654e-01 -9.856817606779606500e-01 -1.156241906796475094e+00 -1.346705194521988336e+00 -1.346705194521988336e+00 -1.431188710866415192e+00 -1.765544738367681887e+00 -1.953579045597080288e+00 -2.258899699412872497e+00 -2.810631625296141411e+00 -3.017778358728945953e+00 -3.264983897104143828e+00 -3.604037337026209098e+00 -3.649351430282889552e+00 -4.146445484248172164e+00 -4.529020077231085573e+00 -4.529020077231085573e+00 -4.993987205322012457e+00 -5.383965552150269396e+00 -5.437157862436664324e+00 -5.627024547844198921e+00 -6.136661334690580283e+00
4.636959794637416366e+00 4.385108276545075512e+00 4.248963952902758301e+00 3.835289660569184633e+00 3.608851377846828967e+00 3.284059532684645788e+00 3.284059532684645788e+00 3.010433995398954288e+00 2.725969955276882573e+00 2.521284421291009714e+00 2.394883386213247700e+00 2.068212605393072501e+00 1.905586364093661444e+00 1.577104605502488210e+00 1.372358057170670609e+00 1.232997785346554576e+00 1.083671464204736479e+00 9.225020466756697068e-01 9.225020466756697068e-01 8.030321432336741116e-01 6.680216252396192766e-01 4.055179886040772286e-01 3.216134962215206339e-01 -3.248271452492165756e-01 -1.464399459706348772e+00 -1.793839128978107267e+00 -1.974673045260856519e+00 -2.080002386743094345e+00 -1.951706012860177530e+00 -1.874197418941094817e+00 -1.874197418941094817e+00 -1.850399832041750514e+00 -2.166980015413124683e+00 -2.618929383290343971e+00 -3.041945469432984162e+00 -3.966011236509153992e+00 -4.303042689252521313e+00 -4.617071848803906420e+00 -4.748091373594023779e+00 -4.830290337430766634e+00 -4.720056411976067068e+00 -4.476008923546194396e+00 -4.497637503007214654e+00 -4.256438981120539644e+00 -3.989901596424974439e+00 -3.989901596424974439e+00 -3.669920393139312065e+00 -3.016204229976279017e+00 -2.013963341330294199e+00 -3.941484915035231018e-01 1.063646855037216232e+00 1.330924821337048147e+00 1.760964557092108862e+00 1.853070128028633468e+00 2.123276176899437484e+00 2.302480219382276871e+00 2.631504723993997708e+00 2.631504723993997708e+00 2.901876198895873671e+00 2.991126908747012259e+00 3.197121143456175929e+00 3.108375099139067732e+00 3.083289765247509973e+00 3.066187880467787785e+00 3.133125941171883699e+00 3.121726672050963103e+00 3.103371878252580984e+00 3.100235131520912901e+00 3.174274275110492205e+00 3.156041551600960560e+00 3.185160859713395798e+00 3.170888883649075396e+00 3.205861967283058167e+00 3.205861967283058167e+00 3.252672732056555827e+00 3.060497205765408513e+00 3.060497205765408513e+00 2.099399717989983039e+00 1.600547190118423169e+00 1.530683516309053749e+00 1.109730325792592787e+00 7.282778909795417643e-01 6.837076220265607684e-01 4.452829273566936696e-01 2.184215116201380091e-01 1.493332087381972761e-01 -3.823703475457440604e-01 -9.793138855775487261e-01 -9.793138855775487261e-01 -1.199329682066400782e+00 -1.264140442709076773e+00 -1.264206741845161464e+00 -9.475458743721073551e-01 -9.533008820288486618e-01 -9.709199487601553047e-01 -1.071921100873922672e+00 -1.240186206993476814e+00 -1.298837993825635362e+00 -1.407559335106485676e+00 -1.619684166802695335e+00 -1.619684166802695335e+00 -2.091097077627958267e+00 -2.639010805386434733e+00 -2.810631625296141411e+00 -3.166039024508153332e+00 -3.523007426719603874e+00 -3.604037337026209098e+00 -4.023230365771868655e+00 -4.331393465183555946e+00 -4.414787144139578956e+00 -4.805932596048906547e+00 -5.162945212393521999e+00 -5.286683202805317450e+00 -5.687002401759239767e+00 -6.035596036737218562e+00 -6.035596036737218562e+00
4.616114518612487672e+00 4.386831983258136169e+00 4.248963952902758301e+00 3.768082317832511130e+00 3.641132809774458856e+00 3.468247773471297979e+00 3.146561174769672675e+00 2.884756159775655693e+00 2.884756159775655693e+00 2.582270821251166026e+00 2.243089859802357644e+00 2.068212605393072501e+00 1.915421791842793375e+00 1.567473813706973473e+00 1.372358057170670609e+00 1.277015484516219601e+00 1.140337356929900459e+00 1.031417127662852540e+00 8.684173283031630941e-01 8.830659780809784198e-01 8.007962395869760996e-01 6.371677951317634703e-01 2.951262031787432738e-01 2.951262031787432738e-01 -2.593161116637341390e-01 -1.105365221733124237e+00 -1.974673045260856519e+00 -1.872967719489542660e+00 -1.817569574410186961e+00 -1.875076383278142744e+00 -1.881708655370213812e+00 -1.881416499957800026e+00 -1.908903561034119178e+00 -2.502408170938548171e+00 -3.530181884544555171e+00 -3.908637308702381130e+00 -4.295544541493493185e+00 -4.720433382201768779e+00 -4.837409539695403105e+00 -4.837409539695403105e+00 -4.472220541734959198e+00 -4.179460272483802363e+00 -4.193471378666469462e+00 -3.934240035550272907e+00 -3.814204568132621098e+00 -3.840553662910081378e+00 -3.167543291037207887e+00 -2.719188857209494881e+00 -2.292921499899952309e+00 7.658030227448736627e-01 9.984832228769201512e-01 1.242305022976530227e+00 1.543878528622827151e+00 1.899579914185221652e+00 1.899579914185221652e+00 2.249932229216510038e+00 2.519912715940865411e+00 2.867495317444558989e+00 2.907220449388332462e+00 2.982402228647470732e+00 3.147811265979462814e+00 3.149335342716065522e+00 3.139863689999531804e+00 3.104387179265133412e+00 3.118300524612981128e+00 3.098818547824823799e+00 3.098818547824823799e+00 3.101559336770221886e+00 3.178733821118444602e+00 3.156041551600960560e+00 3.146066489163409141e+00 3.159696569123477961e+00 3.190032709393807675e+00 3.221999058713796771e+00 3.180510806430083548e+00 3.206817796941223264e+00 2.246561985672236084e+00 1.671332789932494567e+00 1.671332789932494567e+00 1.218558997978664404e+00 7.671236089888150422e-01 7.282778909795417643e-01 5.608761708467080442e-01 2.498468883806068963e-01 2.184215116201380091e-01 -1.701896023400606972e-01 -8.488220282965356356e-01 -9.090062465911925571e-01 -1.193665915086023155e+00 -1.347158101655592244e+00 -1.327577722523308079e+00 -1.006653967114492509e+00 -9.377609173750659499e-01 -9.377609173750659499e-01 -1.018952255110836758e+00 -1.180401644581079879e+00 -1.240186206993476814e+00 -1.333987666316271747e+00 -1.470363217524408572e+00 -1.538709376961608921e+00 -1.953859833859261652e+00 -2.342070826115665305e+00 -2.480790458551344280e+00 -3.067928629657815431e+00 -3.408835340267734271e+00 -3.408835340267734271e+00 -3.784147162843113144e+00 -4.221565695663317186e+00 -4.331393465183555946e+00 -4.551168972437587890e+00 -4.946164785347566983e+00 -5.162945212393521999e+00 -5.550177141444543771e+00 -5.806688598617562036e+00 -5.919907491452722326e+00 -6.329170785254729203e+00
4.534390780361918338e+00 4.534390780361918338e+00 4.334416208648882218e+00 3.814424739593623492e+00 3.496255824020774838e+00 3.496255824020774838e+00 3.207413033667235958e+00 2.935309655830047770e+00 2.761344370316733077e+00 2.621800661555887757e+00 2.285827738210405080e+00 2.099173119806321708e+00 1.758931948180401328e+00 1.615433720191869815e+00 1.419735627720395410e+00 1.216713721740814158e+00 1.085118190926852133e+00 1.085118190926852133e+00 9.559993003642099918e-01 8.548503937303424394e-01 7.640741180401637855e-01 7.461018251133944013e-01 6.382771514483809305e-01 3.349348690444317600e-01 3.907797279955937397e-01 -4.269646477331666412e-02 -8.861644744809636931e-01 -1.728543316907336758e+00 -1.830775197790369013e+00 -1.882921126096826825e+00 -1.890331269711937656e+00 -1.845047213087330551e+00 -1.845047213087330551e+00 -2.456762097710267323e+00 -3.445902952412569942e+00 -3.908637308702381130e+00 -4.293847196182133175e+00 -4.766456888477232035e+00 -4.802278142534110117e+00 -4.572307267966050581e+00 -4.237358048035793523e+00 -4.183594152372671182e+00 -3.859013500823022635e+00 -3.751172047823661870e+00 -3.751172047823661870e+00 -3.748593478050930905e+00 -3.194472686113726922e+00 -2.719188857209494881e+00 -2.159425167720721017e+00 4.658593694611200542e-01 9.984832228769201512e-01 1.328317365452151400e+00 1.389596443855102059e+00 1.613385697081887615e+00 1.976463096996211144e+00 2.281509004787941830e+00 2.281509004787941830e+00 2.622548562335291766e+00 2.908317166210927951e+00 2.982402228647470732e+00 3.081824537165350542e+00 3.131213439510092567e+00 3.139863689999531804e+00 3.127987896469033302e+00 3.100870879991927342e+00 3.090371823356916181e+00 3.102143039776849243e+00 3.105284923740298630e+00 3.144652658418138902e+00 3.159996442551701978e+00 3.120092342460926371e+00 3.120092342460926371e+00 3.200184012968552594e+00 3.208211664149310138e+00 3.180510806430083548e+00 2.536529942289864614e+00 1.845997682737145595e+00 1.757243542056763808e+00 1.314308647043504807e+00 9.138744526395767842e-01 8.503398609133955288e-01 6.296576293986442252e-01 3.617145027237244626e-01 3.617145027237244626e-01 -4.866073651005768663e-02 -7.827392048495166454e-01 -8.488220282965356356e-01 -1.152016245894563085e+00 -1.387008791050329037e+00 -1.347158101655592244e+00 -1.005399236347083836e+00 -9.071185848587234313e-01 -9.165236041875786110e-01 -9.722924195494059285e-01 -1.133484098387578465e+00 -1.133484098387578465e+00 -1.322503427144118504e+00 -1.415815825096602421e+00 -1.415815825096602421e+00 -1.688250121900467748e+00 -2.199278341476170073e+00 -2.342070826115665305e+00 -2.625419521958242797e+00 -3.173142681241924112e+00 -3.293243697971534267e+00 -3.695046898673565394e+00 -3.943527271619915453e+00 -4.095442150495512301e+00 -4.513854352844687945e+00 -4.787941791546528769e+00 -4.787941791546528769e+00 -5.271023837327804884e+00 -5.683562769773944368e+00 -5.806688598617562036e+00 -5.981049483633650077e+00 -6.345186513493131564e+00
4.565003148717330816e+00 4.382149278320209618e+00 4.386616018625263180e+00 3.772643500153090912e+00 3.662622568042633198e+00 3.393822760910347291e+00 3.291536890103690105e+00 3.151839436530974758e+00 2.812984441423574289e+00 2.484887797527553843e+00 2.484887797527553843e+00 2.142067365502475784e+00 1.819162455648939414e+00 1.615433720191869815e+00 1.489525136421950391e+00 1.259375096237136837e+00 1.178761955670107664e+00 1.041599603839414856e+00 1.011539854801890348e+00 9.248924875136707024e-01 8.322373485626032297e-01 7.522726143456568426e-01 7.522726143456568426e-01 6.302287861688506965e-01 4.144914036300006988e-01 -4.269646477331666412e-02 -7.779133262396532161e-03 -4.195376175076612202e-01 -1.830775197790369013e+00 -1.964700922916450487e+00 -1.870817767149902222e+00 -1.831560572137808318e+00 -1.904975929449469918e+00 -2.923599475273270798e+00 -2.923599475273270798e+00 -3.862285388983677681e+00 -4.487006528079760415e+00 -4.487006528079760415e+00 -4.606603992324084906e+00 -4.394929725140332977e+00 -4.237358048035793523e+00 -4.077781678051503711e+00 -3.846321537396769408e+00 -3.681849598495463560e+00 -3.679856162205391357e+00 -3.768020833425463234e+00 -3.628005227941698774e+00 -2.870896113428432539e+00 -1.580220651936539600e+00 -1.580220651936539600e+00 8.521668551194531149e-01 1.210440501422499704e+00 1.389596443855102059e+00 1.549779201857807376e+00 1.811435394446368363e+00 2.084983993271394720e+00 2.358417321161534463e+00 2.421126041529015005e+00 2.677195976170882563e+00 2.914535841079206602e+00 3.054710101757941665e+00 3.054710101757941665e+00 3.086697454229208937e+00 3.130803646885087055e+00 3.100870879991927342e+00 3.084213729420927308e+00 3.113216304269473600e+00 3.105284923740298630e+00 3.185526963342855566e+00 3.194684433339333829e+00 3.113420367970385350e+00 3.151060763484776484e+00 3.148141138834628094e+00 3.158592938150145635e+00 2.711053349618850916e+00 1.886489500391022256e+00 1.886489500391022256e+00 1.452500798055693654e+00 1.010684722972713390e+00 9.138744526395767842e-01 6.730958811977796330e-01 4.860438678173261695e-01 4.201738313985136641e-01 6.615308491514881872e-02 -5.436781896929161473e-01 -6.661685741786411707e-01 -1.085936237870328114e+00 -1.372800678513541595e+00 -1.372800678513541595e+00 -1.237399657792301433e+00 -9.267774725058333107e-01 -9.071185848587234313e-01 -9.388439872150967647e-01 -1.015359140756714185e+00 -1.073830908644073823e+00 -1.253596885991554943e+00 -1.339102606734841494e+00 -1.357578320622405244e+00 -1.572423480682053398e+00 -2.092246891197038217e+00 -2.092246891197038217e+00 -2.506054744323214400e+00 -2.916756281446909238e+00 -3.173142681241924112e+00 -3.359387215308503372e+00 -3.823210264858822427e+00 -3.943527271619915453e+00 -4.302053887596859916e+00 -4.630694137521787823e+00 -4.931509717141059568e+00 -5.037654215902719557e+00 -5.332537361769540851e+00 -5.683927670047960845e+00 -5.839207928138118397e+00 -6.208651414787101253e+00 -6.354962092853495115e+00
4.584587431769628907e+00 4.369141537435232259e+00 4.025282611572923663e+00 3.772643500153090912e+00 3.669020238797549460e+00 3.492969344883065208e+00 3.291536890103690105e+00 3.035648732021276164e+00 2.908983998215765254e+00 2.701978633780399264e+00 2.342907776231181405e+00 2.202096452188005760e+00 1.995249132387013402e+00 1.672873587898770387e+00 1.389347016624660647e+00 1.389347016624660647e+00 1.229610582110355566e+00 1.105060465013697035e+00 1.011539854801890348e+00 9.763334265857180894e-01 8.962243985533788759e-01 8.299331753264846956e-01 7.617792846539115370e-01 8.316916926535506960e-01 6.688926093929862260e-01 4.230543199794579157e-01 1.517495129013165384e-02 1.517495129013165384e-02 -5.848272670904148818e-01 -1.975067504950541952e+00 -1.870817767149902222e+00 -1.755697050031351125e+00 -1.831284294840978655e+00 -2.234687245972212910e+00 -3.376339331222891538e+00 -3.735259906719222478e+00 -4.157805534461934904e+00 -4.619528755583352186e+00 -4.457826919074945771e+00 -4.457826919074945771e+00 -4.235511196929117261e+00 -4.027115381112954751e+00 -3.846321537396769408e+00 -3.945453555412596458e+00 -3.805131118308041849e+00 -3.768020833425463234e+00 -3.405683080982672806e+00 -3.188854620042298471e+00 -2.550058580253629081e+00 -3.391140425353758037e-01 5.927993859032556490e-01 9.900383835913011410e-01 1.316951457346824839e+00 1.584602615301769823e+00 1.584602615301769823e+00 1.907979442218173727e+00 2.264246638815596402e+00 2.421126041529015005e+00 2.535456479661527762e+00 2.773481760892219317e+00 2.903697414022989420e+00 3.004172665367013995e+00 3.006710394734537051e+00 3.087361333515404205e+00 3.071008025238641803e+00 3.099869005468594452e+00 3.099869005468594452e+00 3.164736369710750452e+00 3.225912064639114618e+00 3.194684433339333829e+00 3.202171289622262496e+00 3.167944277476204107e+00 3.148141138834628094e+00 2.801845694775050077e+00 1.990233394039756520e+00 1.876305044914716724e+00 1.531625234502262733e+00 1.100978113604663466e+00 7.679507412085353479e-01 7.432245772507302117e-01 5.454986758644971845e-01 2.193292099922898031e-01 2.193292099922898031e-01 -4.307113198865493708e-01 -1.018982858044492401e+00 -1.018982858044492401e+00 -1.359623768841107028e+00 -1.297411150413404934e+00 -1.193656825150159140e+00 -9.844232596557894732e-01 -9.109360897467202456e-01 -9.248825487793117528e-01 -9.799796795834855301e-01 -1.116365546752371207e+00 -1.147891259633195604e+00 -1.319807904120688491e+00 -1.402639845194457724e+00 -1.402639845194457724e+00 -1.750926705024137942e+00 -2.230575466853346178e+00 -2.306011692472405894e+00 -2.665575609756645648e+00 -3.086116396667099693e+00 -3.200765203818502158e+00 -3.685470051754982101e+00 -4.036416382776391032e+00 -4.156980941619494274e+00 -4.483143073621765673e+00 -4.849639496193689503e+00 -4.849639496193689503e+00 -5.167838404876967218e+00 -5.582270344804510565e+00 -5.683927670047960845e+00 -5.778468788289186087e+00 -6.253706750196428743e+00 -6.354962092853495115e+00
4.595615517072742406e+00 4.380695135215608715e+00 4.420552869449541511e+00 3.898475884815872483e+00 3.658760858939305471e+00 3.658760858939305471e+00 3.422893608872538351e+00 3.046578920647864397e+00 2.908983998215765254e+00 2.797450484658410286e+00 2.426007496338498104e+00 2.202096452188005760e+00 1.871247817385677248e+00 1.756271641675209993e+00 1.553124445397444209e+00 1.309154177153284415e+00 1.195662093191669717e+00 1.195662093191669717e+00 1.065722613724078727e+00 9.454196142762556487e-01 8.962243985533788759e-01 8.963905754564290840e-01 9.622655280374432518e-01 8.316916926535506960e-01 9.206154749574666507e-01 7.500341742677315571e-01 4.065897012643738262e-01 -6.835925158751657293e-03 -4.549035220562584053e-02 -6.284153955383817713e-01 -1.805883534901679299e+00 -1.741023402904924744e+00 -1.741023402904924744e+00 -2.060952162664803744e+00 -3.193401251152693909e+00 -3.735259906719222478e+00 -3.979779421107728865e+00 -4.448566971582428309e+00 -4.527875458612423465e+00 -4.330407947343017483e+00 -4.255632762454191642e+00 -4.198416982220098959e+00 -4.052229253318357927e+00 -3.970189592841300019e+00 -3.970189592841300019e+00 -3.843492875594857860e+00 -3.463272617168845269e+00 -2.839780065044827495e+00 -2.839780065044827495e+00 -1.882198718683562699e+00 9.448592243458198148e-01 1.144189866001933398e+00 1.208728085359713988e+00 1.520490853590183544e+00 1.717289700064008828e+00 2.056701900372266856e+00 2.190660702768516543e+00 2.342513267556750822e+00 2.599529333943469744e+00 2.743731016612826590e+00 2.743731016612826590e+00 2.879496853752801400e+00 3.013124893501140988e+00 3.013124893501140988e+00 3.055397319170194859e+00 3.130565968473949745e+00 3.155074254189718541e+00 3.222523327207775345e+00 3.221205302089027889e+00 3.238693171852297326e+00 3.193582332078452879e+00 3.006337463370980956e+00 2.957227921953442973e+00 2.077841964487841420e+00 1.631203595690096098e+00 1.631203595690096098e+00 1.236147774796916732e+00 8.262124735097124972e-01 7.679507412085353479e-01 6.428137032574807730e-01 4.061988849746266395e-01 2.889408403516590673e-01 -8.115015941600073335e-01 -8.979126936262209480e-01 -9.646391992975669183e-01 -1.287219658718471660e+00 -1.423678820250674493e+00 -1.423678820250674493e+00 -1.016747097912957809e+00 -9.095364286769426210e-01 -9.109360897467202456e-01 -9.568957438598991727e-01 -1.068288060825495878e+00 -1.116365546752371207e+00 -1.283365536268628038e+00 -1.353904323190046943e+00 -1.385436677198430999e+00 -1.635773805545122750e+00 -1.991903846495336250e+00 -2.061847400481080506e+00 -2.501043223401208326e+00 -3.008217030229129563e+00 -3.008217030229129563e+00 -3.430603901412071277e+00 -3.832129030696039607e+00 -4.036416382776391032e+00 -4.276615263342100626e+00 -4.613440965478322831e+00 -4.719033277649288927e+00 -5.110980700060183679e+00 -5.289413528789792096e+00 -5.458514063261990401e+00 -5.789921737279261293e+00 -6.066313955684274006e+00 -6.066313955684274006e+00 -6.406939647810853344e+00
4.606828561990654158e+00 4.380695135215608715e+00 4.454489720273818953e+00 3.975847394801882206e+00 3.809223702412753987e+00 3.619233995805021920e+00 3.528584257375342759e+00 3.218567732231109257e+00 2.981407642858533880e+00 2.695695320483648239e+00 2.695695320483648239e+00 2.242675493389537422e+00 1.946591683309774723e+00 1.756271641675209993e+00 1.642414678785202309e+00 1.328430859381812823e+00 1.235968189376505544e+00 1.139406191011989034e+00 1.150896424454888933e+00 1.036172588689321383e+00 9.460285388705951259e-01 1.127222337161391641e+00 1.143422658878546994e+00 1.047013061212231255e+00 9.482945080449833863e-01 7.147378637778185606e-01 7.147378637778185606e-01 2.835769526468170931e-01 -2.537049599505452058e-01 -1.651348942025940403e+00 -1.642808227089016526e+00 -1.585335537345565315e+00 -1.778395405090851700e+00 -2.543420112214429540e+00 -3.049234637394457437e+00 -3.511596441809722080e+00 -4.221587534972147004e+00 -4.375594868690416028e+00 -4.500921568151632357e+00 -4.410366773573637822e+00 -4.287168245884814155e+00 -4.287168245884814155e+00 -4.193580490772314207e+00 -4.045630720907992028e+00 -3.941950068934357176e+00 -3.858360513551801318e+00 -3.648357288905898166e+00 -3.317849282319825122e+00 -2.453479936914080284e+00 -2.102530786637455851e+00 -6.779589652397186028e-02 1.075729345657998826e+00 1.374527564676763847e+00 1.374527564676763847e+00 1.612977230663881434e+00 1.957990644208718045e+00 2.190660702768516543e+00 2.299826069142911322e+00 2.443137226373210513e+00 2.607562786117007203e+00 2.760832014841645865e+00 2.793644033526333281e+00 2.899542318179028300e+00 3.045682044272460587e+00 3.047791077267635984e+00 3.047791077267635984e+00 3.121852202288444289e+00 3.187259257046560545e+00 3.221205302089027889e+00 3.190507651400928957e+00 3.000471994114749741e+00 3.006337463370980956e+00 2.308717360876676672e+00 1.723411089635420224e+00 1.676643635276853894e+00 1.306588767786158067e+00 9.595152239563982111e-01 9.673189482952565532e-01 6.638979969013697469e-01 4.000557679744011219e-01 4.000557679744011219e-01 -1.152831872040419592e-01 -8.307269587883530093e-01 -8.979126936262209480e-01 -1.235137275061346074e+00 -1.486517440355792807e+00 -1.478671053312688333e+00 -1.054277076549624992e+00 -9.151389099476192612e-01 -9.122748069633058732e-01 -9.552716009967975319e-01 -1.052401296884664772e+00 -1.052401296884664772e+00 -1.219143861482611335e+00 -1.366271691260386056e+00 -1.353904323190046943e+00 -1.494524212608858704e+00 -1.866433121420913332e+00 -1.991903846495336250e+00 -2.441885131613025894e+00 -2.724435751630847946e+00 -2.771479132466908801e+00 -3.241058624372357144e+00 -3.681924092350128852e+00 -3.681924092350128852e+00 -4.077217602220962078e+00 -4.445463282238618419e+00 -4.613440965478322831e+00 -4.864443816455194636e+00 -5.235378934555388497e+00 -5.289413528789792096e+00 -5.494982058276222325e+00 -5.936862294220405900e+00 -6.028387550527922301e+00 -6.206297741247027488e+00 -6.431919910698729481e+00
4.604067716498291496e+00 4.441907167355275021e+00 4.183862047534939066e+00 3.909667112551336920e+00 3.909667112551336920e+00 3.671648736399402146e+00 3.401838257521496711e+00 3.129803025837992081e+00 3.071505712799396548e+00 2.711240746732526574e+00 2.483581029045153876e+00 2.311800805666895720e+00 1.983130309132143276e+00 1.815261298609298635e+00 1.507017855327048128e+00 1.394639511112810926e+00 1.302724422722605357e+00 1.232189236136087995e+00 1.173011764074943120e+00 1.173011764074943120e+00 1.237819327228589117e+00 1.219832824431810847e+00 1.143422658878546994e+00 1.157935795248895339e+00 1.050886213302850702e+00 9.601531319606902981e-01 5.819902366856455345e-01 4.157114663175955904e-01 1.331403934795633570e-01 -6.154059622696720355e-01 -1.529782418110959163e+00 -1.529782418110959163e+00 -1.855300687019267425e+00 -2.672737192906700976e+00 -3.049234637394457437e+00 -3.538217046118151909e+00 -4.238577558770157516e+00 -4.375594868690416028e+00 -4.573654930638119787e+00 -4.607652184430624409e+00 -4.447410215157719726e+00 -4.244836344019509156e+00 -4.104884656526732734e+00 -4.104884656526732734e+00 -3.929906110086931470e+00 -3.739912336948992611e+00 -3.648357288905898166e+00 -3.543320463239323814e+00 -2.617661474313573322e+00 -2.102530786637455851e+00 -5.620771273469875595e-01 1.053022823470211700e+00 1.198963561039299019e+00 1.452931476634650831e+00 1.578440593208842113e+00 1.756580308235186960e+00 2.097989997889478708e+00 2.274611738481957968e+00 2.274611738481957968e+00 2.481517175821084997e+00 2.660436943897314777e+00 2.793644033526333281e+00 2.776563741453994982e+00 2.920497613692230487e+00 2.978379451153911894e+00 3.055547931438140630e+00 3.056134231642399612e+00 3.143167887208978328e+00 3.167116326831115991e+00 3.022906577150734631e+00 3.022906577150734631e+00 2.372393811607327763e+00 1.756488519619466171e+00 1.723411089635420224e+00 1.416226932040198339e+00 1.012398225083103176e+00 9.595152239563982111e-01 7.362438788684493307e-01 4.754866915368672897e-01 5.036938300863086360e-01 -5.407653979404559996e-02 -7.384748284092550463e-01 -7.384748284092550463e-01 -1.210830529378212894e+00 -1.480161896048155512e+00 -1.480161896048155512e+00 -1.254394625281801456e+00 -9.495552720638547051e-01 -9.151389099476192612e-01 -9.485683972212861637e-01 -1.010344794640289035e+00 -1.029184856138052329e+00 -1.147027607167295349e+00 -1.296711227883774242e+00 -1.348061537141697741e+00 -1.386732078837607407e+00 -1.780659353427975766e+00 -1.780659353427975766e+00 -2.336805676534815301e+00 -2.726718419607858657e+00 -2.724435751630847946e+00 -3.082166225579482166e+00 -3.469578557239921146e+00 -3.592179071902207088e+00 -3.927802149180271485e+00 -4.224578521500102823e+00 -4.375528279683527977e+00 -4.755948692478238371e+00 -5.097458344014683007e+00 -5.097458344014683007e+00 -5.427018052354580568e+00 -5.797950502348895085e+00 -5.936862294220405900e+00 -6.209845618829820779e+00 -6.434776091232695450e+00 -6.431919910698729481e+00
4.604067716498291496e+00 4.530653663499768058e+00 4.317917904370453641e+00 4.078246246711382916e+00 3.844028741050048215e+00 3.817127339412096809e+00 3.616692598402448944e+00 3.302393669794544184e+00 2.911032753783793225e+00 2.911032753783793225e+00 2.526487649561127036e+00 2.150213820462789638e+00 1.983130309132143276e+00 1.870721602231600222e+00 1.589355861825125782e+00 1.394639511112810926e+00 1.260667394053185175e+00 1.276496242440332107e+00 1.274494114259764999e+00 1.285742816737398098e+00 1.261578706564560282e+00 1.261578706564560282e+00 1.205730686103509086e+00 1.130460220754673228e+00 1.130460220754673228e+00 1.011135315145864189e+00 7.175331733220724484e-01 4.157114663175955904e-01 2.865668995496108984e-01 -6.774226701924948024e-01 -1.459351066335580427e+00 -1.617200370123665243e+00 -1.935853402278197022e+00 -2.420455534476175785e+00 -3.237892040363609780e+00 -4.017966065509138041e+00 -4.017966065509138041e+00 -4.344536508096407346e+00 -4.590877811497434458e+00 -4.607652184430624409e+00 -4.471693065662554645e+00 -4.235512673322276100e+00 -4.159687746798240937e+00 -4.001451706622061621e+00 -3.886421799912937125e+00 -3.822387017410766585e+00 -3.642331720607768109e+00 -3.244879011484616882e+00 -3.244879011484616882e+00 -2.245578544976535973e+00 8.065109169253421584e-01 1.053022823470211700e+00 1.129655329158470334e+00 1.413615336547009882e+00 1.578440593208842113e+00 1.855511256400401932e+00 1.971218491023631447e+00 2.171157313335555727e+00 2.340491644059997434e+00 2.380589691863195245e+00 2.552494171891110053e+00 2.679565080506530972e+00 2.786566899683595278e+00 2.786566899683595278e+00 2.897954220347905618e+00 2.993469688181707333e+00 3.056134231642399612e+00 3.027007255707516720e+00 3.059021274356257258e+00 3.085511254101295453e+00 2.455389391998727078e+00 1.825003373891447289e+00 1.795910588955553555e+00 1.443320741437602139e+00 1.067332650249215753e+00 1.067332650249215753e+00 7.506432864664369653e-01 5.145315326035202474e-01 4.754866915368672897e-01 8.820284447018549023e-02 -5.340143256832865504e-01 -6.553673816889464820e-01 -1.137950596176805940e+00 -1.507780952811829334e+00 -1.481163213127027589e+00 -1.366968015167952855e+00 -9.803451424234563838e-01 -9.532559956821584635e-01 -9.379436684577215910e-01 -9.842561096104742724e-01 -1.124582527864727455e+00 -1.124582527864727455e+00 -1.254676186030363016e+00 -1.413044648359530919e+00 -1.381925345627216251e+00 -1.561265133477041100e+00 -2.017754451018001216e+00 -2.130095555057474055e+00 -2.456411108657496456e+00 -2.906324383374526921e+00 -3.063940590719371748e+00 -3.443578358755681190e+00 -3.684266990421268151e+00 -3.702333265677775209e+00 -4.037068491826254046e+00 -4.422045582038235167e+00 -4.422045582038235167e+00 -4.906408710829256670e+00 -5.282189361168558861e+00 -5.332700693434849981e+00 -5.590588199478009557e+00 -5.990820626185821673e+00 -6.100918946421568734e+00 -6.407677214713983105e+00 -6.689480612126059711e+00 -6.705126583687339270e+00
4.601306871005929722e+00 4.494382678683304988e+00 4.494382678683304988e+00 4.178804766100826740e+00 3.929692141404742767e+00 3.817127339412096809e+00 3.796786733253432189e+00 3.579756445319037361e+00 3.246182035748002903e+00 2.740395532421629365e+00 2.572052231302360603e+00 2.357800773193596822e+00 2.050276057654037754e+00 1.770955307745490703e+00 1.770955307745490703e+00 1.466194222317126705e+00 1.340086289212190529e+00 1.276496242440332107e+00 1.348971336590644388e+00 1.327534426440842408e+00 1.303787047078330597e+00 1.260460369775394884e+00 1.235594964491191439e+00 1.190151166037759722e+00 1.070030951510008599e+00 8.700812377732759506e-01 8.700812377732759506e-01 6.345542831971419107e-01 8.225500340717667447e-02 -6.774226701924948024e-01 -1.402661274096983268e+00 -1.509672826645909183e+00 -1.935853402278197022e+00 -2.656395847222482232e+00 -2.858138953315251474e+00 -3.683566980981921368e+00 -4.277979993994973640e+00 -4.450609601547015792e+00 -4.512748078165500942e+00 -4.627380370741864368e+00 -4.335733946894483992e+00 -4.335733946894483992e+00 -4.090713063840788699e+00 -3.896951297802765612e+00 -3.886421799912937125e+00 -3.763544568995812689e+00 -3.636301633272790657e+00 -3.511533115813573858e+00 -2.837031723726327836e+00 -2.077864399065970868e+00 -5.313585685650351609e-01 9.868734180201225170e-01 1.245576937693561481e+00 1.245576937693561481e+00 1.524538094129864296e+00 1.806155021989234832e+00 2.045779458239014303e+00 2.045779458239014303e+00 2.213053617600262424e+00 2.428249482959492056e+00 2.550818079720920117e+00 2.535028494847531899e+00 2.682077540263853255e+00 2.797018282123097777e+00 2.897936432105561178e+00 2.915889117441995637e+00 2.971901805480290371e+00 2.979434433001969307e+00 2.603121389159630095e+00 2.603121389159630095e+00 1.883800066499806247e+00 1.553989884006243161e+00 1.553989884006243161e+00 1.136378902847862804e+00 7.240887546117186213e-01 8.102504522523471531e-01 5.856143604981155493e-01 2.737096431310961364e-01 1.410523401231413287e-01 -4.421651497933103969e-01 -1.012259037850210319e+00 -1.061849994914516593e+00 -1.468788881812137292e+00 -1.917469563651284847e+00 -1.917469563651284847e+00 -1.012148767036494146e+00 -9.393509491137895795e-01 -9.532559956821584635e-01 -9.835290500067306318e-01 -1.060694575128752648e+00 -1.081637998389346045e+00 -1.218451573494215623e+00 -1.352866652190801044e+00 -1.368346360880235313e+00 -1.448892285710216221e+00 -1.909405124476300841e+00 -1.909405124476300841e+00 -2.416139391037209094e+00 -2.758361536173464579e+00 -2.906324383374526921e+00 -3.154546892381378420e+00 -3.628488389244165724e+00 -3.684266990421268151e+00 -4.013469818023482460e+00 -4.388228833615199775e+00 -4.325212404230908803e+00 -4.771295684656970515e+00 -5.029413598025389120e+00 -5.160808532397475723e+00 -5.483951905971624186e+00 -5.841991310952248995e+00 -5.841991310952248995e+00 -6.192423911592198849e+00 -6.561603880232476094e+00 -6.689480612126059711e+00 -7.025723104599848057e+00
4.598546025513567059e+00 4.619400159644260206e+00 4.342590202423904699e+00 4.055006672368810960e+00 4.055006672368810960e+00 3.907483499503102919e+00 3.786118594847886598e+00 3.579756445319037361e+00 3.635963479648981700e+00 2.968984477130504729e+00 2.572052231302360603e+00 2.462523499017153394e+00 2.135772876217233662e+00 1.950338294845285869e+00 1.672532727693251342e+00 1.576501952484096636e+00 1.434330763650478069e+00 1.413810407676346692e+00 1.378567778262324905e+00 1.378567778262324905e+00 1.336672083421656110e+00 1.273850266055172487e+00 1.235594964491191439e+00 1.191163399007772794e+00 1.060257758146763152e+00 8.781353083348563127e-01 7.951002123778695418e-01 5.974271026519442085e-01 6.969119571149368086e-02 -9.089938813089835090e-01 -1.441279003064349418e+00 -1.544373278619068701e+00 -1.660706645807758841e+00 -2.056848783636130662e+00 -2.964030577416401524e+00 -2.964030577416401524e+00 -4.011894487408404153e+00 -4.498819928793014178e+00 -4.642603219973997497e+00 -4.571293687137018225e+00 -4.276859549315883413e+00 -4.192862184669325920e+00 -3.942552992349024787e+00 -3.826039732538854210e+00 -3.785617702280188013e+00 -3.725403778266062726e+00 -3.671788925169405804e+00 -3.409082061067779890e+00 -2.657339581866170697e+00 -6.244101750663865191e-01 -6.244101750663865191e-01 9.421641172579227064e-01 1.206415008041657799e+00 1.358164375822729752e+00 1.517298804998153505e+00 1.779216167402104531e+00 1.920239600492946508e+00 2.108558567369474002e+00 2.257367922101418678e+00 2.310936425000559957e+00 2.391833924305282189e+00 2.526816542334919369e+00 2.526816542334919369e+00 2.656616941743030758e+00 2.764905207815631094e+00 2.915889117441995637e+00 2.803045482753664164e+00 2.491150679077981156e+00 2.551798726863678812e+00 1.972751139538465814e+00 1.579953850711704577e+00 1.563611979460301837e+00 1.168924958416504678e+00 8.091186790866489176e-01 8.091186790866489176e-01 6.456500696106849402e-01 2.110079625417599636e-01 2.737096431310961364e-01 -3.178432384607360883e-01 -9.572993140210963592e-01 -1.012259037850210319e+00 -1.407207998623758893e+00 -1.849966302885999836e+00 -1.617033720661265050e+00 -1.067145083794588611e+00 -9.610732886403881015e-01 -9.581162397466540526e-01 -9.757029231800363744e-01 -1.071338174338802407e+00 -1.071338174338802407e+00 -1.187792819361350061e+00 -1.335109847289058127e+00 -1.352866652190801044e+00 -1.449325088235527970e+00 -1.690253216582699558e+00 -1.718392582776589350e+00 -2.270708693141900714e+00 -2.524875596692922386e+00 -2.660323288795257035e+00 -3.007914163635521110e+00 -3.448771351565720344e+00 -3.448771351565720344e+00 -3.767506069647092115e+00 -4.315517137664063085e+00 -4.388228833615199775e+00 -4.543389152583136692e+00 -4.835877187549330714e+00 -5.029413598025389120e+00 -5.382656562817376589e+00 -5.585303455015693253e+00 -5.711117098030732642e+00 -6.034698338963527142e+00 -6.438019646966581355e+00 -6.438019646966581355e+00 -6.862646309937875166e+00 -7.113513759994701147e+00
