5.714743736381157291e+00 5.714743736381157291e+00 5.714743736381157291e+00 5.714743736381157291e+00 4.913595155140296100e+00 4.780207618405153625e+00 5.654250419558042751e+00 5.425429479238836450e+00 4.954970727345348713e+00 4.114475775639163224e+00 3.546080273327780752e+00 3.546080273327780752e+00 3.185164188191647483e+00 2.779638165684447770e+00 2.779638165684447770e+00 2.593776254498073808e+00 2.311485640662865215e+00 2.113502073136211301e+00 1.949679493290569887e+00 1.605369893004523263e+00 1.391514085988099669e+00 1.096022902214869754e+00 1.051679851293741974e+00 9.954248436415606971e-01 8.665921594120031823e-01 5.152764503844342592e-01 5.152764503844342592e-01 -3.218917157783395266e-01 -1.122248505894445803e+00 -1.259242955339759940e+00 -1.303949542055360622e+00 -1.447510322464232502e+00 -1.575286168527814112e+00 -1.490021338721418287e+00 -1.411199016414036667e+00 -1.442269142015874639e+00 -1.434275285987852255e+00 -1.568068046590168407e+00 -1.568068046590168407e+00 -1.711306473910413573e+00 -1.971022354214463146e+00 -1.961943818364554781e+00 -1.268828874752805147e+00 -2.826719727172891883e+00 -3.883089114366591765e+00 -4.003480191610057304e+00 -3.875943497992854425e+00 -3.851829204797087680e+00 -3.600847916829191142e+00 -7.021622701454433013e-02 -7.021622701454433013e-02 9.788798182463649411e-01 1.215932334009273585e+00 1.215932334009273585e+00 1.325340331741059030e+00 1.433689519663549294e+00 1.479273347645275072e+00 1.573865277119860018e+00 1.790261107887098690e+00 1.868972008030696186e+00 2.001573300123070442e+00 2.113586434268168723e+00 2.333461548321520418e+00 2.660532924915277597e+00 2.999664169662922486e+00 2.999664169662922486e+00 3.146999283495463651e+00 3.363398086290767974e+00 3.509458113978936478e+00 3.484796043521734887e+00 3.510107494044192311e+00 3.607341420203844073e+00 3.556552474171593481e+00 3.426953597322920153e+00 2.692809212898695570e+00 1.569236727105096652e+00 1.182650474985333267e+00 1.182650474985333267e+00 9.764363399472094640e-01 5.564478999128223968e-01 4.899938995618222104e-01 3.913673145371345669e-02 -6.010680619126488322e-01 -7.569940056493674740e-01 -1.089702789891904944e+00 -1.250979091948231758e+00 -1.181397283703407464e+00 -1.309740085319202496e+00 -1.411625703584818092e+00 -1.397543632182976392e+00 -1.473092254961687608e+00 -1.611970488984741046e+00 -1.611970488984741046e+00 -1.723997978469082870e+00 -1.872054042293376241e+00 -1.940822132173948944e+00 -1.852490681159838282e+00 -1.559917771216277949e+00 -1.685620093499462957e+00 -1.618733604922172331e+00 -1.765543953342860517e+00 -1.886825141086729163e+00 -2.080823434291581009e+00 -2.413676892859691669e+00 -2.413676892859691669e+00 -2.704403841612840864e+00 -2.944663836331828488e+00 -3.075267791314991062e+00 -3.234241268042249651e+00 -3.430314742561682895e+00 -3.513711172447218090e+00 -3.713188148819556833e+00 -3.893311519409067500e+00 -3.964090177991370645e+00 -4.144357948839990868e+00 -4.467711754799545076e+00
5.561058379889810332e+00 5.561058379889810332e+00 5.561058379889810332e+00 5.561058379889810332e+00 5.561058379889810332e+00 4.787304554952803493e+00 5.756490856861513628e+00 5.425429479238836450e+00 4.998872798776656801e+00 4.227440042659067032e+00 3.795574694340765554e+00 3.388130573877674578e+00 3.241540706682194628e+00 3.045944543447678399e+00 2.735813025069332216e+00 2.476615917741067818e+00 2.476615917741067818e+00 2.165543230332570346e+00 1.752870274797387662e+00 1.605369893004523263e+00 1.498131081261833364e+00 1.137195279793877800e+00 1.051679851293741974e+00 9.327538587465904474e-01 8.659830124134070273e-01 7.998213130788196512e-01 7.229787809037861723e-02 -2.989190662147209188e-01 -7.641254766578878810e-01 -1.299661908906974750e+00 -1.365573597441950060e+00 -1.365573597441950060e+00 -1.397126102893687882e+00 -1.377095350282769415e+00 -1.411199016414036667e+00 -1.387998016517282052e+00 -1.309051069625208008e+00 -1.506561120932295328e+00 -1.623220435117128879e+00 -1.637485220182566703e+00 -1.798204766687226508e+00 -1.872591852488701303e+00 -1.995608991827367173e+00 -1.995608991827367173e+00 -3.641652372197507148e+00 -3.950772354637560824e+00 -3.875943497992854425e+00 -4.019540765811177252e+00 -3.788265896414142020e+00 -2.162879678423511809e+00 8.196027722928265202e-01 9.546691115262346816e-01 1.111549187000975492e+00 1.257887160535806181e+00 1.368775347311867563e+00 1.368775347311867563e+00 1.483581734185375423e+00 1.644704981886189410e+00 1.790261107887098690e+00 1.837749965792921714e+00 1.970612637456853111e+00 2.113586434268168723e+00 2.291477696937819442e+00 2.669908466331560870e+00 2.809982877472843033e+00 3.065276449129528125e+00 3.117946160220233853e+00 3.250347356904454088e+00 3.439153221635719682e+00 3.489835015731299617e+00 3.489835015731299617e+00 3.538262988059445391e+00 3.556471703894620973e+00 3.426953597322920153e+00 2.252990839720640626e+00 1.207047525930729170e+00 1.222579934500424015e+00 1.036892899022960890e+00 7.848324487998442622e-01 6.751890978260991494e-01 2.289081119713183565e-01 -4.243285612443553623e-01 -4.243285612443553623e-01 -9.122996839273190828e-01 -1.145400406888468003e+00 -1.250979091948231758e+00 -1.277192240729775552e+00 -1.435315196607775068e+00 -1.411625703584818092e+00 -1.478337636847150138e+00 -1.580146923093600053e+00 -1.563766975583510854e+00 -1.682055311262852015e+00 -1.787048318986426798e+00 -1.787048318986426798e+00 -1.720082791436947200e+00 -1.565915084442156324e+00 -1.559917771216277949e+00 -1.484955990016178173e+00 -1.670647713477825480e+00 -1.765543953342860517e+00 -1.863787613568092194e+00 -2.202096141647228222e+00 -2.503158686841060465e+00 -2.603672394497803300e+00 -2.644510872415891001e+00 -2.926596259792617616e+00 -3.154121968081474492e+00 -3.367661438873645885e+00 -3.618581392648096973e+00 -3.658596338591844965e+00 -3.857787797088731985e+00 -4.098158755005089304e+00 -4.098158755005089304e+00 -4.298245680578897776e+00 -4.568445790804535278e+00
5.346450958609864301e+00 5.346450958609864301e+00 5.346450958609864301e+00 5.346450958609864301e+00 5.157746224903363874e+00 4.808318459802897848e+00 5.127799192870678091e+00 5.604523197383000976e+00 4.923014418958013394e+00 4.923014418958013394e+00 3.833355039447663870e+00 3.460176045885383633e+00 3.241540706682194628e+00 3.106360617561811477e+00 2.780173980576011505e+00 2.660295814661068015e+00 2.380153012004767810e+00 2.214824535131802108e+00 1.981162023637391023e+00 1.629564612738816143e+00 1.304557988221235698e+00 1.304557988221235698e+00 1.065147431748624474e+00 9.451893610718185013e-01 8.659830124134070273e-01 8.093053809688814937e-01 4.177412012258590601e-01 -2.989190662147209188e-01 -9.952198245993805203e-01 -1.183913569115650599e+00 -1.325202803873020807e+00 -1.363687953450529067e+00 -1.338256520555314744e+00 -1.338256520555314744e+00 -1.316970421268255809e+00 -1.386927619985307336e+00 -1.309051069625208008e+00 -1.399877418311247901e+00 -1.564440752905913001e+00 -1.637485220182566703e+00 -1.704656392478881122e+00 -2.111161339598931264e+00 -2.139523287370763249e+00 -2.903168468897350252e+00 -3.528199664160031279e+00 -3.824962004188966258e+00 -4.018817827564282297e+00 -3.963282565380332301e+00 -3.963282565380332301e+00 -2.955404188940271126e+00 8.005598311171554515e-01 9.546691115262346816e-01 1.112089628223165816e+00 1.249893992241325691e+00 1.313513402225956472e+00 1.403294756602659676e+00 1.476533450119007940e+00 1.558223662084952554e+00 1.746834451659310616e+00 1.872294597197675881e+00 1.872294597197675881e+00 2.088454502843386074e+00 2.472258113590115158e+00 2.669908466331560870e+00 2.832885681864397931e+00 3.075221446110106172e+00 3.117946160220233853e+00 3.334059764088193045e+00 3.410660684320906633e+00 3.434041543796160667e+00 3.445525176403849255e+00 3.554598961347315011e+00 3.449975677184677014e+00 3.075415855545730714e+00 1.186237507594717577e+00 1.058010470283746507e+00 1.094929303962385525e+00 9.166358590816324758e-01 5.851883738493172116e-01 5.851883738493172116e-01 -5.839424688763042437e-03 -6.091142836159930685e-01 -7.768609946259366072e-01 -1.008856229558475315e+00 -1.213772684065404395e+00 -1.244311780286980973e+00 -1.384730720131344128e+00 -1.500978254271469137e+00 -1.523921270771128711e+00 -1.613777405765793205e+00 -1.681583236788692703e+00 -1.681583236788692703e+00 -1.643519753273244177e+00 -1.632776909553382616e+00 -1.728531344759197452e+00 -1.475865942579779766e+00 -1.366496918249761716e+00 -1.462838981146819650e+00 -1.525322922013982119e+00 -1.729528399466710775e+00 -1.761656799328000567e+00 -1.971896104407509398e+00 -2.256559050840725611e+00 -2.256559050840725611e+00 -2.597357689376273093e+00 -2.833881434434700530e+00 -2.926596259792617616e+00 -3.091921887226304566e+00 -3.441085037108317035e+00 -3.618581392648096973e+00 -3.653687118552260138e+00 -3.945268864839132306e+00 -4.108624381135109971e+00 -4.259686379742317008e+00 -4.373938504882052491e+00 -4.489375924056510314e+00
5.346450958609864301e+00 5.346450958609864301e+00 5.346450958609864301e+00 5.346450958609864301e+00 5.379178869762274218e+00 4.808318459802897848e+00 5.789353540325771874e+00 5.589062461622901878e+00 5.042774870207952453e+00 4.383108814140756593e+00 3.649329209572568011e+00 3.649329209572568011e+00 3.301722219934315916e+00 2.942020449881989741e+00 2.942020449881989741e+00 2.720969017216294805e+00 2.448689734331130463e+00 2.214824535131802108e+00 2.042316334555254187e+00 1.641525789066580643e+00 1.554205754296853481e+00 1.194491104589650243e+00 1.082305774474803250e+00 1.003635101264523266e+00 8.901769056176866979e-01 7.454440192310416435e-01 7.454440192310416435e-01 3.649125718763949200e-01 -3.448340466344850253e-01 -1.183913569115650599e+00 -8.828200218383756015e-01 -1.090766137161487848e+00 -1.243161353697346927e+00 -1.258212990296112999e+00 -1.293664660758913509e+00 -1.308944981439385646e+00 -1.430826878788933554e+00 -1.505964989888003869e+00 -1.505964989888003869e+00 -1.563339482682112980e+00 -1.746754232631910098e+00 -2.428694188446452351e+00 -2.428694188446452351e+00 -2.809423066619075815e+00 -3.750245866627377023e+00 -3.934150587333365312e+00 -4.137757337338892505e+00 -4.159302001075438682e+00 -3.976821852418770398e+00 -3.726114413632179101e+00 -3.411442779443447648e-01 9.438233868255822001e-01 1.127513538750556599e+00 1.197294494013523725e+00 1.297209394459120979e+00 1.391088582125951323e+00 1.527759836563933327e+00 1.527759836563933327e+00 1.715479302174269138e+00 1.848175686493035208e+00 1.938117885019896125e+00 2.047810221890718374e+00 2.415135152665141227e+00 2.648152249417015991e+00 2.961686651715519147e+00 2.999651370163034514e+00 3.128546715354851404e+00 3.306816309072100779e+00 3.433151069709132308e+00 3.433151069709132308e+00 3.484119180248939962e+00 3.401426771258443171e+00 3.449975677184677014e+00 2.037881035605749513e+00 8.845226264309398179e-01 1.058010470283746507e+00 1.017200506624021505e+00 7.479131339877647111e-01 6.947419874505857962e-01 1.648960813536652914e-01 -4.865620260503911165e-01 -4.865620260503911165e-01 -8.950715481748190427e-01 -1.128162171949075088e+00 -1.213772684065404395e+00 -1.289430951806509018e+00 -1.466906936180140564e+00 -1.500978254271469137e+00 -1.565785081434406534e+00 -1.630486787915379043e+00 -1.579554651391900766e+00 -1.609970791860603878e+00 -1.563293952874150516e+00 -1.576546877080437836e+00 -1.431684678527935350e+00 -1.369840397827898570e+00 -1.369840397827898570e+00 -1.466484621028755875e+00 -1.718542762546603875e+00 -1.729528399466710775e+00 -1.888891422369367579e+00 -2.123869258502747659e+00 -2.190743923119328418e+00 -2.529474836573774699e+00 -2.787775878955947029e+00 -2.819031789902066709e+00 -3.096139379994967022e+00 -3.296674715840583580e+00 -3.296674715840583580e+00 -3.565927943208627937e+00 -3.833101830011771405e+00 -3.945268864839132306e+00 -4.085112323962222014e+00 -4.298613392597239624e+00 -4.373938504882052491e+00 -4.594048513631587838e+00
5.346450958609864301e+00 5.346450958609864301e+00 5.346450958609864301e+00 5.209759181973221409e+00 5.209759181973221409e+00 4.829332364652991316e+00 5.747477271010180466e+00 5.589062461622901878e+00 5.120776543135306724e+00 4.605467947194096467e+00 3.910195584437814897e+00 3.498534879559707100e+00 3.389516051351828096e+00 2.986035611520864386e+00 2.895199416295941131e+00 2.607628802774028198e+00 2.511444805775107092e+00 2.287628662132723534e+00 1.883031230243999987e+00 1.572853664419948450e+00 1.572853664419948450e+00 1.191206231595007825e+00 1.016250025063402118e+00 9.674640600439734506e-01 8.910789222772429463e-01 7.416470687843833565e-01 6.133498081141505187e-01 4.191952613879813550e-01 -6.916138958847571627e-02 -4.046396954457566197e-01 -7.222939098619024501e-01 -6.727271060720795282e-01 -9.063597766684891033e-01 -1.243036478001218859e+00 -1.353131183728397247e+00 -1.353131183728397247e+00 -1.474008670485139394e+00 -1.520368916190208974e+00 -1.546786965342286990e+00 -1.585490878893202726e+00 -1.710643607551290524e+00 -1.985487623569198057e+00 -2.724186487959985303e+00 -3.093636624104383337e+00 -3.468318572295358226e+00 -3.961000931427475891e+00 -4.226531903585089012e+00 -4.226531903585089012e+00 -4.007745864083344323e+00 -3.491886132097073325e+00 -3.411442779443447648e-01 8.040015980081592906e-01 1.050695564963890716e+00 1.197294494013523725e+00 1.343647966402697236e+00 1.386757861246653567e+00 1.457331217983587557e+00 1.590820524830113936e+00 1.781453622515009494e+00 1.781453622515009494e+00 1.903045125201455523e+00 2.184699173347506296e+00 2.184699173347506296e+00 2.607613947120013265e+00 2.871688285764395498e+00 2.999651370163034514e+00 3.047970721304420483e+00 3.235853460399228609e+00 3.359292916756053682e+00 3.428392898614117890e+00 3.371003262252959320e+00 3.479361009153924655e+00 2.593242681063085531e+00 8.826335192400993623e-01 8.826335192400993623e-01 1.089206473979688283e+00 8.460130507360936747e-01 7.479131339877647111e-01 4.822956458802244439e-01 -1.233877910642678377e-01 -3.034132605658949600e-01 -8.204675065799573730e-01 -1.080007621051230826e+00 -1.116662643401666877e+00 -1.218528684039177801e+00 -1.389378265978422622e+00 -1.389378265978422622e+00 -1.529768572691839523e+00 -1.632410858232585360e+00 -1.630486787915379043e+00 -1.531599078904266165e+00 -1.541654723301629115e+00 -1.563293952874150516e+00 -1.438142204592891993e+00 -1.273875603677234514e+00 -1.306389972084375906e+00 -1.445526815307410562e+00 -1.362625494622583755e+00 -1.362625494622583755e+00 -1.899828950190332488e+00 -2.092409496738032892e+00 -2.092409496738032892e+00 -2.428548519929539129e+00 -2.709957505729617022e+00 -2.787775878955947029e+00 -2.992387121371553604e+00 -3.181238579476153738e+00 -3.255002508521383398e+00 -3.473176281788884268e+00 -3.708488014550012313e+00 -3.766321352001298806e+00 -4.014984109824972336e+00 -4.210970902591819609e+00 -4.210970902591819609e+00 -4.464534739254045093e+00 -4.684938998215756989e+00
5.209759181973221409e+00 5.209759181973221409e+00 5.209759181973221409e+00 5.209759181973221409e+00 5.209759181973221409e+00 4.891188020975652861e+00 5.624983722166385647e+00 5.592555103928381399e+00 5.111032050014040706e+00 4.896622825211469632e+00 4.321856289315921806e+00 3.541307020793097671e+00 3.190824381655762210e+00 3.190824381655762210e+00 2.927525344302082999e+00 2.666453272539448527e+00 2.511444805775107092e+00 2.360781683275543497e+00 2.000677706573413595e+00 1.731841438500014263e+00 1.477873189659306252e+00 1.251011342004681337e+00 1.101248570334625976e+00 9.661517253685089068e-01 8.202367167596793518e-01 8.202367167596793518e-01 6.001671820796021795e-01 2.561874065677888779e-01 -6.916138958847571627e-02 -1.530604059160761699e-01 -3.538332563240395023e-01 -6.727271060720795282e-01 -1.000036763702580656e+00 -1.249639002678672561e+00 -1.333682901195294201e+00 -1.438489656599997168e+00 -1.517342142055709608e+00 -1.530015434835348520e+00 -1.547349765225007445e+00 -1.605938254876721594e+00 -1.605938254876721594e+00 -1.888498441871602207e+00 -2.642319308155542501e+00 -3.093636624104383337e+00 -3.432638393817842193e+00 -3.965702988697425102e+00 -4.147676256326437993e+00 -4.162747193562323034e+00 -4.076763556624116269e+00 -3.824031234372732513e+00 -3.049084967579121397e+00 9.040966359142574849e-01 9.040966359142574849e-01 1.120476520226858064e+00 1.336856404539458865e+00 1.386757861246653567e+00 1.420729490223976876e+00 1.573153326160883214e+00 1.684732195613357186e+00 1.823750220412329703e+00 1.869286344610366912e+00 1.999191486329939815e+00 2.357708522201483081e+00 2.748704620929590003e+00 2.748704620929590003e+00 2.924544814083709809e+00 3.101624093826609307e+00 3.235853460399228609e+00 3.340510145160660471e+00 3.334188574594414867e+00 3.371003262252959320e+00 3.408646634041549106e+00 1.738809824261120518e+00 1.352690076022576848e+00 1.039425701826295789e+00 9.556123530656294163e-01 9.216236682532320534e-01 6.232406093823203985e-01 7.271071123033756578e-02 7.271071123033756578e-02 -6.109545115330035081e-01 -9.752145832932863634e-01 -1.080007621051230826e+00 -1.233286691699378990e+00 -1.308180302565643771e+00 -1.362525149885175146e+00 -1.492039014433477861e+00 -1.615465733180862395e+00 -1.648808483848376527e+00 -1.674184273028401115e+00 -1.575960362044280583e+00 -1.575960362044280583e+00 -1.394863745447849412e+00 -1.282696710547864827e+00 -1.273875603677234514e+00 -1.348447074426804893e+00 -1.519202462271807885e+00 -1.576379569408087100e+00 -1.787116284809694866e+00 -2.078909258003931448e+00 -2.055391841278129128e+00 -2.345897480698187376e+00 -2.624090818376969558e+00 -2.624090818376969558e+00 -2.917242535308075979e+00 -3.202910911547298234e+00 -3.181238579476153738e+00 -3.411176458720030169e+00 -3.601631066102324752e+00 -3.708488014550012313e+00 -3.873169822282313213e+00 -4.127696577626672969e+00 -4.292374660731262281e+00 -4.390102684731168381e+00 -4.561401213055908066e+00 -4.816117295155443401e+00
5.330408012652787519e+00 5.330408012652787519e+00 5.330408012652787519e+00 5.330408012652787519e+00 5.330408012652787519e+00 4.795331741199879261e+00 5.624983722166385647e+00 5.602352769282689771e+00 5.054701632354907659e+00 4.896622825211469632e+00 3.935074990386336680e+00 3.598771502496129759e+00 3.355907186887844507e+00 3.074662595323797376e+00 2.962472657236121965e+00 2.798382395436286085e+00 2.571823651796290022e+00 2.215997207110867784e+00 2.215997207110867784e+00 1.845989403556521191e+00 1.494664441488080087e+00 1.251011342004681337e+00 1.120064390768147566e+00 9.679266558143788668e-01 8.895249981192221433e-01 7.560251667797276420e-01 6.794037884178254494e-01 4.599304704732248283e-01 1.265345624594529927e-01 -1.707330882351784651e-01 -1.707330882351784651e-01 -5.042970249035134689e-01 -9.781457254217493791e-01 -1.249639002678672561e+00 -1.369365631616431989e+00 -1.493587687453172164e+00 -1.517342142055709608e+00 -1.580631663941436837e+00 -1.573674622031816295e+00 -1.533091326003661381e+00 -1.665973483461486992e+00 -2.224559234208728586e+00 -2.224559234208728586e+00 -3.028720190526521083e+00 -3.736921672736957856e+00 -3.965702988697425102e+00 -4.197786329514790360e+00 -4.162616806643723244e+00 -4.076763556624116269e+00 -3.936302787902770994e+00 -3.379099049251842235e+00 -3.910154775272771666e-01 1.030917863961942293e+00 1.174278722731381119e+00 1.234215647507544311e+00 1.355490803239079778e+00 1.470007649577762310e+00 1.470007649577762310e+00 1.653985089052445234e+00 1.799094682224843478e+00 1.869286344610366912e+00 1.950572750769161257e+00 2.300778962860411614e+00 2.568386332755724588e+00 2.811516769508010771e+00 2.851796755599376176e+00 2.969569774331915823e+00 3.197696905900429876e+00 3.284552684990755367e+00 3.284552684990755367e+00 3.283209822299954173e+00 2.127740749039655377e+00 1.738809824261120518e+00 7.893438719689405136e-01 9.696478897494454907e-01 9.556123530656294163e-01 6.947219565515455608e-01 3.837892860555581209e-01 2.533753251956318842e-01 -4.637698568853448333e-01 -9.201721470523851476e-01 -1.131289959024075698e+00 -1.122733652091510326e+00 -1.293877057413924669e+00 -1.419530433478781717e+00 -1.419530433478781717e+00 -1.503376425330297916e+00 -1.593161806339043363e+00 -1.593161806339043363e+00 -1.393444070880526908e+00 -1.594511883751779990e+00 -1.474740119823791495e+00 -1.385724335670305285e+00 -1.196584185247542731e+00 -1.299131178934008535e+00 -1.478887867119786481e+00 -1.557238250022309645e+00 -1.702438456177084447e+00 -1.985049578299871609e+00 -2.195070891946596880e+00 -2.195070891946596880e+00 -2.472127944258233789e+00 -2.731582987583591304e+00 -2.828510098001637108e+00 -3.013418764701055075e+00 -3.329511807099443388e+00 -3.384083991859760054e+00 -3.604439734754756319e+00 -3.756603403711746392e+00 -3.832965320872135262e+00 -4.073018159635863000e+00 -4.220533295290471720e+00 -4.220533295290471720e+00 -4.516424172345773869e+00 -4.732297273999393816e+00 -4.816117295155443401e+00
5.422987816045978349e+00 5.422987816045978349e+00 5.422987816045978349e+00 5.422987816045978349e+00 5.422987816045978349e+00 4.961604263856545849e+00 5.502490173322580169e+00 5.456745061226418336e+00 5.456745061226418336e+00 4.913171992040220815e+00 3.937293886698248535e+00 3.598771502496129759e+00 3.378786466037821956e+00 3.070004536347597401e+00 2.962472657236121965e+00 2.683656491111712228e+00 2.563921952213558342e+00 2.430841067351598994e+00 2.093485370744577079e+00 1.716973893938503526e+00 1.716973893938503526e+00 1.347873799883269719e+00 1.062027021368727953e+00 9.679266558143788668e-01 8.985643976396814336e-01 7.762269534697986417e-01 6.794037884178254494e-01 5.095661294869292535e-01 2.288396738811507847e-01 3.954096744144390552e-02 -2.237154441412391170e-01 -4.345878041830329441e-01 -9.001653707276843219e-01 -1.249498785475193774e+00 -1.454755217356322960e+00 -1.454755217356322960e+00 -1.575443034315625823e+00 -1.635344864325712910e+00 -1.573674622031816295e+00 -1.562380954872787164e+00 -1.699269757894318555e+00 -1.933150009879877285e+00 -2.661900856753820488e+00 -3.008448503652284778e+00 -3.331107440793372731e+00 -3.966314312762320160e+00 -4.252764351540792021e+00 -4.252764351540792021e+00 -4.153480789738853041e+00 -3.843900932380129642e+00 -2.442552394650338687e+00 -2.442552394650338687e+00 1.017769508970664649e+00 1.223482933038645193e+00 1.281688485527792576e+00 1.332137523800666967e+00 1.427651518358799443e+00 1.518676456031136768e+00 1.709138345061152808e+00 1.756739793088021084e+00 1.846065493474284835e+00 2.123749006728554711e+00 2.344983096183097526e+00 2.544646488007750840e+00 2.776371225186546443e+00 2.846504311742829252e+00 2.846504311742829252e+00 2.939188998676763642e+00 2.693646943035005847e+00 2.880055374559796100e+00 2.496055880472708211e+00 1.208344792126707423e+00 8.218064882217473999e-01 9.072023546349758938e-01 9.291074978310174259e-01 8.497165293351728321e-01 5.229036780985941713e-01 -5.337404281288590790e-02 -5.337404281288590790e-02 -6.979739666506942219e-01 -1.079087349629841874e+00 -1.131289959024075698e+00 -1.260402794111206815e+00 -1.353256067785888694e+00 -1.372400288919546796e+00 -1.476567294984306056e+00 -1.536374493972616273e+00 -1.630216304788753900e+00 -1.582139440423739885e+00 -1.597105071718729175e+00 -1.597105071718729175e+00 -1.410847617336350446e+00 -1.201347804264487396e+00 -1.196584185247542731e+00 -1.245089721095706592e+00 -1.467176720882275021e+00 -1.557238250022309645e+00 -1.723423641787078298e+00 -1.970323914240676100e+00 -2.084746335380498916e+00 -2.325477673844056348e+00 -2.550577704761487041e+00 -2.682230498480418390e+00 -2.748774478066107196e+00 -3.186583043404333626e+00 -3.186583043404333626e+00 -3.490940503316923404e+00 -3.722657321848001466e+00 -3.756603403711746392e+00 -3.945134117945051866e+00 -4.162745800728537837e+00 -4.201341543595660255e+00 -4.444004414947009707e+00 -4.615437804195530624e+00 -4.667882183374615579e+00 -4.911577365243769755e+00
5.515567619439169178e+00 5.422987816045978349e+00 5.422987816045978349e+00 5.422987816045978349e+00 5.422987816045978349e+00 5.000728246534873023e+00 5.379996624478765810e+00 5.603641896067619754e+00 4.998371214695775500e+00 4.929721158868980879e+00 4.371967460469281974e+00 3.762779418423842337e+00 3.270592746175144505e+00 3.270592746175144505e+00 2.877820080437529793e+00 2.729275038585466273e+00 2.563921952213558342e+00 2.399925262209555932e+00 2.151558779212548345e+00 1.802983143099617269e+00 1.581466091690030051e+00 1.443049995268524288e+00 1.076125517653290009e+00 9.861286617500900631e-01 8.540457820147311363e-01 7.730741758500030425e-01 7.218083151308302137e-01 3.532524766384212977e-01 1.258775677233585355e-01 1.258775677233585355e-01 -1.054629862925320627e-01 -8.992782209093519441e-01 -1.070930064632013901e+00 -1.200487259596215717e+00 -1.488078594053697579e+00 -1.649006171133924337e+00 -1.653118048693841047e+00 -1.742266769591862108e+00 -1.614140276396917262e+00 -1.568898393053334672e+00 -1.768352673927787722e+00 -2.033701432117410057e+00 -2.626633006151886995e+00 -3.306076791775263146e+00 -3.306076791775263146e+00 -3.764181512738050017e+00 -4.104579972334613913e+00 -4.270040386760195261e+00 -4.099517820798357803e+00 -3.840311874597511110e+00 -3.845936939489440931e+00 6.003737231685515319e-01 1.080421213470332376e+00 1.157005641638674476e+00 1.254665388870908282e+00 1.376239029339307196e+00 1.376239029339307196e+00 1.469479074787211292e+00 1.618533877911907615e+00 1.756739793088021084e+00 1.837628958663318324e+00 2.129722607461737915e+00 2.344983096183097526e+00 2.671546969654464920e+00 2.769677317434806607e+00 2.820809245602188486e+00 2.840854131319155762e+00 2.633800041558675975e+00 2.633800041558675975e+00 2.420111468622695661e+00 1.753143464897852999e+00 1.208344792126707423e+00 7.084094709721693306e-01 8.812535543291640794e-01 9.291074978310174259e-01 8.425670335826315194e-01 3.300409311658930589e-01 1.362587792537316989e-01 -5.390829353266171076e-01 -9.710383591392479641e-01 -1.062589248587184176e+00 -1.259193503009728987e+00 -1.386788391018586974e+00 -1.386788391018586974e+00 -1.470182774530995218e+00 -1.511227638571390308e+00 -1.536374493972616273e+00 -1.515060495423986353e+00 -1.589458244609023296e+00 -1.587744936071665114e+00 -1.535757749605792144e+00 -1.447984406367335275e+00 -1.301575864646543179e+00 -1.220407240216513589e+00 -1.394187796304245275e+00 -1.394187796304245275e+00 -1.624566580289725337e+00 -1.880411837429541544e+00 -1.970323914240676100e+00 -2.146617898502001687e+00 -2.390735627872429436e+00 -2.550577704761487041e+00 -2.852059282831453935e+00 -3.037613693616895816e+00 -3.124942110087388869e+00 -3.434089837177314752e+00 -3.704627938709975865e+00 -3.704627938709975865e+00 -3.929789850401484763e+00 -4.176433820235752492e+00 -4.176433820235752492e+00 -4.337378393458308778e+00 -4.559206977528392990e+00 -4.615437804195530624e+00 -4.753299904252857644e+00 -5.007776250190872247e+00
5.515567619439169178e+00 5.515567619439169178e+00 5.515567619439169178e+00 5.515567619439169178e+00 5.515567619439169178e+00 4.712074164212707750e+00 5.604931022852552402e+00 5.604931022852552402e+00 4.969355178087862868e+00 4.568558863126094494e+00 4.154520543639900865e+00 3.880539545507884380e+00 3.353161408544731881e+00 3.155150384045106726e+00 2.962965928135038673e+00 2.782986276478736087e+00 2.524864425905759102e+00 2.281090210309213440e+00 2.221510942671980793e+00 2.037315994712667777e+00 1.679295560235009255e+00 1.288412421375752626e+00 1.288412421375752626e+00 9.832555133263009006e-01 8.570880432136075422e-01 7.730741758500030425e-01 7.575055321941477349e-01 3.888698403374641899e-01 2.934974251635711906e-01 3.889034363169841663e-02 -5.487568129356436286e-02 -4.161230409810195985e-01 -1.088322114758615511e+00 -1.324984402234041347e+00 -1.324984402234041347e+00 -1.588943322140233372e+00 -1.741258067625491401e+00 -1.742266769591862108e+00 -1.721062181663066903e+00 -1.530015018509171876e+00 -1.768352673927787722e+00 -2.355118600724610989e+00 -2.590054614728396931e+00 -2.978282250159398181e+00 -3.519752693093379570e+00 -3.911623299001190102e+00 -3.911623299001190102e+00 -4.223643647222096398e+00 -3.950272066522569681e+00 -3.950272066522569681e+00 -3.384782180247846828e+00 4.803116250149704336e-01 1.080421213470332376e+00 1.133487279452608965e+00 1.249602298985647009e+00 1.305560547170835584e+00 1.402286937882670337e+00 1.450797905255048148e+00 1.516289389473488569e+00 1.729485953960447464e+00 2.006819167921770397e+00 2.006819167921770397e+00 2.378802555837546517e+00 2.664853061902724640e+00 2.769677317434806607e+00 2.789463999037873787e+00 2.865045935378362607e+00 2.841306909742566056e+00 2.436591929235266463e+00 2.274782519639459544e+00 2.013943790560276170e+00 1.076229351909244514e+00 6.204885008530146573e-01 6.204885008530146573e-01 8.110786800601594848e-01 4.706464801191428404e-01 3.300409311658930589e-01 -2.257311095532397727e-01 -8.989821516496305787e-01 -9.710383591392479641e-01 -1.190647003826395212e+00 -1.326404977264535434e+00 -1.357159233552505118e+00 -1.441476870456803283e+00 -1.505911980230371316e+00 -1.537705629033175203e+00 -1.545764029072030477e+00 -1.507126185898175930e+00 -1.507126185898175930e+00 -1.634660166097496203e+00 -1.528551281855558663e+00 -1.447984406367335275e+00 -1.348310232055742741e+00 -1.270668201632267902e+00 -1.287354498687175663e+00 -1.587974602591485596e+00 -1.703890243029732243e+00 -1.823724528955138924e+00 -2.096821638361201057e+00 -2.361542169617568021e+00 -2.361542169617568021e+00 -2.598425735433115502e+00 -2.972535578079317009e+00 -3.037613693616895816e+00 -3.233691102718170285e+00 -3.500638538186066739e+00 -3.573195385556807935e+00 -3.839877630524425101e+00 -3.996082690838466345e+00 -4.127943950980843546e+00 -4.355423749255185939e+00 -4.493849922716940171e+00 -4.493849922716940171e+00 -4.681100796937998076e+00 -4.935561862912187792e+00 -5.007776250190872247e+00
5.608147422832360895e+00 5.608147422832360895e+00 5.608147422832360895e+00 5.608147422832360895e+00 5.608147422832360895e+00 4.726428958807808556e+00 5.359268785471374308e+00 5.253337543480008698e+00 4.969361361124834175e+00 4.946270325697717851e+00 4.190899380922025408e+00 3.606558547375867896e+00 3.606558547375867896e+00 3.240296231742615607e+00 2.928710819168343527e+00 2.782986276478736087e+00 2.681192270472078754e+00 2.405705890631293364e+00 2.221510942671980793e+00 1.900665430049715665e+00 1.726083180006000362e+00 1.510030285621705159e+00 1.106727568196913314e+00 1.036106191428411760e+00 9.152266083871859470e-01 8.063971869790305114e-01 6.130515481528459043e-01 6.130515481528459043e-01 3.172021923635011675e-01 1.107777153533717890e-01 -5.487568129356436286e-02 -7.238538558041277549e-01 -1.167197600302193550e+00 -1.236956044112612396e+00 -1.478536097472370692e+00 -1.633167885727336621e+00 -1.738382784603803355e+00 -1.849188674858011749e+00 -1.663047889075256913e+00 -1.663047889075256913e+00 -1.686316290153059949e+00 -2.189924383573378819e+00 -2.590054614728396931e+00 -2.948608352988061121e+00 -3.603588273975464773e+00 -3.810954182379741262e+00 -4.168790339848796656e+00 -4.193762963412019928e+00 -4.144547370614247050e+00 -3.620390195809861211e+00 -2.442323377400583251e+00 -2.442323377400583251e+00 9.950539793247820120e-01 1.177037389178041238e+00 1.249602298985647009e+00 1.282997360429606992e+00 1.386700962151735883e+00 1.450797905255048148e+00 1.620997191529778725e+00 1.745020243488272893e+00 1.880490971140104772e+00 2.231954287685559812e+00 2.468268090404342363e+00 2.541333216284074492e+00 2.756075358715617263e+00 2.829879428428084154e+00 2.829879428428084154e+00 2.947835006408611846e+00 2.636244482227043218e+00 2.274782519639459544e+00 1.345169469154254838e+00 8.405936103889015687e-01 7.853019677949367727e-01 6.878588804559191416e-01 6.566469520076718691e-01 5.046956359715997209e-01 6.777077435736719724e-02 -7.726049734052218287e-01 -7.726049734052218287e-01 -1.147906269754713993e+00 -1.263963370888534499e+00 -1.326404977264535434e+00 -1.418716166695686010e+00 -1.461962160792388499e+00 -1.505911980230371316e+00 -1.543563469228929730e+00 -1.582182104132216383e+00 -1.529794120172040195e+00 -1.554510598417328193e+00 -1.621447327663405380e+00 -1.621447327663405380e+00 -1.525656655193112332e+00 -1.394415842720825527e+00 -1.367101643651227105e+00 -1.367101643651227105e+00 -1.599374738546696761e+00 -2.041360520543889834e+00 -2.041360520543889834e+00 -2.349889306411475864e+00 -2.588141474281193677e+00 -2.644402718984210310e+00 -3.006403040194531862e+00 -3.129080781577121773e+00 -3.215387737574029181e+00 -3.409719704850766142e+00 -3.596859605463351706e+00 -3.602541954622998865e+00 -3.915814137798235173e+00 -4.095621805139452398e+00 -4.095621805139452398e+00 -4.305389552601983638e+00 -4.597757065187076719e+00 -4.725490426126520482e+00 -4.800363226898179292e+00 -5.017783362433894112e+00 -5.044973006523930437e+00
5.700727226225563271e+00 5.700727226225563271e+00 5.700727226225563271e+00 5.700727226225563271e+00 4.956902434286217130e+00 4.956902434286217130e+00 5.349205050181187637e+00 5.112991290941801381e+00 4.969361361124834175e+00 4.967326516477131193e+00 4.165970412997033634e+00 3.813239898717955878e+00 3.435732571330232688e+00 3.308537694757362146e+00 3.083288538606542062e+00 2.827619776756250314e+00 2.571000784752381030e+00 2.571000784752381030e+00 2.274032485836638084e+00 1.953584612853385361e+00 1.726083180006000362e+00 1.557248561379037888e+00 1.202468692161153374e+00 1.036106191428411760e+00 8.960771615678515545e-01 8.471580144861903250e-01 7.663125280484993640e-01 4.874571750643263979e-01 2.386137083715480778e-01 2.386137083715480778e-01 4.878705404500090215e-02 -1.062318232969519771e+00 -1.167197600302193550e+00 -1.296618678574327443e+00 -1.505247111844256747e+00 -1.633167885727336621e+00 -1.776650954562688733e+00 -1.799228272061328182e+00 -1.767415765061578714e+00 -1.550212460043730589e+00 -1.580096789076920860e+00 -1.797698063916748135e+00 -2.518803602513336681e+00 -3.287433420644886084e+00 -3.287433420644886084e+00 -3.871944457282611829e+00 -4.180755994402297837e+00 -4.193762963412019928e+00 -4.030822620341886875e+00 -3.587759340409559350e+00 -3.305929447185762093e+00 8.079451998948095071e-01 1.048487648002248918e+00 1.117705052180715919e+00 1.211157230048476752e+00 1.318683606153251864e+00 1.318683606153251864e+00 1.444628731328206239e+00 1.678833271407306871e+00 1.745020243488272893e+00 1.965722311355741603e+00 2.303876182933640493e+00 2.628629587149563296e+00 2.689284223350688396e+00 2.711703336970344047e+00 2.769370253269788140e+00 2.822851552023517563e+00 2.773004112834204005e+00 2.109754176781089008e+00 1.720859029309375288e+00 1.234201416226678560e+00 1.161057630300588617e+00 9.354555236086571357e-01 6.317149439726694737e-01 3.036147938584016215e-01 3.036147938584016215e-01 -3.497507418546290658e-01 -1.031103947050004521e+00 -1.094662070261116726e+00 -1.281405679538436759e+00 -1.390101448831619235e+00 -1.356697929086223331e+00 -1.477664230435272508e+00 -1.456186311585071280e+00 -1.485691563616823974e+00 -1.522678001946198290e+00 -1.564105166602834052e+00 -1.564105166602834052e+00 -1.549187202011234721e+00 -1.579707051331365131e+00 -1.560017854901605716e+00 -1.607363750074236597e+00 -1.515341985228423338e+00 -1.366152046292406830e+00 -1.570421215089557343e+00 -1.759210340475139578e+00 -1.895610135877083380e+00 -2.219168648244228770e+00 -2.475967162834275204e+00 -2.475967162834275204e+00 -2.839532155898815802e+00 -3.129674159806891787e+00 -3.129080781577121773e+00 -3.311502415917487063e+00 -3.550293856576955953e+00 -3.596859605463351706e+00 -3.806696744482366945e+00 -4.071886016129646180e+00 -4.057521386353000636e+00 -4.267269629285191712e+00 -4.408785125399669269e+00 -4.473821183806459878e+00 -4.674022419024702835e+00 -4.902857351332597702e+00 -4.902857351332597702e+00 -5.129360883462511289e+00
5.700727226225563271e+00 5.700727226225563271e+00 5.700727226225563271e+00 5.700727226225563271e+00 5.700727226225563271e+00 4.781070345303498392e+00 5.607509276422433686e+00 5.607509276422433686e+00 4.969367544161805483e+00 4.862867114120781764e+00 4.862867114120781764e+00 4.023842430093557354e+00 3.479755144909653986e+00 3.308537694757362146e+00 3.123902829070709153e+00 2.843397206774313624e+00 2.722791072906475041e+00 2.459718101811667168e+00 2.312085262390962015e+00 2.138679004758537339e+00 1.773984739133236399e+00 1.411517947450227739e+00 1.411517947450227739e+00 1.106647561183231598e+00 9.517860174893837399e-01 8.471580144861903250e-01 8.323211354654612704e-01 5.992219547428301318e-01 3.412903581869973779e-01 1.736906534220512555e-01 2.394117317894306832e-02 -1.141908863971613730e+00 -1.218056501455885066e+00 -1.495964826560466809e+00 -1.646191832115742049e+00 -1.703534432021132305e+00 -1.756559043155696553e+00 -1.703620092896979799e+00 -1.703620092896979799e+00 -1.568328547968083964e+00 -1.896275919718707792e+00 -2.179539623827236205e+00 -2.620882702052566238e+00 -3.361131278913803477e+00 -3.612119540142716190e+00 -4.009150408356181750e+00 -3.991838303419498857e+00 -4.123648571240360994e+00 -3.754911438253667022e+00 -3.614437401184948051e+00 -3.369305096992983639e+00 -8.761439658649194939e-01 9.831723460259791381e-01 9.831723460259791381e-01 1.136800956099495163e+00 1.317449879584770667e+00 1.381039305456488453e+00 1.453369357836897358e+00 1.757289497812114298e+00 1.843116875331108462e+00 2.175214213788643658e+00 2.354728116127170701e+00 2.509948909991460919e+00 2.661725327915877237e+00 2.715149165063396985e+00 2.715149165063396985e+00 2.798015172771157744e+00 2.444307270525763798e+00 2.109754176781089008e+00 1.742609608449616321e+00 1.306193863502731034e+00 1.161057630300588617e+00 7.938754687134228494e-01 5.907250533886719834e-01 4.538604422602069421e-01 -1.244337437513135664e-01 -9.007091694024533801e-01 -9.007091694024533801e-01 -1.239102536081404748e+00 -1.373438892916928111e+00 -1.390101448831619235e+00 -1.426922633529541073e+00 -1.486125117637149495e+00 -1.456186311585071280e+00 -1.478091149034332696e+00 -1.549640692381065721e+00 -1.565745283169309943e+00 -1.561917282512173211e+00 -1.633496520667723662e+00 -1.590972142894065744e+00 -1.568485634297717812e+00 -1.538381849482864938e+00 -1.538381849482864938e+00 -1.629273570860898968e+00 -1.696469927527197274e+00 -1.759210340475139578e+00 -2.007118068378840103e+00 -2.324865690840477672e+00 -2.399621708748985505e+00 -2.706601655530185724e+00 -2.949311796907847061e+00 -3.018472460565006621e+00 -3.251067988597116543e+00 -3.500627504268190915e+00 -3.500627504268190915e+00 -3.740856339766415850e+00 -3.989623487735418639e+00 -4.071886016129646180e+00 -4.245290475363735716e+00 -4.364984682484754686e+00 -4.408785125399669269e+00 -4.566176092308751322e+00 -4.729571323975498842e+00 -4.848847810797053626e+00 -5.059094857681223800e+00 -5.323254178893782829e+00
5.627742322834872191e+00 5.627742322834872191e+00 5.627742322834872191e+00 5.627742322834872191e+00 5.627742322834872191e+00 4.775704219225805680e+00 5.672399478244789961e+00 5.192987381453447071e+00 5.010358605401403764e+00 4.924787774419853825e+00 4.514116710948215427e+00 3.661233166046155230e+00 3.511396260291093530e+00 3.326743879845820651e+00 3.021419001253365710e+00 2.729816241167735136e+00 2.729816241167735136e+00 2.478056354405607564e+00 2.185477845224963911e+00 1.990720916887435132e+00 1.787048246761825165e+00 1.430802943471178867e+00 1.277531984735711390e+00 1.143546022021194597e+00 9.508809016514339074e-01 8.827954421499977222e-01 7.769661045043431136e-01 7.312358491973788288e-01 4.030374340251516863e-01 1.988943999756115910e-01 -3.946620917496758696e-01 -3.946620917496758696e-01 -1.390187418599794889e+00 -1.575095050719427681e+00 -1.646191832115742049e+00 -1.726758063506289131e+00 -1.669531701074702168e+00 -1.712200929980333797e+00 -1.593944680890998722e+00 -1.540575217727037538e+00 -1.717400939525159487e+00 -2.206370272804547117e+00 -3.051867900155992075e+00 -3.051867900155992075e+00 -3.609408096038706493e+00 -3.957298238590420958e+00 -3.991838303419498857e+00 -4.026861945631454276e+00 -3.860624955337187636e+00 -3.614437401184948051e+00 -3.576531588240011494e+00 -3.468104261290481549e+00 -4.775113111189352999e-01 9.665785224521211694e-01 1.223538369690657657e+00 1.223538369690657657e+00 1.382925526406119543e+00 1.621410969488273457e+00 1.621410969488273457e+00 2.018931257135012203e+00 2.289732642022712206e+00 2.354728116127170701e+00 2.541125258769151962e+00 2.620365039588987699e+00 2.674091904243334206e+00 2.734868668167424133e+00 2.709232221875424340e+00 2.704605193265584351e+00 1.570523381010665354e+00 1.380552491988091823e+00 1.380552491988091823e+00 9.564763272760944401e-01 7.184220890858101782e-01 5.907250533886719834e-01 3.048621915132303517e-01 -5.662880855833354321e-01 -7.623389274466940702e-01 -1.263627562441603125e+00 -1.448980953054261445e+00 -1.363069187424976292e+00 -1.456077534883789992e+00 -1.495391754235910753e+00 -1.495391754235910753e+00 -1.460979950315314246e+00 -1.536000868834475286e+00 -1.549640692381065721e+00 -1.572298006645800106e+00 -1.695123963660732480e+00 -1.633496520667723662e+00 -1.588002238161414947e+00 -1.538855545336216046e+00 -1.534137197132336983e+00 -1.675862047445761505e+00 -1.702997520691671651e+00 -1.702997520691671651e+00 -1.842585880976617574e+00 -2.263731529125192043e+00 -2.263731529125192043e+00 -2.613559084439470936e+00 -2.928700498977578448e+00 -2.949311796907847061e+00 -3.135976086960658549e+00 -3.386703251688753635e+00 -3.443308718224177056e+00 -3.710632228973789193e+00 -3.886717287812566646e+00 -3.921655427487939161e+00 -4.232494883804098329e+00 -4.303110322755982153e+00 -4.303110322755982153e+00 -4.544599968929375677e+00 -4.638680335640272823e+00 -4.729571323975498842e+00 -4.915724661548197538e+00 -5.199077688473940029e+00 -5.266084617336076690e+00
5.319452050186743719e+00 5.319452050186743719e+00 5.319452050186743719e+00 5.319452050186743719e+00 5.125624772826186337e+00 4.796718124075900924e+00 5.233450492001397336e+00 5.340938826320543065e+00 5.155713410993700840e+00 5.155713410993700840e+00 4.506714004177023725e+00 3.788898182853411178e+00 3.511396260291093530e+00 3.351627011305930548e+00 2.955695639640313566e+00 2.832124432583486673e+00 2.583731639539834646e+00 2.522626684772120154e+00 2.358746974336366264e+00 2.048279458640184014e+00 1.583375576636215420e+00 1.583375576636215420e+00 1.304186652868496443e+00 1.014054135554471658e+00 9.508809016514339074e-01 8.929239323512436766e-01 7.765657740510615303e-01 7.312358491973788288e-01 4.017604223371039618e-01 3.862491990281627374e-01 1.889787911836132428e-01 -1.137699448833488169e+00 -1.473787032459087598e+00 -1.473787032459087598e+00 -1.691706953517946088e+00 -1.784045971840828804e+00 -1.784045971840828804e+00 -1.625173587899339633e+00 -1.563757353709439801e+00 -1.540575217727037538e+00 -1.648541080061750153e+00 -2.222132102747259363e+00 -2.637501014597202875e+00 -3.412484844220184943e+00 -3.581709028454199917e+00 -3.854978715481101492e+00 -4.032743082156476255e+00 -4.050172476528857146e+00 -4.050172476528857146e+00 -3.796315130010865513e+00 -3.642187347170985134e+00 -3.468104261290481549e+00 -3.250699940509478303e+00 8.945403161416050075e-01 1.079211836381321454e+00 1.270374827184542088e+00 1.356890853567105815e+00 1.472448015471909288e+00 1.887210339925012637e+00 2.223871760979756473e+00 2.223871760979756473e+00 2.491330161116903419e+00 2.556932232667210148e+00 2.620365039588987699e+00 2.626411057339033572e+00 2.636153951108807458e+00 2.709232221875424340e+00 1.913396236320680011e+00 8.536203335814934734e-01 1.210351745244181876e+00 1.018495375526567326e+00 8.975775676100756773e-01 8.810329419459050904e-01 3.970704043874848654e-01 -2.567069954045014812e-01 -2.567069954045014812e-01 -1.066659804330671424e+00 -1.354653315807466951e+00 -1.448980953054261445e+00 -1.575586565665666017e+00 -1.613369131559054814e+00 -1.522022442556892230e+00 -1.457362518051271927e+00 -1.412120047317054761e+00 -1.460120934124146341e+00 -1.551178999760962629e+00 -1.619432022377351066e+00 -1.619432022377351066e+00 -1.572886860610415827e+00 -1.588665849082579129e+00 -1.538855545336216046e+00 -1.603094628307859093e+00 -1.706991518733403268e+00 -1.829827896172176338e+00 -1.684665763908945069e+00 -2.085955293297974578e+00 -2.192949856801310826e+00 -2.533441345407869694e+00 -2.884133471096287149e+00 -2.884133471096287149e+00 -3.115892391162999431e+00 -3.337276986319347216e+00 -3.386703251688753635e+00 -3.575457676138930729e+00 -3.802459685911361742e+00 -4.026715223552010947e+00 -4.026715223552010947e+00 -4.253261506214418119e+00 -4.413284884238960259e+00 -4.452015404250548869e+00 -4.609881018964761878e+00 -4.724948659533765749e+00 -4.805325859307441050e+00 -5.057190067228137131e+00 -5.158608879775071543e+00 -5.324310617565169323e+00
5.319452050186743719e+00 5.319452050186743719e+00 5.319452050186743719e+00 5.319452050186743719e+00 5.307279726222228433e+00 4.796718124075900924e+00 5.774639915548256397e+00 5.520032544464707591e+00 5.054260676832698529e+00 4.986708434718925886e+00 4.690705166420965355e+00 3.977687323470094682e+00 3.525411840238411365e+00 3.204833535055362947e+00 3.204833535055362947e+00 2.880413401852905508e+00 2.647017360318251633e+00 2.522626684772120154e+00 2.392775950310188637e+00 2.096583811173774237e+00 1.874191822463412871e+00 1.446047929412286992e+00 1.315316160915140253e+00 1.106443710333748109e+00 9.649249625967100119e-01 8.579022514341920758e-01 8.579022514341920758e-01 7.368300729916730241e-01 5.846103155713558985e-01 3.862491990281627374e-01 3.572593409243640661e-01 -3.547790165670444140e-01 -1.377616091723805614e+00 -1.615159637481010657e+00 -1.783507640780846781e+00 -1.863671831835560289e+00 -1.651109471618804614e+00 -1.587079178935200119e+00 -1.587079178935200119e+00 -1.598541299075397326e+00 -1.857942947433726122e+00 -2.222132102747259363e+00 -2.671002013032295341e+00 -3.332524707091610860e+00 -3.581709028454199917e+00 -3.791152105700748010e+00 -3.999286113279125310e+00 -4.016047433749549533e+00 -3.933275425109115986e+00 -3.610567432406122101e+00 -3.600553627553588765e+00 -3.330634677480892147e+00 -2.944073110581969299e+00 -2.944073110581969299e+00 9.774567163824996463e-01 1.244668814058640383e+00 1.356890853567105815e+00 1.525230352207267215e+00 1.952935746655451776e+00 2.078397990714675458e+00 2.415720308361926971e+00 2.467269669409599686e+00 2.525473797890317229e+00 2.586438829339163359e+00 2.562023504628569093e+00 2.562023504628569093e+00 2.360271204633777486e+00 1.420178030203841146e+00 8.536203335814934734e-01 6.787882513087957204e-01 9.121677787097144385e-01 8.975775676100756773e-01 5.660394184873371870e-01 1.634481009157245923e-01 -6.272978139226392802e-01 -9.843587882473001649e-01 -1.360575254038931758e+00 -1.571586017467978769e+00 -1.607865391004314581e+00 -1.686784427346498472e+00 -1.631269734116653325e+00 -1.631269734116653325e+00 -1.446153444876001393e+00 -1.505244834316626923e+00 -1.505244834316626923e+00 -1.595168450034023966e+00 -1.564222136182777056e+00 -1.574878441836244480e+00 -1.462373205818570554e+00 -1.409632419335983045e+00 -1.527171437431743328e+00 -1.559997630153275860e+00 -1.383807075730778102e+00 -1.532220213737988335e+00 -1.966758426336158827e+00 -2.387105979289956714e+00 -2.387105979289956714e+00 -2.726470522326240431e+00 -3.074151159338490480e+00 -3.094062161412511003e+00 -3.281741730813479752e+00 -3.540101224053771478e+00 -3.536857041255093481e+00 -3.770884857394107392e+00 -3.931117037646787438e+00 -3.947761433296619327e+00 -4.184332894102343658e+00 -4.367795987241651190e+00 -4.367795987241651190e+00 -4.537086822560993049e+00 -4.743738608524118661e+00 -4.724948659533765749e+00 -4.850343647337757247e+00 -5.042106076466875919e+00 -5.158608879775071543e+00 -5.374511030489388830e+00
5.319452050186743719e+00 5.319452050186743719e+00 5.319452050186743719e+00 5.137860038433175625e+00 5.137860038433175625e+00 4.817732028925993504e+00 5.826948511152563626e+00 5.520032544464707591e+00 5.098162748264004840e+00 5.048629095017998836e+00 4.690705166420965355e+00 3.815008766151305686e+00 3.569207689386585614e+00 3.392872761819406335e+00 3.058808446978747320e+00 2.771941973764062705e+00 2.771941973764062705e+00 2.551213519693331655e+00 2.259650943803998668e+00 2.096583811173774237e+00 1.874929486548974289e+00 1.448169239651793561e+00 1.315316160915140253e+00 1.168305573781209805e+00 1.007504105710183229e+00 9.308015870810131265e-01 8.354664900084344259e-01 8.001077582433360202e-01 7.412850527370493658e-01 5.377412622971550205e-01 2.954287860327143300e-01 2.954287860327143300e-01 -5.216476846153675906e-01 -1.105428726420529584e+00 -1.783507640780846781e+00 -1.632800041280000780e+00 -1.580380408134361314e+00 -1.645843056968991025e+00 -1.625905735618646819e+00 -1.620112944357276152e+00 -1.713748628289464060e+00 -2.223963752851561004e+00 -3.090317675929519226e+00 -3.329473038719543254e+00 -3.561559464902841476e+00 -3.951458440709891384e+00 -3.993338895841957559e+00 -3.993338895841957559e+00 -3.640566649271673061e+00 -3.238446506104938116e+00 -3.227373528395081959e+00 -2.859325496522569843e+00 -2.676730441851944420e+00 -2.411802312919370195e+00 1.142041417941832782e+00 1.250437414370910494e+00 1.375420835270581232e+00 1.815602579729574728e+00 2.018975958089497258e+00 2.155312667666111626e+00 2.396646615408726255e+00 2.497531418519962632e+00 2.497531418519962632e+00 2.572300321432829051e+00 2.571152152000664604e+00 2.316090474915292852e+00 2.075985873387494074e+00 1.179973449028171029e+00 1.005393942283656195e+00 8.939816531689006585e-01 8.570314108818052334e-01 7.373986964111043374e-01 3.251979229312730868e-01 -4.442230728219639935e-01 -4.442230728219639935e-01 -1.189744643778268385e+00 -1.521253966717393658e+00 -1.571586017467978769e+00 -1.779224651516279954e+00 -1.880170069440196157e+00 -1.799655780414637363e+00 -1.587233767528320794e+00 -1.508359413102559721e+00 -1.533003807378491734e+00 -1.531549446294118821e+00 -1.580048310503194164e+00 -1.580048310503194164e+00 -1.475997889692368448e+00 -1.340563266463393299e+00 -1.409632419335983045e+00 -1.393891303220482936e+00 -1.383237652669482287e+00 -1.383807075730778102e+00 -1.741865949978598227e+00 -2.134430171761440675e+00 -2.260400730379731105e+00 -2.580485822336222590e+00 -2.869051934925075376e+00 -2.864414767113471871e+00 -3.214522835376889986e+00 -3.451321120713279456e+00 -3.451321120713279456e+00 -3.647334568314466452e+00 -3.847199703607343313e+00 -3.931117037646787438e+00 -4.032637117531355564e+00 -4.171752614518026370e+00 -4.247882299607950607e+00 -4.417187837115493565e+00 -4.573530969055463302e+00 -4.607197437744201984e+00 -4.796086574602142605e+00 -4.979557251509724836e+00 -4.979557251509724836e+00 -5.153072194101768311e+00 -5.333311902346741462e+00
5.137860038433175625e+00 5.137860038433175625e+00 5.137860038433175625e+00 5.137860038433175625e+00 5.137860038433175625e+00 4.867817591965044599e+00 5.011805524220860342e+00 5.690244709312816340e+00 5.218550599955613656e+00 5.218550599955613656e+00 4.800535411736031044e+00 3.898762071943382868e+00 3.438866742381893715e+00 3.438866742381893715e+00 3.089414368213284856e+00 2.837559022769115646e+00 2.677762096684387139e+00 2.580671187582249893e+00 2.308032121835212447e+00 2.119394975694780303e+00 1.670813055440080408e+00 1.453833486138500053e+00 1.315036672129114237e+00 1.067173287551695493e+00 9.721294185294060419e-01 9.721294185294060419e-01 8.952267204519990251e-01 7.701852242271487459e-01 7.211710344134220074e-01 6.635373651333247302e-01 4.371834109238258992e-01 2.105862614343597949e-01 2.121111324262700548e-01 -5.414930156626070190e-02 -6.352251733894245245e-01 -1.566286109180123898e+00 -1.567852707735658324e+00 -1.706065005809768609e+00 -1.722364707482535229e+00 -1.658440110116526256e+00 -1.658440110116526256e+00 -2.097026899802106215e+00 -2.980249758807622662e+00 -3.329473038719543254e+00 -3.547393963993296317e+00 -3.965530298101229700e+00 -4.009141771310749114e+00 -3.742832019147680267e+00 -3.355302925603313557e+00 -3.281733865693103880e+00 -2.855623676967629088e+00 -2.667453916873034903e+00 -2.667453916873034903e+00 -2.647647773312995056e+00 7.351408276844414447e-01 1.250437414370910494e+00 1.393950816974057094e+00 1.882394232806684942e+00 2.018975958089497258e+00 2.282783664063087414e+00 2.377285337459258852e+00 2.422276046862749332e+00 2.519440378001860825e+00 2.554179057015725007e+00 2.554179057015725007e+00 2.272097288209466548e+00 1.521951368463016374e+00 1.179973449028171029e+00 6.277986162334510123e-01 8.929471998699782809e-01 8.570314108818052334e-01 5.230602682584583052e-01 2.303833433107456766e-02 -1.957804548894378771e-01 -1.065284233815418480e+00 -1.420531038919189193e+00 -1.489612654611154108e+00 -1.776311534961983352e+00 -1.981199095476163796e+00 -1.981199095476163796e+00 -1.907373598366259859e+00 -1.532445960994148093e+00 -1.508359413102559721e+00 -1.509949014767845821e+00 -1.588766704452505785e+00 -1.632859903557786874e+00 -1.530978383642304319e+00 -1.320794735251446861e+00 -1.558987308072822486e+00 -1.260334616295598398e+00 -1.409370253863146516e+00 -1.409370253863146516e+00 -1.673129266385186442e+00 -2.057770725904232823e+00 -2.134430171761440675e+00 -2.419623529994595401e+00 -2.689219128648629109e+00 -2.869051934925075376e+00 -3.063017681747755017e+00 -3.279730465740986922e+00 -3.290847162513482527e+00 -3.610554507743825248e+00 -3.814366672370054889e+00 -3.814366672370054889e+00 -4.015277660015183159e+00 -4.191573933404865393e+00 -4.191573933404865393e+00 -4.315291807089106868e+00 -4.498782930873917785e+00 -4.573530969055463302e+00 -4.723720076287585279e+00 -4.859529500746705644e+00 -4.896260523988850366e+00 -5.066880362944707450e+00 -5.164610583165766045e+00 -5.241326182713693882e+00
5.316391502497194388e+00 5.316391502497194388e+00 5.316391502497194388e+00 5.316391502497194388e+00 5.316391502497194388e+00 4.900983040330585183e+00 5.788826538635434282e+00 5.643558300026581875e+00 5.162220182296483273e+00 5.110549755317070897e+00 4.853668206336440250e+00 3.954543812685410664e+00 3.637112637867166320e+00 3.264869626205530118e+00 3.175925131497330689e+00 2.975728437631867784e+00 2.743674547090815263e+00 2.496809361666415761e+00 2.496809361666415761e+00 2.172791940298728797e+00 1.726897742773344735e+00 1.453833486138500053e+00 1.341803643580508298e+00 1.111967816076427695e+00 1.036319658678725553e+00 9.442921765162590741e-01 9.280812036538890197e-01 8.671226631226822690e-01 7.969456089609635585e-01 6.591194701290780111e-01 6.591194701290780111e-01 4.235844102525986865e-01 2.222956861519617966e-01 -5.414930156626070190e-02 6.533253124450127958e-02 -1.915123548405840426e-01 -1.567852707735658324e+00 -1.726845394443746073e+00 -1.512359564566384762e+00 -1.627591302363430525e+00 -1.670161349554148744e+00 -2.436508697209464280e+00 -2.436508697209464280e+00 -3.375187120741359514e+00 -3.742203492797145703e+00 -3.742203492797145703e+00 -3.819364920177716449e+00 -3.479137014949038154e+00 -3.355302925603313557e+00 -3.037288834750444977e+00 -2.819811173923546299e+00 -2.580550832002921346e+00 -2.605349350330153690e+00 -2.575846959598453445e+00 -2.410408398610711878e+00 1.064196634573292055e+00 1.660312797660143946e+00 1.660312797660143946e+00 2.029460710787025057e+00 2.280555004302642352e+00 2.377285337459258852e+00 2.393623295506343673e+00 2.446777921810942669e+00 2.515400214024185122e+00 2.414910609771533156e+00 1.904638918312004936e+00 1.640546592888669331e+00 6.912883963437665980e-01 8.725214555298351771e-01 8.725214555298351771e-01 5.944112765816769173e-01 1.708738405568312468e-01 2.303833433107456766e-02 -6.363353743651830596e-01 -1.346425876488144047e+00 -1.420531038919189193e+00 -1.783463181840267531e+00 -1.956188318923464120e+00 -1.996364512388591805e+00 -2.096139780330770641e+00 -1.976451354206312683e+00 -1.768235849200181953e+00 -1.489128270241478535e+00 -1.566620488650622312e+00 -1.566620488650622312e+00 -1.615415545599407476e+00 -1.351666265011933099e+00 -1.320794735251446861e+00 -1.226749927784696936e+00 -1.314508604742593123e+00 -1.390331657462036574e+00 -1.626594004998026533e+00 -1.881622079837539818e+00 -1.933537868766200596e+00 -2.294790422397700702e+00 -2.575708108136332442e+00 -2.575708108136332442e+00 -2.897155600962098010e+00 -3.196088239865974678e+00 -3.279730465740986922e+00 -3.423376252868577385e+00 -3.697303167226606568e+00 -3.765484510675618068e+00 -3.971507864523525555e+00 -4.126832944421249927e+00 -4.165384382215924219e+00 -4.375441023916949668e+00 -4.509598728140661095e+00 -4.509598728140661095e+00 -4.558931496367295111e+00 -4.700853800505315760e+00 -4.859529500746705644e+00 -4.945805859319326814e+00 -5.125951180205539082e+00 -5.164610583165766045e+00 -5.373572300453369088e+00
5.408971305890386105e+00 5.408971305890386105e+00 5.408971305890386105e+00 5.408971305890386105e+00 5.408971305890386105e+00 4.943261420764553549e+00 5.666332989791619923e+00 5.185966891126607692e+00 5.185966891126607692e+00 5.140135002571250666e+00 4.477456627786822629e+00 3.954543812685410664e+00 3.690605648929094151e+00 3.414584779957151817e+00 3.175925131497330689e+00 2.904874699653070103e+00 2.809866457678803719e+00 2.623393459492298518e+00 2.347208604077585026e+00 2.212981844478998372e+00 1.980083602484808747e+00 1.557473270273982191e+00 1.241465198177673201e+00 1.241465198177673201e+00 1.073073095181377390e+00 9.777543373050956443e-01 9.280812036538890197e-01 8.916141128195327337e-01 8.637681052926935443e-01 7.746020993811337796e-01 6.992515273728926450e-01 7.071570885581007770e-01 4.758408134844532844e-01 2.476828434533036583e-01 8.662609992365216671e-02 8.662609992365216671e-02 -1.669170591295774109e-01 -8.298556414415921845e-01 -1.512359564566384762e+00 -1.580288396363064285e+00 -1.353451741461842328e+00 -1.543935817020557266e+00 -2.033099022587250282e+00 -2.650984578392655777e+00 -3.441624186636193627e+00 -3.668286550346762986e+00 -3.506070477639308791e+00 -3.506070477639308791e+00 -3.205555388820247931e+00 -3.057949959473346802e+00 -2.819811173923546299e+00 -2.873472323315338084e+00 -2.650818873401275866e+00 -2.575846959598453445e+00 -9.886192926553536431e-01 9.793406049826816062e-01 1.373960577645454206e+00 1.917365399565051920e+00 2.054723159789936027e+00 2.157528062396020463e+00 2.317837538916373674e+00 2.396984368112420771e+00 2.396984368112420771e+00 2.445159975315700951e+00 2.120677693356652238e+00 1.904638918312004936e+00 1.416677188628086448e+00 9.336607106055678784e-01 8.494309361955921789e-01 7.364940472736699606e-01 4.428268152465270058e-01 2.958753532933753316e-01 -3.794829145180214081e-01 -1.214597432119061571e+00 -1.214597432119061571e+00 -1.602802809717084331e+00 -1.940549523488199757e+00 -1.956188318923464120e+00 -2.186375221453761064e+00 -2.154541138979881865e+00 -1.976451354206312683e+00 -1.590070571651330145e+00 -1.533438934303937629e+00 -1.513147974150909958e+00 -1.589494258703931129e+00 -1.454494417372510728e+00 -1.325329682696240408e+00 -1.259990697838039964e+00 -1.242508823106739380e+00 -1.518613160012098451e+00 -1.518613160012098451e+00 -1.829706290908879041e+00 -2.196066784968556895e+00 -2.196066784968556895e+00 -2.410241393861922710e+00 -2.746206491210441136e+00 -2.809253039407360486e+00 -3.014003468437667088e+00 -3.331467635839740371e+00 -3.333347156059684124e+00 -3.589560163796511549e+00 -3.734993495488200033e+00 -3.880736782777947536e+00 -4.085360077388934030e+00 -4.317839559104788449e+00 -4.317839559104788449e+00 -4.442675430811457993e+00 -4.634038107520622951e+00 -4.662979409069722969e+00 -4.760584283974350406e+00 -4.842534784234494794e+00 -4.887762090731706976e+00 -5.120904120287409711e+00 -5.218420751436781302e+00 -5.262524840547473381e+00 -5.443492901191492095e+00
5.408971305890386105e+00 5.408971305890386105e+00 5.408971305890386105e+00 5.408971305890386105e+00 5.408971305890386105e+00 4.975762142206176186e+00 5.543839440947814445e+00 5.660409676708480831e+00 5.105889764637348449e+00 5.156684169400010731e+00 4.906801000936857449e+00 4.055459351804836743e+00 3.610527354527831356e+00 3.610527354527831356e+00 3.315099709955879437e+00 2.977396428870701328e+00 2.809866457678803719e+00 2.678446686819863753e+00 2.396050813999021312e+00 2.212981844478998372e+00 1.800145302552273119e+00 1.663093722133240693e+00 1.426508868131213692e+00 1.158292388219358093e+00 1.038763474675737708e+00 1.038763474675737708e+00 9.756317314538955898e-01 9.078857164373144162e-01 8.637681052926935443e-01 8.877864869636454825e-01 8.575682915778312099e-01 7.071570885581007770e-01 6.225243445823456234e-01 4.481542010677315169e-01 2.818398552441667704e-01 1.359059781076797924e-01 1.451235839600390487e-01 -1.237051496761887165e-01 -1.141227981933768509e+00 -1.147730890695994432e+00 -1.147730890695994432e+00 -6.398205421663856196e-01 -7.258037854920823539e-01 -2.650984578392655777e+00 -3.134064582154313161e+00 -3.336828655401082866e+00 -3.493990351792944704e+00 -3.293045352472867560e+00 -3.193294320683158105e+00 -3.081845847465003896e+00 -3.035592787045135132e+00 -2.861080627762565332e+00 -2.861080627762565332e+00 -2.626405204875881250e+00 -1.955434295242126641e+00 1.531787568954738887e+00 1.531787568954738887e+00 1.960352013335425525e+00 2.127747071942116097e+00 2.231669760732870600e+00 2.259440250958809848e+00 2.355791765785104630e+00 2.409425562564879275e+00 2.271418503468049188e+00 1.777494286503099152e+00 1.611356350687611183e+00 9.591864400152635417e-01 8.717714115369588068e-01 8.717714115369588068e-01 6.004671963116773314e-01 2.967217415866507668e-02 2.967217415866507668e-02 -7.636570940570465149e-01 -1.439727353083918082e+00 -1.558950731294867831e+00 -1.810648458975480324e+00 -2.048949563326626588e+00 -2.131567431091788478e+00 -2.304433689593406775e+00 -2.333923082184115039e+00 -2.044258394157850045e+00 -1.586839401492959656e+00 -1.556032146713267839e+00 -1.556032146713267839e+00 -1.570529653812624993e+00 -1.373193446816319163e+00 -1.325329682696240408e+00 -1.240721501373637903e+00 -1.411513410004149316e+00 -1.450318125395010149e+00 -1.782558861494857982e+00 -2.022601141659130519e+00 -2.115356372304591837e+00 -2.398025582992647564e+00 -2.611154675623021060e+00 -2.611154675623021060e+00 -2.918579186414247850e+00 -3.254307216165556405e+00 -3.331467635839740371e+00 -3.501059926336960615e+00 -3.687332670799093215e+00 -3.734993495488200033e+00 -4.028946429591956147e+00 -4.191635583497198780e+00 -4.225618508578920185e+00 -4.384021165263466635e+00 -4.547441454769403535e+00 -4.580174875047647198e+00 -4.733321192895148855e+00 -4.869249660680923242e+00 -4.869249660680923242e+00 -4.987975291375990494e+00 -5.158774465741548632e+00 -5.218420751436781302e+00 -5.426465718835912000e+00 -5.548925388155499405e+00
5.501551109283576935e+00 5.501551109283576935e+00 5.501551109283576935e+00 5.501551109283576935e+00 5.501551109283576935e+00 4.718946703760408923e+00 4.718946703760408923e+00 5.673752337846391214e+00 5.049559346978217178e+00 5.156684169400010731e+00 4.959933795537266654e+00 4.131067397153483256e+00 3.791661702304830683e+00 3.626477919485382895e+00 3.443655208534265988e+00 3.152458238867899887e+00 2.869742429995884248e+00 2.576151105863271784e+00 2.576151105863271784e+00 2.270536536291912100e+00 1.883550599468370557e+00 1.663093722133240693e+00 1.542313291664210162e+00 1.227548419866538065e+00 1.124823952336312383e+00 1.035791858871754068e+00 1.111313717732550277e+00 1.057047602285565269e+00 9.588520461953189411e-01 1.046130327967616402e+00 1.032044228106082207e+00 9.626873106963342863e-01 7.167531230993813285e-01 4.885139820031618174e-01 4.885139820031618174e-01 3.066567707614427096e-01 1.817542598469533421e-01 -4.812081316868865311e-01 -3.356593312450095179e-01 -1.122687190160218534e-01 -4.392761594545041004e-01 -2.885566152672951468e-01 -1.318485973484991858e-01 -1.965297879492822419e+00 -3.010045430180044779e+00 -3.023708447069491712e+00 -3.280563747876364289e+00 -3.250777688975128754e+00 -3.153794178386208902e+00 -3.153794178386208902e+00 -3.022126146559568571e+00 -2.921268015786593342e+00 -2.824757453257068729e+00 -2.640166175829222084e+00 -1.118158910086552549e+00 8.009002583780152618e-01 1.682111639638913303e+00 1.742373378400021267e+00 2.022191836974957191e+00 2.205361336104044057e+00 2.276444318242382359e+00 2.276444318242382359e+00 2.273927038149569313e+00 1.955561169577679781e+00 1.777494286503099152e+00 1.332261285283481866e+00 8.611286952451373544e-01 7.809568682448582155e-01 6.698842212311900690e-01 3.152399475037355181e-01 2.060894462798930626e-01 -5.371686635725524406e-01 -1.325067514399000057e+00 -1.325067514399000057e+00 -1.754920987936121834e+00 -2.006525727513613688e+00 -2.048949563326626588e+00 -2.327811052540213588e+00 -2.468045984226479472e+00 -2.333923082184115039e+00 -2.087453954944105572e+00 -1.584036373107545970e+00 -1.551918168527427699e+00 -1.539081009012019274e+00 -1.481150983087936579e+00 -1.429114507896330100e+00 -1.245238918706470743e+00 -1.356914237953763758e+00 -1.356914237953763758e+00 -1.565107273416934230e+00 -1.897568612993407289e+00 -2.022601141659130519e+00 -2.213644487701963648e+00 -2.503678547728447334e+00 -2.557973456245341115e+00 -2.769415190586730358e+00 -3.048294237467606749e+00 -3.103133197254726028e+00 -3.370978662688225658e+00 -3.608692319598177711e+00 -3.608692319598177711e+00 -3.859234387816837142e+00 -4.144591692277430184e+00 -4.191635583497198780e+00 -4.341100216920970034e+00 -4.526697428296873937e+00 -4.547441454769403535e+00 -4.716683876865339187e+00 -4.832681906609343159e+00 -4.837771980328477106e+00 -5.003618778061443173e+00 -5.114467231041620821e+00 -5.114467231041620821e+00 -5.383361258073065869e+00 -5.439357148674005771e+00 -5.548925388155499405e+00
5.594130912676767764e+00 5.594130912676767764e+00 5.594130912676767764e+00 5.594130912676767764e+00 5.594130912676767764e+00 4.716106963873800240e+00 5.421345892104009856e+00 5.388255359532819533e+00 5.010525296340780699e+00 5.173233336228753920e+00 4.597523225801277924e+00 4.007684602838158305e+00 4.007684602838158305e+00 3.634975861780099127e+00 3.332853488081882087e+00 3.060989030347263995e+00 3.010078641173157266e+00 2.696860705515238710e+00 2.474036971328107626e+00 2.371922836792943468e+00 2.039048555675883723e+00 1.798361721502335975e+00 1.465893666967351683e+00 1.389204465878056904e+00 1.254465623781750194e+00 1.216924528313143794e+00 1.200891520719690853e+00 1.200891520719690853e+00 1.057808033460113872e+00 1.045725386594887230e+00 1.032044228106082207e+00 1.016481461816306497e+00 9.616782677376275457e-01 8.064640831041742786e-01 5.425507488381215992e-01 5.793905906145065954e-01 3.260339688855678486e-01 1.861705233716046126e-01 6.002934290945519114e-02 6.002934290945519114e-02 4.841036104932358586e-02 5.545011225245830011e-02 -1.318485973484991858e-01 -2.994973374426015411e-01 -2.284715555719989410e+00 -3.023708447069491712e+00 -3.310769041195386286e+00 -3.363241435045849492e+00 -3.260870577172878093e+00 -3.064179652543108201e+00 -2.953505903614965789e+00 -2.953505903614965789e+00 -2.798611263428715468e+00 -1.241797818636361628e+00 -1.118158910086552549e+00 6.254296052081956825e-01 1.542135442171797655e+00 1.742373378400021267e+00 1.867222484097351254e+00 2.181583798804921148e+00 2.225075341555848851e+00 2.183478891041760850e+00 2.150033238082430298e+00 2.125029101196601378e+00 1.498239244712691987e+00 1.027390416347056190e+00 1.027390416347056190e+00 6.485262598039263082e-01 2.253266723640508506e-01 3.152399475037355181e-01 -3.058027775446116314e-02 -8.858286281657438144e-01 -1.150676074167929608e+00 -1.593265540566097371e+00 -1.873346747256340095e+00 -1.924657552368656432e+00 -2.214573449424765084e+00 -2.406666123150986270e+00 -2.406666123150986270e+00 -2.444507367553206301e+00 -1.771898635920580389e+00 -1.584036373107545970e+00 -1.548056407675844959e+00 -1.486586355633709777e+00 -1.481150983087936579e+00 -1.295445522254814463e+00 -1.285525131602236026e+00 -1.308620814330488713e+00 -1.604669041977229149e+00 -1.854488217747635392e+00 -1.854488217747635392e+00 -2.135257710873997627e+00 -2.454688994288420467e+00 -2.454688994288420467e+00 -2.715244923980264069e+00 -2.997617721301087279e+00 -3.048294237467606749e+00 -3.219016282512474625e+00 -3.494330063831368793e+00 -3.529298557516550972e+00 -3.775883001327760002e+00 -3.951629991685454701e+00 -4.020905549829812742e+00 -4.247300442089645856e+00 -4.493976472035771330e+00 -4.493976472035771330e+00 -4.670610850521442536e+00 -4.827760512719954988e+00 -4.832681906609343159e+00 -5.038878522659964609e+00 -5.132861159676675555e+00 -5.108064871508392280e+00 -5.306840535757621602e+00 -5.431232288141534248e+00 -5.479309967709606433e+00 -5.651863034241984884e+00
5.686710716069971028e+00 5.686710716069971028e+00 5.686710716069971028e+00 5.686710716069971028e+00 4.949314585579176473e+00 4.949314585579176473e+00 5.298852343260205267e+00 5.556239618578359796e+00 5.010525296340780699e+00 5.194008546917785907e+00 4.873274682000741542e+00 4.360777814823159737e+00 3.813021415118563517e+00 3.756935798464934972e+00 3.538793299912816437e+00 3.225532586667519297e+00 2.915163447543576591e+00 2.915163447543576591e+00 2.595456728850023875e+00 2.234487894935347718e+00 2.039048555675883723e+00 1.892594813152254529e+00 1.550701731369161118e+00 1.389204465878056904e+00 1.346420855944501671e+00 1.315536695157766500e+00 1.301457596677722428e+00 1.200829471235851376e+00 1.057195879078874245e+00 1.057195879078874245e+00 1.032114776523711752e+00 1.035357435478888588e+00 1.035357435478888588e+00 8.650242672917682896e-01 7.799993178738460209e-01 5.793905906145065954e-01 7.172098231885053465e-01 5.055082772717917061e-01 2.304753151684830748e-01 1.925893270972601767e-01 3.545356466318357325e-01 2.129165825799975986e-01 1.941435580864007415e-01 -5.979945491087850229e-01 -5.979945491087850229e-01 -2.758620206378088469e+00 -3.205821750256287572e+00 -3.363241435045849492e+00 -3.178670408904470612e+00 -3.001042645126065445e+00 -2.974565126700007500e+00 -2.866927881584405036e+00 -2.662292007074473776e+00 -2.345867755124722898e+00 -4.195056041879563491e-01 1.405368403362329488e+00 1.405368403362329488e+00 1.773197229551217280e+00 2.095665553624149968e+00 2.181583798804921148e+00 2.198684821187645522e+00 2.192854274407788573e+00 2.150033238082430298e+00 1.664236052864019211e+00 1.275330677344246988e+00 1.133609595487228061e+00 8.766497275884997942e-01 7.175553767726007282e-01 5.226716972567767572e-01 5.724301554587551272e-02 -6.056172298925637243e-01 -6.056172298925637243e-01 -1.340531132245119883e+00 -1.839491304022239815e+00 -1.873346747256340095e+00 -2.216195747064263255e+00 -2.530977698058419101e+00 -2.523389086456054642e+00 -2.604041371931980375e+00 -2.379509410129315938e+00 -2.022912332173678607e+00 -1.619608462764607681e+00 -1.504025948762534259e+00 -1.504025948762534259e+00 -1.383165368679496243e+00 -1.255806934474160919e+00 -1.285525131602236026e+00 -1.489399532698502782e+00 -1.669234330883774264e+00 -1.852880751349593957e+00 -2.079744795488981612e+00 -2.333425393293373951e+00 -2.403740749692977463e+00 -2.683157932413809288e+00 -2.944705808981587403e+00 -3.185943170753126275e+00 -3.218088842993257259e+00 -3.457336164044891191e+00 -3.663142022695003774e+00 -3.663142022695003774e+00 -3.903446157960225982e+00 -4.067289753899160587e+00 -4.126388605063890047e+00 -4.269755109111009084e+00 -4.471607164793720557e+00 -4.606322921697995731e+00 -4.698105579115438246e+00 -4.960615876422330928e+00 -4.984673678827121535e+00 -5.144596975769540670e+00 -5.300074697125861434e+00 -5.269214479231779436e+00 -5.381441310021665814e+00 -5.553543092102765755e+00 -5.553543092102765755e+00 -5.758671816418745593e+00
5.686710716069971028e+00 5.686710716069971028e+00 5.686710716069971028e+00 5.686710716069971028e+00 5.686710716069971028e+00 4.760930768457283691e+00 5.281303051462161946e+00 5.676330591416273386e+00 5.010531479377752007e+00 5.057293947940852519e+00 5.057293947940852519e+00 4.411419087025585384e+00 3.951465084444374387e+00 3.756935798464934972e+00 3.733833471535902060e+00 3.496233149050365530e+00 3.130617393037939067e+00 2.817360163409870832e+00 2.730999504698772284e+00 2.485290667753312643e+00 2.046839011710344103e+00 1.703721816981768944e+00 1.703721816981768944e+00 1.451348268392523622e+00 1.339287349242298086e+00 1.315536695157766500e+00 1.282963758111663299e+00 1.107445770582900169e+00 1.118714480081820506e+00 1.045320445222158057e+00 9.989150264221827724e-01 9.929530643544715041e-01 8.850649984601565157e-01 8.011991733442337393e-01 8.011991733442337393e-01 6.539574144995080607e-01 6.906772726657699479e-01 5.055082772717917061e-01 6.895712732557668367e-01 6.554416194772408888e-01 3.545356466318357325e-01 3.725575700451513317e-01 4.615020944302744565e-01 3.100915586480460506e-01 -1.299048589719760116e+00 -2.647804651351522764e+00 -2.940626410443224703e+00 -3.399320025956548807e+00 -2.973380928521022426e+00 -2.973380928521022426e+00 -2.801159715698616992e+00 -2.659372361279961794e+00 -2.662292007074473776e+00 -2.358707902734281880e+00 -5.188954995626778866e-01 7.602804002815511941e-01 1.659760039450893565e+00 1.905094773002647290e+00 2.004259016930636683e+00 2.167500573013168452e+00 2.212108563240465564e+00 2.212108563240465564e+00 1.976549348744462975e+00 1.420442842492432245e+00 9.695418094243137830e-01 9.695418094243137830e-01 8.702647833622213502e-01 4.553542767996214824e-01 1.899972177534893780e-01 -1.572928228810214213e-01 -9.916106118607237452e-01 -1.195174955120344773e+00 -1.755830254400394530e+00 -2.264137627376624273e+00 -2.256726130801712138e+00 -2.673525540845356652e+00 -2.881868372437273784e+00 -2.881868372437273784e+00 -2.679209706864189133e+00 -2.026563191080578363e+00 -2.026563191080578363e+00 -1.586049578270564808e+00 -1.497073050278082684e+00 -1.438513380912069817e+00 -1.327207255516176243e+00 -1.418385831070386516e+00 -1.411350871641219529e+00 -1.716190012384013697e+00 -1.930740161526444787e+00 -2.026150975125565967e+00 -2.267458012536252898e+00 -2.579863556334035746e+00 -2.579863556334035746e+00 -2.844932085906421548e+00 -3.115550755715008169e+00 -3.185943170753126275e+00 -3.394802121052130417e+00 -3.571179022644730416e+00 -3.678561617635068171e+00 -3.868261751774683788e+00 -4.026139608755258337e+00 -4.034631661222194410e+00 -4.245958865468257848e+00 -4.431536459105219983e+00 -4.431536459105219983e+00 -4.582803573747761483e+00 -4.737229751230277230e+00 -4.960615876422330928e+00 -5.064502868849530159e+00 -5.241901581265162591e+00 -5.300074697125861434e+00 -5.427873807625943847e+00 -5.469463983463201728e+00 -5.526127735775009597e+00 -5.715951229322332239e+00 -5.898784554121907497e+00
5.694426265779936713e+00 5.694426265779936713e+00 5.694426265779936713e+00 5.694426265779936713e+00 5.694426265779936713e+00 4.774847913814610934e+00 5.281303051462161946e+00 5.491298898329897149e+00 5.019067507884672708e+00 5.289619249843339865e+00 4.913400298744382333e+00 4.070804963731343484e+00 4.070804963731343484e+00 3.913462908754808733e+00 3.751864019401530470e+00 3.496233149050365530e+00 3.381445187702296629e+00 2.954652017607212411e+00 2.730999504698772284e+00 2.613049926125175837e+00 2.157522799209230513e+00 1.859480051353073149e+00 1.563378374519816205e+00 1.425805626225473244e+00 1.397393589325975238e+00 1.294721411582071546e+00 1.189793136776806870e+00 1.189793136776806870e+00 1.080547600338505276e+00 1.030991915882426113e+00 9.989150264221827724e-01 9.523605751261954300e-01 8.582757486861658514e-01 7.507689035348116269e-01 7.099784652870562152e-01 6.891928823221384892e-01 7.378875147690183711e-01 6.946540687257425351e-01 7.031260285209596228e-01 7.112697414737606527e-01 6.458153613495400958e-01 5.595144093288998421e-01 4.401002329111116662e-01 4.401002329111116662e-01 -3.660373716492479890e-01 -1.409064170542260630e+00 -3.427786096588982367e+00 -3.050326879511211509e+00 -2.552043725481455638e+00 -2.754161084443053298e+00 -2.620858645569954959e+00 -2.302809033775300662e+00 -2.327427562872015798e+00 -1.165424464059010567e+00 1.050879039713499719e+00 1.362599658290388094e+00 1.830397869605085548e+00 1.972620875946677899e+00 1.972620875946677899e+00 2.118296275062188538e+00 2.093280685541221153e+00 2.042515552471385831e+00 1.679501562631166678e+00 1.183247593075616333e+00 1.059828235241213168e+00 9.212224960279904451e-01 6.690330273050690835e-01 6.227509833423794383e-01 3.805144214971253880e-02 -7.552109016230290628e-01 -7.552109016230290628e-01 -1.562514414175245170e+00 -2.124703421228492761e+00 -2.264137627376624273e+00 -2.535141968796796430e+00 -2.889664967763109438e+00 -2.938638203355329104e+00 -2.791347605592465531e+00 -2.435993260684806039e+00 -2.125537940942441306e+00 -1.630974060455796293e+00 -1.508804410724802203e+00 -1.508804410724802203e+00 -1.402454746060566748e+00 -1.351795787112353597e+00 -1.418385831070386516e+00 -1.526055547610610574e+00 -1.842483955670999762e+00 -1.930740161526444787e+00 -2.220483015452547892e+00 -2.441957393022939460e+00 -2.518521860954082925e+00 -2.786344699955930260e+00 -2.953686061594173129e+00 -3.051272694220405590e+00 -3.301016376980720146e+00 -3.542782251085225820e+00 -3.542782251085225820e+00 -3.797764537525707862e+00 -3.971637292940506381e+00 -4.026139608755258337e+00 -4.181943091229713971e+00 -4.338981428019378583e+00 -4.338459380306924018e+00 -4.515803754519278179e+00 -4.696184719466888424e+00 -4.707185732851147719e+00 -4.943765428891389035e+00 -5.107805396541939658e+00 -5.107805396541939658e+00 -5.275340930927574945e+00 -5.484757999618776303e+00 -5.469463983463201728e+00 -5.621407745139849865e+00 -5.824454249580180765e+00 -5.898784554121907497e+00
5.292453141763557412e+00 5.292453141763557412e+00 5.292453141763557412e+00 5.292453141763557412e+00 5.093503320748948404e+00 4.785117788348901335e+00 5.271239316171974387e+00 5.313159365501864073e+00 5.388412403029384734e+00 5.388412403029384734e+00 4.953525915488024012e+00 4.379642745085592814e+00 4.085655188404183846e+00 4.042996784532183696e+00 4.027903033132171018e+00 3.692074188948345270e+00 3.325137744319173194e+00 3.176811185582635755e+00 2.861995393507960728e+00 2.470513256817021386e+00 1.970703641537650430e+00 1.970703641537650430e+00 1.515682980721535733e+00 1.268514933622095331e+00 1.279441647422157713e+00 1.233057885608585202e+00 1.150961735868544666e+00 1.115677990745593373e+00 1.045186614922085866e+00 9.913188710448427310e-01 9.760906433656059145e-01 9.006874385651382209e-01 8.457729685849265655e-01 7.895874944225689251e-01 7.242543917794291852e-01 7.629794267604397273e-01 7.629794267604397273e-01 7.503155089397705035e-01 7.402805311685231038e-01 7.112697414737606527e-01 6.574230594736215627e-01 5.473489662609822837e-01 5.219230354037431852e-01 3.714202119452852946e-01 1.259505686924176637e-01 -2.381274359853221556e-01 -6.068178386008988429e-02 -1.706869224850733113e+00 -1.706869224850733113e+00 -2.049351780716934801e+00 -2.071676846463804900e+00 -2.302809033775300662e+00 -7.447603670539786336e-01 9.705773904583299139e-01 1.050879039713499719e+00 1.751218610082601046e+00 1.829703115113314738e+00 1.897923972549116156e+00 2.040146978890708507e+00 2.157227223214324585e+00 2.157227223214324585e+00 1.822287664683735597e+00 1.317328471543753210e+00 1.183247593075616333e+00 9.831241579620351168e-01 7.502932001991344801e-01 6.690330273050690835e-01 4.147864844771711468e-01 -3.443986560807576480e-01 -5.397188476856416006e-01 -1.348147206142553900e+00 -1.858024477577626454e+00 -1.976735113624493057e+00 -2.358524236974685273e+00 -2.658453477880452720e+00 -2.658453477880452720e+00 -2.710132925323830211e+00 -2.574441237816181616e+00 -2.435993260684806039e+00 -2.000557825690616909e+00 -1.523210030747805144e+00 -1.504675937041278111e+00 -1.383184282857933045e+00 -1.226912105022080812e+00 -1.270377334925568480e+00 -1.495102426836082632e+00 -1.721295389900073580e+00 -1.721295389900073580e+00 -2.046591444155184458e+00 -2.362935976756901368e+00 -2.441957393022939460e+00 -2.633775682491684922e+00 -2.885563976879963910e+00 -2.953686061594173129e+00 -3.226614591940906607e+00 -3.423944066632415684e+00 -3.483934696191335334e+00 -3.705721965250216243e+00 -3.947354781011627622e+00 -3.947354781011627622e+00 -4.194282037689440301e+00 -4.301722341948248207e+00 -4.301722341948248207e+00 -4.480127264506378992e+00 -4.652814367836803910e+00 -4.696184719466888424e+00 -4.857859608320024059e+00 -5.002890219942343286e+00 -5.083429544456508964e+00 -5.173807113332870244e+00 -5.261165377801980014e+00 -5.380593499494802145e+00 -5.542554021728917313e+00 -5.804288302829526458e+00 -5.804288302829526458e+00 -5.969126481832603304e+00
5.292453141763557412e+00 5.292453141763557412e+00 5.292453141763557412e+00 5.292453141763557412e+00 5.235380582682185313e+00 4.785117788348901335e+00 5.228279307241842311e+00 5.309385462228735975e+00 5.065746483457451710e+00 5.163879660326729848e+00 4.993651532231664802e+00 4.724484066730056497e+00 4.233124208669201138e+00 4.100216846720864616e+00 4.100216846720864616e+00 4.089256413857857098e+00 3.602957221518170883e+00 3.176811185582635755e+00 3.084102443653328862e+00 2.617201056507257206e+00 2.279902247493312828e+00 1.703271885137357611e+00 1.532868499628762482e+00 1.345279595212940160e+00 1.215957001184359898e+00 1.171571958978570027e+00 1.171571958978570027e+00 1.077952663596444260e+00 1.016092117402085382e+00 9.913188710448427310e-01 9.533378677489370290e-01 8.878352989687419150e-01 8.457729685849265655e-01 7.703263006984349959e-01 7.819704132569745836e-01 7.704267786474540136e-01 7.806342140671043150e-01 7.503085825024938815e-01 7.503085825024938815e-01 7.107851486682462694e-01 5.659231923456460311e-01 5.659231923456460311e-01 5.343307741199742056e-01 2.829850913793132694e-01 1.259505686924176637e-01 1.154999219282778766e-01 2.415414339818099387e-01 8.817203731381711984e-02 -1.226319853289289830e+00 -3.262435389414354292e-01 -1.131564512771503939e+00 -7.552126429065553204e-01 9.359354114776556877e-01 9.359354114776556877e-01 1.494615597351798719e+00 1.790996942226632749e+00 1.829703115113314738e+00 1.938317245372183972e+00 2.076165051054784438e+00 2.107871527035815262e+00 1.906826562211775711e+00 1.542677240476080680e+00 1.503500538211344439e+00 1.077127967583944246e+00 8.042768795738972631e-01 8.042768795738972631e-01 5.236892314328625009e-01 -1.257356760338325108e-01 -3.443986560807576480e-01 -1.029151915542081630e+00 -1.713680548408051951e+00 -1.858024477577626454e+00 -2.265852328116183756e+00 -2.413864292464256600e+00 -2.540996449759865605e+00 -2.768687238307457221e+00 -2.555760647530635588e+00 -2.555760647530635588e+00 -2.190805987377808073e+00 -1.583581868891167144e+00 -1.583581868891167144e+00 -1.421464909965667545e+00 -1.236413227960544425e+00 -1.226912105022080812e+00 -1.319904188759987829e+00 -1.607546536715871888e+00 -1.668318885493848658e+00 -1.957899351713798586e+00 -2.201060126076976431e+00 -2.275612663039019878e+00 -2.527603416588438900e+00 -2.869302230476389326e+00 -2.869302230476389326e+00 -3.088752158816615356e+00 -3.366630760002319089e+00 -3.423944066632415684e+00 -3.599920376573471970e+00 -3.833865632145569968e+00 -3.998213711526505953e+00 -4.141514783337941985e+00 -4.223263577304631866e+00 -4.250133345666482931e+00 -4.444329450028759787e+00 -4.589156968167591444e+00 -4.589156968167591444e+00 -4.780369558483667625e+00 -4.952317611426947153e+00 -5.133736918669765004e+00 -5.133736918669765004e+00 -5.273607272870523666e+00 -5.507896489430544662e+00 -5.546336046195344593e+00 -5.615644059994632897e+00 -5.860598169241223232e+00 -5.908926660388735819e+00 -6.068705032856373194e+00
5.292453141763557412e+00 5.292453141763557412e+00 5.292453141763557412e+00 5.091635504199320650e+00 5.235380582682185313e+00 4.806131693198996579e+00 5.792788974235008048e+00 5.309385462228735975e+00 5.109648554888752692e+00 5.225800320625802797e+00 4.993651532231664802e+00 4.469913367116070901e+00 4.242218374639092460e+00 4.172530660309558215e+00 4.269924786586509313e+00 3.986311413803568904e+00 3.986311413803568904e+00 3.408827735147002880e+00 2.918051185662971392e+00 2.918051185662971392e+00 2.400551719030214137e+00 1.751419764727985662e+00 1.532868499628762482e+00 1.285056918304225970e+00 1.167341921798840776e+00 1.171394359635099303e+00 1.098562886706469399e+00 1.062314150974370985e+00 1.065684742622120984e+00 9.941735395118622698e-01 9.296618360692772143e-01 9.296618360692772143e-01 8.759537414003697453e-01 8.269396652028220274e-01 7.819704132569745836e-01 8.280710072246632025e-01 8.123220265963319031e-01 7.986699006446049687e-01 6.958289613217272240e-01 6.585165730437929632e-01 6.350433713222736198e-01 5.509423354627461800e-01 3.798093336026366340e-01 3.798093336026366340e-01 8.430920377532633014e-02 1.998918515524920336e-01 2.415414339818099387e-01 3.531933232947701562e-01 4.235020579336002955e-01 -3.262435389414354292e-01 -1.845432938551616608e-02 9.978563282647466837e-01 9.495923550653670997e-01 1.397512174576530208e+00 1.650663671120196074e+00 1.703835606127205082e+00 1.903195410309064028e+00 2.042749707709819340e+00 2.042749707709819340e+00 2.072460626476428036e+00 1.627596694722147852e+00 1.542677240476080680e+00 1.177832028766599537e+00 1.171199827954127137e+00 9.227009184083472260e-01 6.117463720216145262e-01 2.893744248453576917e-01 1.267462697836933549e-01 -8.413409132969048576e-01 -1.639426211905405495e+00 -1.639426211905405495e+00 -2.005616292829198954e+00 -2.313323352184373682e+00 -2.413864292464256600e+00 -2.563604931671062737e+00 -2.663176500062574004e+00 -2.422257592312365482e+00 -2.376920969557330565e+00 -1.908776891682524068e+00 -1.504724569726789696e+00 -1.468986249307738579e+00 -1.254794712608580554e+00 -1.275324691104246622e+00 -1.284378965144938656e+00 -1.556628320612987393e+00 -1.845059733801240665e+00 -1.845059733801240665e+00 -2.129661537623049661e+00 -2.435242840924700225e+00 -2.435242840924700225e+00 -2.714942720131365395e+00 -3.032064606600889167e+00 -3.086247276983483001e+00 -3.295692331948658627e+00 -3.494803399761211793e+00 -3.531079548753428554e+00 -3.774509553199866918e+00 -3.948807849666737368e+00 -3.966931931261977073e+00 -4.170926136327690159e+00 -4.360715169318455153e+00 -4.360715169318455153e+00 -4.538106051338055558e+00 -4.691216053519204010e+00 -4.703611297642614986e+00 -4.861677345091422353e+00 -5.013130699571046733e+00 -5.105838859829398224e+00 -5.218074497933217870e+00 -5.306257011728489736e+00 -5.415220870365423878e+00 -5.632396865702911093e+00 -5.800639498189168464e+00 -5.800639498189168464e+00 -5.932532966504682648e+00 -6.235499141096259912e+00
5.091635504199320650e+00 5.091635504199320650e+00 5.091635504199320650e+00 5.091635504199320650e+00 5.091635504199320650e+00 4.844447162954420349e+00 5.117456823351581363e+00 5.435541891546427529e+00 5.326069149897187494e+00 5.326069149897187494e+00 5.033777148975306481e+00 4.460289082751488721e+00 4.242218374639092460e+00 4.391769823425434538e+00 4.324501060791302365e+00 4.376981839944369845e+00 3.882435778110280289e+00 3.643417874613466445e+00 3.204629848415237348e+00 2.663461607751226978e+00 2.173594950389101221e+00 2.173594950389101221e+00 1.533342902856561052e+00 1.210203273350669351e+00 1.167341921798840776e+00 1.140141755774616072e+00 1.082478274141190466e+00 1.062314150974370985e+00 1.036261718403489462e+00 9.963065303126128480e-01 9.707081090556809455e-01 9.021726384767438933e-01 8.826115856296582463e-01 8.674096016350576477e-01 8.663945304791693669e-01 8.341681433807142110e-01 8.341681433807142110e-01 7.281931411248105945e-01 6.104420709186981764e-01 6.585165730437929632e-01 6.048177684058974046e-01 5.604034873179630782e-01 4.549575615635070847e-01 2.634046580547580452e-01 2.077078910834393166e-01 3.475807298787590982e-01 3.563560757690342751e-01 4.543665463822896267e-01 4.355685761225739361e-01 5.089817862514449676e-01 8.880074989698483190e-01 1.278013538932789128e+00 1.278013538932789128e+00 1.556582749085981598e+00 1.773978450385228944e+00 1.866008647906297613e+00 1.959944489006395063e+00 1.876806924526698950e+00 1.993651166197784264e+00 1.724133543614832398e+00 1.422404772593278910e+00 1.367088871851203979e+00 1.086087630693244988e+00 8.867700351030683992e-01 8.867700351030683992e-01 3.924665186275247408e-01 -2.200676480273934532e-01 -2.200676480273934532e-01 -1.062941368635149653e+00 -1.800940144373620821e+00 -1.888118835407524454e+00 -2.090337547563656972e+00 -2.374557280283310590e+00 -2.505595984919243513e+00 -2.627756323396710503e+00 -2.524038730495179017e+00 -2.505996130739243988e+00 -2.043981660564478275e+00 -1.579875660456850683e+00 -1.579875660456850683e+00 -1.378449669077485229e+00 -1.297373835019323574e+00 -1.275324691104246622e+00 -1.418663886237967020e+00 -1.712461557937657197e+00 -1.777416431570887134e+00 -2.063732063680536744e+00 -2.256791172411856117e+00 -2.344617741306841197e+00 -2.636198462627999284e+00 -2.940364415536681264e+00 -2.940364415536681264e+00 -3.211109625641755283e+00 -3.453098445002884986e+00 -3.494803399761211793e+00 -3.672378839209765822e+00 -3.908001149518661954e+00 -3.948807849666737368e+00 -4.102009475232073932e+00 -4.275887408483692198e+00 -4.316982961696773202e+00 -4.484505048845049302e+00 -4.616651006332279650e+00 -4.643708112148742018e+00 -4.819804174975613975e+00 -4.959716678029733927e+00 -4.959716678029733927e+00 -5.079098134295344735e+00 -5.225827557078973840e+00 -5.306257011728489736e+00 -5.435750400127309589e+00 -5.738794283431378318e+00 -5.732733575986786789e+00 -5.859563175170877436e+00 -5.950368941431001701e+00 -6.089307469196679534e+00
5.302374992341601256e+00 5.302374992341601256e+00 5.302374992341601256e+00 5.302374992341601256e+00 5.302374992341601256e+00 4.844447162954420349e+00 5.006634339461305316e+00 5.614635609690578733e+00 5.153550626320052785e+00 5.287720980924874858e+00 5.061696904073116343e+00 5.017996169428208475e+00 4.567179013858906345e+00 4.448434644595860910e+00 4.505099465766288169e+00 4.403236834809352018e+00 3.948717610584594695e+00 3.342581884578841311e+00 3.342581884578841311e+00 2.762783301618241705e+00 2.209473317982564300e+00 1.862819441680336308e+00 1.661196217319252488e+00 1.212646233486784908e+00 1.174698937544009780e+00 1.102349890335333926e+00 1.068781389334344745e+00 1.061474080607941683e+00 1.015256370341293124e+00 9.507934033041778310e-01 9.507934033041778310e-01 9.035520924345118443e-01 8.829027726565766843e-01 8.766539745533165062e-01 8.394624577394901310e-01 7.823524057617158300e-01 7.490227681511930635e-01 6.811713463321118489e-01 5.320583158397828027e-01 6.071409275444722420e-01 5.289029343446756126e-01 4.183616142354388834e-01 3.713754523634321125e-01 1.644102166490096217e-01 3.078959309056694682e-01 3.078959309056694682e-01 4.385865211119426843e-01 5.453236896993111094e-01 4.355685761225739361e-01 5.124511851218406244e-01 7.999977739754682293e-01 1.230859672702056651e+00 1.499223079102226297e+00 1.641273620458875371e+00 1.692776667195099449e+00 1.896812312266766165e+00 1.850973193766477065e+00 1.850973193766477065e+00 1.731147277245348448e+00 1.455785077235929315e+00 1.422404772593278910e+00 1.269975610929263254e+00 1.087398058913681798e+00 1.014801458869224016e+00 5.409398633971901349e-01 1.068214295323921259e-01 2.716569010382179072e-02 -8.940183211058458923e-01 -1.605272420083637241e+00 -1.605272420083637241e+00 -1.962669889929495426e+00 -2.266664008730583824e+00 -2.374557280283310590e+00 -2.543580393883063451e+00 -2.515667550430644717e+00 -2.524038730495179017e+00 -2.306111623708611447e+00 -1.837063064583481564e+00 -1.626638546434311827e+00 -1.435428015151049230e+00 -1.331198652639845603e+00 -1.289762133963011426e+00 -1.426113638664398664e+00 -1.661165602527672203e+00 -1.661165602527672203e+00 -1.931824700243218063e+00 -2.195496229662403653e+00 -2.256791172411856117e+00 -2.521610506327310652e+00 -2.775366883377412108e+00 -2.866295109977071931e+00 -3.145931066738066662e+00 -3.330063238172229045e+00 -3.391580841587556794e+00 -3.623572693180480364e+00 -3.852854015814411781e+00 -3.852854015814411781e+00 -4.093894711773346629e+00 -4.256629758029577992e+00 -4.275887408483692198e+00 -4.363001992722407962e+00 -4.569213621831376138e+00 -4.616651006332279650e+00 -4.762907319615612423e+00 -4.937864144101658859e+00 -4.940406637428337078e+00 -5.047080172834185419e+00 -5.156057574316882608e+00 -5.156057574316882608e+00 -5.328468495740775523e+00 -5.610246526764488983e+00 -5.738794283431378318e+00 -5.779718269907693440e+00 -5.847473066494431215e+00 -5.950368941431001701e+00 -6.075863018530466952e+00
5.394954795734792086e+00 5.394954795734792086e+00 5.394954795734792086e+00 5.394954795734792086e+00 5.394954795734792086e+00 4.924918577672600328e+00 5.830175806260678328e+00 5.197452697751354656e+00 5.197452697751354656e+00 5.349641641223946920e+00 5.058270548229522490e+00 4.742588204292377263e+00 4.651827625208667882e+00 4.544725118868185199e+00 4.505099465766288169e+00 4.441541029692242404e+00 4.001633091066419290e+00 3.741749487923024642e+00 3.110580076398535621e+00 2.850410649316708955e+00 2.546784410919444408e+00 1.964863627864319895e+00 1.459572992958168669e+00 1.459572992958168669e+00 1.171109303627980047e+00 1.096948334370209999e+00 1.068781389334344745e+00 1.046895858419171432e+00 9.973179632451183441e-01 9.702222329993229755e-01 9.124633637661834218e-01 8.980474420262877233e-01 8.923600225740964120e-01 8.403697981462905364e-01 8.447558784089262973e-01 8.447558784089262973e-01 6.286049480510592646e-01 4.341953615509543951e-01 5.320583158397828027e-01 3.345541759575560992e-01 3.020848174664311214e-01 4.183616142354388834e-01 2.042130902501625433e-01 2.492701697953204620e-01 2.647056405559830017e-01 3.963590235122176897e-01 5.117803696132003921e-01 5.117803696132003921e-01 5.747738337095019689e-01 6.032092002736932912e-01 7.999977739754682293e-01 1.322587509896199887e+00 1.594559092155416913e+00 1.641273620458875371e+00 1.782629168257975127e+00 1.929165579278720566e+00 1.853176474598729584e+00 1.723448588021577077e+00 1.589654699580041797e+00 1.524876500258480760e+00 1.353431704496417032e+00 1.185803590288643683e+00 1.185803590288643683e+00 9.404113127007287520e-01 2.555778669529622515e-01 1.068214295323921259e-01 -3.673912981126910560e-01 -1.303421485581751860e+00 -1.397086860081873549e+00 -1.877726082157329390e+00 -2.088774192802862473e+00 -2.168262904085988652e+00 -2.414386123077182589e+00 -2.493431802694287214e+00 -2.493431802694287214e+00 -2.414936856005709842e+00 -2.003336948617776336e+00 -1.837063064583481564e+00 -1.485792026075068772e+00 -1.351455488271418037e+00 -1.331198652639845603e+00 -1.410066214811822816e+00 -1.632019124849015901e+00 -1.636980881898909113e+00 -1.842725671209943794e+00 -2.125549822555404589e+00 -2.125549822555404589e+00 -2.441841288413613587e+00 -2.684187121828915501e+00 -2.684187121828915501e+00 -2.942946361351255646e+00 -3.240847312695629423e+00 -3.330063238172229045e+00 -3.539848713506399847e+00 -3.743109800666763576e+00 -3.802180777480496321e+00 -4.054549367911358893e+00 -4.189332013407012667e+00 -4.212693467616442256e+00 -4.364714911037361311e+00 -4.541722654674524406e+00 -4.541722654674524406e+00 -4.703821414338579920e+00 -4.847552950766051083e+00 -4.937864144101658859e+00 -5.036534190354127638e+00 -5.167044260869976924e+00 -5.182721035992962300e+00 -5.260753915535357095e+00 -5.477167357325718910e+00 -5.489125949807501570e+00 -5.718104693677904748e+00 -5.813282430795284839e+00 -5.813282430795284839e+00 -5.936441225814630407e+00 -6.187671801877166367e+00
