5.312039118150194028e+00 5.312039118150194028e+00 4.588626384318230222e+00 4.261837087544625646e+00 3.934439244423320936e+00 3.530809876765604649e+00 3.149686809518226216e+00 3.149686809518226216e+00 2.579890468125490166e+00 2.516792450935229297e+00 2.506735606743578426e+00 2.468995232934008133e+00 2.222182999268573766e+00 2.040399008453993357e+00 1.921069168244000647e+00 1.756275958042805563e+00 1.649667015412102256e+00 1.372011493293851858e+00 1.209523310705025834e+00 1.105293848224223829e+00 8.087716562903124462e-01 6.192826631520663705e-01 6.192826631520663705e-01 3.377314934587035689e-01 1.578545988608120731e-01 -6.949630120478578199e-02 -1.354787939435057598e-01 -7.106765655900849910e-02 -1.631340039649780693e-01 -1.182258925542324229e-01 1.658066369933029194e-01 3.850660339368509044e-01 1.213380776086992352e+00 1.998194637923623285e+00 1.998194637923623285e+00 2.424922425800595693e+00 3.148815664497547129e+00 3.567165189541294801e+00 4.306885526427624455e+00 5.186003593205532169e+00 5.401122566448139928e+00 5.980809515057421422e+00 6.286678419091909831e+00 6.362165233752851812e+00 6.765341409984449328e+00 6.558634563393508365e+00 6.558634563393508365e+00 6.527602127863016079e+00 5.950228946659726681e+00 5.689598795869976300e+00 5.555151816585656377e+00 5.405324877810881112e+00 5.194172312083897403e+00 4.847562279487896753e+00 4.719428956412363263e+00 4.573376490545159712e+00 4.266206503802401961e+00 4.112141000913863031e+00 3.938903476972312578e+00 3.628824346680834978e+00 3.341329768605921569e+00 3.341329768605921569e+00 3.147859123786233670e+00 3.018838780380247666e+00 3.003052482156852943e+00 3.025270937013060824e+00 3.078358580634304786e+00 3.145892074660679327e+00 3.142170799779723911e+00 3.061338062926751924e+00 2.996649750811463342e+00 2.926926857442240681e+00 3.050967601060787793e+00 3.050967601060787793e+00 2.848852142509441077e+00 2.222388495274791875e+00 1.783134532452189225e+00 1.729603655523295203e+00 1.320525757051685067e+00 9.213922718660482181e-01 4.468491695749312043e-01 3.388543032921068621e-01 -7.317448615300151810e-03 -9.014929287938454605e-01 -1.511203206970734181e+00 -1.511203206970734181e+00 -1.797876712873230032e+00 -2.125060795462347496e+00 -2.367117085402173693e+00 -2.502649942941343131e+00 -2.718692806951534813e+00 -2.619161727864423472e+00 -2.654203696021914194e+00 -2.040047003567542649e+00 -1.823283363015284930e+00 -1.699328273691770086e+00 -1.679256579702199437e+00 -1.606658343194670824e+00 -1.536658085485830494e+00 -1.786257528069278511e+00 -1.786257528069278511e+00 -2.251179716486664262e+00 -2.711417262394384409e+00 -3.053952866843262726e+00 -3.115143283623699411e+00 -3.444934342448230602e+00 -3.694887309209116566e+00 -3.990116828791645975e+00 -4.102927709539128998e+00 -4.284974786794278678e+00 -4.480945550989328119e+00 -4.695199356905462196e+00 -4.695199356905462196e+00 -4.849282001568465006e+00 -5.062402371512821908e+00 -5.162024456535582395e+00
5.312039118150194028e+00 5.312039118150194028e+00 4.635958020449894690e+00 4.261837087544625646e+00 3.986202993134488004e+00 3.594503312505723525e+00 3.361968693388886376e+00 2.917210594374680444e+00 2.683506284797253727e+00 2.529840656991155790e+00 2.615793564696613061e+00 2.403966990083153732e+00 2.403966990083153732e+00 2.104400590867509191e+00 1.911424674109868382e+00 1.756275958042805563e+00 1.679353487053240945e+00 1.407688379440436677e+00 1.209523310705025834e+00 8.890107664420006106e-01 7.472068082985784399e-01 6.983370155566357429e-01 5.208879805233010973e-01 2.605181270832419016e-01 2.605181270832419016e-01 5.850573835593546324e-02 -1.053777726653246927e-01 -7.106765655900849910e-02 1.267473283140333473e-01 2.836266433655151853e-01 1.658066369933029194e-01 1.510359651934549685e+00 1.843884014420512196e+00 1.945256426159324148e+00 2.090530750719226560e+00 2.491559561954994173e+00 2.719518065411197671e+00 3.863741232118358848e+00 5.021530529096239981e+00 5.021530529096239981e+00 5.596070577774064247e+00 6.151067326448717232e+00 6.286678419091909831e+00 6.614414972471720056e+00 6.871902287219080918e+00 6.818252344048310931e+00 6.567451713789870027e+00 6.625974499637169224e+00 6.350490713187086911e+00 5.893315079556815661e+00 5.495571835369566394e+00 5.495571835369566394e+00 5.332676691143582559e+00 4.927448792727334492e+00 4.719428956412363263e+00 4.649833865327697602e+00 4.280734489931514730e+00 4.112141000913863031e+00 3.808992650974974303e+00 3.677184696233256833e+00 3.523102327144304269e+00 3.218653075630490523e+00 3.079698113207786747e+00 3.079698113207786747e+00 2.958887798450575257e+00 2.989917167122325026e+00 2.989917167122325026e+00 3.157578182596946892e+00 3.165880748237103859e+00 3.061338062926751924e+00 2.940671011524412126e+00 2.907031898079977417e+00 3.073933509279385135e+00 3.076780598798319222e+00 3.051313124049931158e+00 2.887672437650946833e+00 2.039762397999588472e+00 1.652735614849027312e+00 1.652735614849027312e+00 1.160325909715213877e+00 6.861244499170349176e-01 3.388543032921068621e-01 1.703243315837807137e-01 -4.332597358003837384e-01 -1.246009915330451800e+00 -1.664475630887952473e+00 -1.720890752396226020e+00 -1.929934759580637316e+00 -2.244286194260891598e+00 -2.664219333923220745e+00 -2.664219333923220745e+00 -2.931971646330571168e+00 -2.515013961424130695e+00 -2.040047003567542649e+00 -2.008676239605962976e+00 -1.770225858048871004e+00 -1.679256579702199437e+00 -1.553049009565286021e+00 -1.447435077712552198e+00 -1.469677373324059566e+00 -1.874849849903964749e+00 -2.366903806903282614e+00 -2.366903806903282614e+00 -2.808982122454280805e+00 -3.176331840335104850e+00 -3.322799900020460218e+00 -3.556736287193603463e+00 -3.865375221352152391e+00 -4.180629717043528260e+00 -4.180629717043528260e+00 -4.376383611563150033e+00 -4.567012652770892522e+00 -4.677417255014063358e+00 -4.710680023470560585e+00 -4.904116752633191467e+00 -5.035482781745206360e+00
5.447785316057866645e+00 5.447785316057866645e+00 5.447785316057866645e+00 4.372830893686487030e+00 3.832957817951588630e+00 3.832957817951588630e+00 3.410438588213541955e+00 3.001071349709301117e+00 2.683506284797253727e+00 2.560441532079808180e+00 2.717814750194927242e+00 2.585750980897734141e+00 2.184079429457027377e+00 2.118203070675321431e+00 2.036501978200803364e+00 1.840631129544560984e+00 1.602057679496435627e+00 1.602057679496435627e+00 1.164799017557085925e+00 8.569091540976609966e-01 7.472068082985784399e-01 7.520348695483418666e-01 5.578054152113990360e-01 4.224932978945359352e-01 2.715153273576910720e-01 2.808033187523650276e-01 7.681314869957397984e-02 1.222145649453245803e-01 5.580083552731363028e-01 5.580083552731363028e-01 1.397291490628788768e+00 1.771111993064323764e+00 1.843884014420512196e+00 2.113493281790209011e+00 2.562833632659140992e+00 2.491559561954994173e+00 3.528665674773256988e+00 4.270031717268510718e+00 4.580374232420804326e+00 5.417328337901343716e+00 6.008107180392195268e+00 6.008107180392195268e+00 6.510860484630181411e+00 6.880082297580777606e+00 6.880082297580777606e+00 6.962465148131945725e+00 6.673378792067310883e+00 6.625974499637169224e+00 6.525350109041987423e+00 6.039008357407040783e+00 5.734716149355028492e+00 5.471988386501410062e+00 5.421433691956261569e+00 5.176988607880569582e+00 4.803752771061025051e+00 4.488667092149465354e+00 4.488667092149465354e+00 4.184075276441309832e+00 3.908323968395976511e+00 3.677184696233256833e+00 3.597710349925581585e+00 3.255269425060910660e+00 3.163274834739603580e+00 3.039004345950261587e+00 2.990226299947503996e+00 3.012012868267554211e+00 3.080143043108529266e+00 3.188273205747571559e+00 3.188273205747571559e+00 3.017378137251003789e+00 2.923940365042855039e+00 2.907031898079977417e+00 3.045908552829657889e+00 2.977519526140931294e+00 3.056880590856358548e+00 2.523900273403173244e+00 2.390796500506891409e+00 1.844719906268450504e+00 1.507598129203966852e+00 1.418624552194347022e+00 9.346340385634657189e-01 5.559653602956564633e-01 1.633771150450556014e-02 -9.223016415085819042e-02 -6.322213578472318796e-01 -1.415818706120115511e+00 -1.781413142825501561e+00 -1.781413142825501561e+00 -2.087675751886771458e+00 -2.472352396386200635e+00 -2.735909862839156936e+00 -2.828240253764672918e+00 -2.799640476853839210e+00 -2.369648616398007945e+00 -2.042602297733857597e+00 -1.864227159035924508e+00 -1.710921030683690391e+00 -1.632122792407055600e+00 -1.563393458258182100e+00 -1.563393458258182100e+00 -1.679183788717699688e+00 -2.176267126753499426e+00 -2.496690556829407992e+00 -2.701512858501215142e+00 -3.056198855536414349e+00 -3.322799900020460218e+00 -3.688060061696047942e+00 -3.778064426724566882e+00 -4.008084576219630435e+00 -4.234751263475657446e+00 -4.416651754651859996e+00 -4.416651754651859996e+00 -4.565736317983578374e+00 -4.762053477606766450e+00 -4.762053477606766450e+00 -4.897713972148132200e+00
5.583531513965527715e+00 5.583531513965527715e+00 4.627510101465750481e+00 4.390833762017912534e+00 4.125162240283128057e+00 3.617501575579664674e+00 3.214563401248248908e+00 3.214563401248248908e+00 2.733357919693135241e+00 2.635880080891112254e+00 2.717814750194927242e+00 2.848740452319177940e+00 2.142876195179666876e+00 2.118203070675321431e+00 1.952123375710208997e+00 1.869424669859335086e+00 1.725242213863035001e+00 1.413091368913914403e+00 1.181937120694802390e+00 1.016816983718463518e+00 8.755602971420779479e-01 7.445262217154745565e-01 7.445262217154745565e-01 5.954511701453710781e-01 5.115095966662994709e-01 2.808033187523650276e-01 3.843102810946879555e-01 3.562060281778136606e-01 4.072263516550012619e-01 1.096061492764682122e+00 1.697428584861200962e+00 1.735819177450724560e+00 1.992619791052249401e+00 2.626293140442418128e+00 2.626293140442418128e+00 3.093878408377548794e+00 4.038066213993919185e+00 4.270031717268510718e+00 4.910700704278934126e+00 5.622495285551108779e+00 5.824300057080850301e+00 6.389148739259188581e+00 6.683252417878071228e+00 6.906361591836512659e+00 6.947641642499839065e+00 6.844447757526283205e+00 6.805986518370248817e+00 6.690400162284232621e+00 6.263816645494014956e+00 6.028978106769583789e+00 6.028978106769583789e+00 5.515289575374421105e+00 5.251029648605995526e+00 5.251029648605995526e+00 4.851726371239249325e+00 4.583300136983789130e+00 4.361671612101030604e+00 4.307678423194927220e+00 4.072594862197390420e+00 3.780488770795299214e+00 3.477091280910945770e+00 3.388629030802586151e+00 3.225778424373944020e+00 3.093404045700340887e+00 3.062090189808011065e+00 3.062090189808011065e+00 3.057575671665884176e+00 3.132103116485510430e+00 3.130847732112323367e+00 2.996656261985609859e+00 2.957843264829997487e+00 2.983813458512884154e+00 2.952185317150006760e+00 2.928939516394930109e+00 3.000704773176454232e+00 2.844843702774161542e+00 2.311089540261469732e+00 2.311089540261469732e+00 1.757409180390907988e+00 1.332180616777926652e+00 9.346340385634657189e-01 7.842915639816402384e-01 2.620035552585454064e-01 -9.223016415085819042e-02 -8.743187987233852487e-01 -1.193196915190887664e+00 -1.529342380258733591e+00 -1.845057842771828716e+00 -2.208147449581522981e+00 -2.208147449581522981e+00 -2.544575701620970243e+00 -2.890449360793085454e+00 -2.890449360793085454e+00 -2.699143767346978251e+00 -2.218302388205636522e+00 -1.864227159035924508e+00 -1.742185963247752545e+00 -1.700877019198687723e+00 -1.559320491053811653e+00 -1.559729924692612624e+00 -1.578009112547675841e+00 -1.872242156937602431e+00 -2.383109721071500875e+00 -2.803514110863919218e+00 -2.803514110863919218e+00 -3.229559291591784564e+00 -3.588756105305179300e+00 -3.778064426724566882e+00 -3.854438130395357653e+00 -4.134978901337075463e+00 -4.295713199512578129e+00 -4.440516784949618767e+00 -4.451512911238428849e+00 -4.575806235965790059e+00 -4.745691523431509573e+00 -4.911242774348087536e+00
5.442781373075781914e+00 5.583531513965527715e+00 4.601225693572557063e+00 4.390833762017912534e+00 4.173643855992150264e+00 3.632195681557718103e+00 3.423449282009570993e+00 3.007529730542651158e+00 2.786254907604025721e+00 2.643861836894704442e+00 2.704771364316627125e+00 2.281915716721448106e+00 2.166372452672155724e+00 2.126964496910156210e+00 1.941884210798034083e+00 1.748726777367238805e+00 1.748726777367238805e+00 1.398299395785118193e+00 1.135003136101934818e+00 1.002249257837466434e+00 9.616053492873173347e-01 9.714443806674415427e-01 7.702347955303399107e-01 6.360901997425429943e-01 7.375643383499451700e-01 5.205699938266717952e-01 4.878172434370109389e-01 9.471327426616775735e-01 9.471327426616775735e-01 1.604127196748778017e+00 1.938171470049591782e+00 1.938171470049591782e+00 2.142584522914978251e+00 2.898900104599760219e+00 3.139092999094627245e+00 3.697277505374311879e+00 4.547466753214582269e+00 4.743046004389606551e+00 5.449312879150289390e+00 5.827662233200872954e+00 6.052988096183304023e+00 6.628959165240033258e+00 6.921234052802982539e+00 6.921234052802982539e+00 6.888246606700370478e+00 7.019263623502984828e+00 6.805986518370248817e+00 6.743880393101356674e+00 6.403327568649106460e+00 6.202158616494726218e+00 5.869717183373903246e+00 5.688814487973383294e+00 5.434184811995608655e+00 5.026773091349945766e+00 4.787265025999281498e+00 4.787265025999281498e+00 4.454980850465258158e+00 4.246338392960947949e+00 4.072594862197390420e+00 3.947354383063275129e+00 3.603692319579135273e+00 3.388629030802586151e+00 3.222131363256207859e+00 3.154720267609866458e+00 3.043135194325695014e+00 3.061689749855146747e+00 3.017020642957208398e+00 3.047410910881195978e+00 3.095814715987542876e+00 2.922465265865913597e+00 2.922465265865913597e+00 3.074085702360949135e+00 2.910050847529864093e+00 2.928939516394930109e+00 2.939733723503127116e+00 3.109462237902527626e+00 2.811501646244680241e+00 2.123461285004658805e+00 1.987054735143567008e+00 1.676923194673480166e+00 1.208503884390071281e+00 6.390402382249733559e-01 6.390402382249733559e-01 1.610045983074192832e-01 -6.028824280682099079e-01 -1.193196915190887664e+00 -1.457762657398054218e+00 -1.813835053194663871e+00 -1.936765644921647933e+00 -2.286420207329543430e+00 -2.405071621022252693e+00 -2.698420152146806750e+00 -2.920877926355341714e+00 -2.626455835688260798e+00 -2.626455835688260798e+00 -1.958228460022977790e+00 -1.768607704284479887e+00 -1.700877019198687723e+00 -1.658914663228627129e+00 -1.548714927774282879e+00 -1.578009112547675841e+00 -1.635537858047525273e+00 -2.197131067496871371e+00 -2.499189416609768344e+00 -2.940023358678304888e+00 -3.113828822187042267e+00 -3.406562064488481756e+00 -3.684635474161210400e+00 -3.910946499734467174e+00 -3.910946499734467174e+00 -4.113195703970419892e+00 -4.277180897715310515e+00 -4.451512911238428849e+00 -4.470107232778484097e+00 -4.599179765393515140e+00 -4.749862606924482478e+00
5.442781373075781914e+00 5.442781373075781914e+00 4.608753598195550083e+00 4.403238844279743880e+00 3.913452869563061487e+00 3.655950677041639896e+00 3.424379060933421481e+00 3.015257804552974541e+00 2.734809738162603754e+00 2.734809738162603754e+00 2.732731420827648527e+00 2.340030479063618607e+00 2.166372452672155724e+00 2.110804437083385388e+00 1.952901203766350902e+00 1.870859533321042711e+00 1.585255368328280401e+00 1.465857688924119495e+00 1.155057713630819549e+00 1.003067835435613286e+00 9.896686415572635287e-01 9.896686415572635287e-01 9.808656556278509964e-01 8.662783674745789808e-01 7.375643383499451700e-01 9.187583307616316031e-01 1.467948922124509226e+00 1.010077715707788926e+00 1.531898280865606532e+00 1.946922232660998286e+00 1.901831051392479655e+00 2.043374669281185163e+00 2.400187649426972936e+00 2.400187649426972936e+00 3.489641052834585366e+00 4.619483228879268211e+00 4.547466753214582269e+00 5.216060291510702385e+00 5.662965540617630467e+00 5.827662233200872954e+00 6.275780897141897796e+00 6.864819151268052089e+00 6.852831744704342753e+00 6.907912771372894944e+00 6.834713977068517465e+00 7.225112473781980960e+00 6.935671197838812141e+00 6.645898552469162723e+00 6.645898552469162723e+00 6.382905526135965957e+00 6.135551526230483610e+00 5.688814487973383294e+00 5.483607120851062611e+00 5.048991106414750796e+00 4.898162775631242916e+00 4.679364043450149779e+00 4.548290088829485711e+00 4.416602579015754593e+00 4.223588318355854909e+00 3.828121021489793385e+00 3.828121021489793385e+00 3.491481540556654384e+00 3.300146649582950342e+00 3.154720267609866458e+00 3.104686996223490869e+00 3.099910243825021006e+00 3.017020642957208398e+00 3.069055454752316336e+00 3.060781699862762828e+00 2.976201845514528266e+00 2.983367044150266434e+00 3.053458636306177532e+00 3.053458636306177532e+00 2.867904378971305679e+00 3.008358780786807962e+00 3.109462237902527626e+00 3.101817904388294522e+00 2.549734718313665383e+00 1.987054735143567008e+00 1.926466989895514015e+00 1.432059639739575951e+00 1.025325659353494956e+00 5.097855886542081993e-01 3.642590408242824540e-01 5.270708472836566766e-02 -8.981907877710156862e-01 -1.385300084761250661e+00 -1.385300084761250661e+00 -1.847811841524411136e+00 -2.153801833161623769e+00 -2.405071621022252693e+00 -2.547072067139221296e+00 -2.817507141946594018e+00 -2.756747174811633005e+00 -2.416109024821944118e+00 -2.258901195479600332e+00 -2.012108601876427372e+00 -1.743670054492303612e+00 -1.651390343836102392e+00 -1.651390343836102392e+00 -1.588961718150306179e+00 -1.877135512319323851e+00 -2.197131067496871371e+00 -2.322681737387062295e+00 -2.754031218757787780e+00 -3.113828822187042267e+00 -3.493537053418003246e+00 -3.549696746788214341e+00 -3.707241936990953501e+00 -3.963671187806110829e+00 -4.148415882759854512e+00 -4.148415882759854512e+00 -4.328690972916133362e+00 -4.444564477215445564e+00 -4.444564477215445564e+00 -4.619942485997048820e+00
5.121756296264388553e+00 5.121756296264388553e+00 4.608753598195550083e+00 4.415643926541576114e+00 3.894631196406892482e+00 3.655950677041639896e+00 3.177163995819011433e+00 3.009329759394539838e+00 2.847246881199585022e+00 2.798330180582055071e+00 2.729677411979536394e+00 2.729677411979536394e+00 2.207458314077018979e+00 2.030825327221873255e+00 1.952901203766350902e+00 1.899174335935284841e+00 1.616393341121512117e+00 1.465857688924119495e+00 1.229059742394549293e+00 9.783719418139968926e-01 9.457520180351322026e-01 1.022419251112175242e+00 1.135121453555929083e+00 1.047877628551153517e+00 1.090130681812124358e+00 1.569313794098064596e+00 1.569313794098064596e+00 1.699349304858060350e+00 1.941653830831637562e+00 1.946922232660998286e+00 2.201916756822110965e+00 2.446296365304787113e+00 2.274525486583685030e+00 3.049172238321900430e+00 3.939260565018888549e+00 4.236349996359316528e+00 5.070648972108834585e+00 5.555975426421967178e+00 5.555975426421967178e+00 6.012026940020650301e+00 6.523839368017807061e+00 6.864819151268052089e+00 6.906015746281848777e+00 6.883557848240536181e+00 6.834713977068517465e+00 7.195517099916816761e+00 6.937342535939958310e+00 6.821442662544500379e+00 6.525083635627335177e+00 6.352534349433986982e+00 6.352534349433986982e+00 5.844648153433308124e+00 5.306722271962034831e+00 5.306722271962034831e+00 4.973492573334864275e+00 4.773015899472717649e+00 4.548290088829485711e+00 4.495778607835392293e+00 4.344876311632352106e+00 4.124178137544310729e+00 3.727920884786077860e+00 3.615176321690734884e+00 3.399472315085746210e+00 3.243120277301975385e+00 3.183311398076793974e+00 3.183311398076793974e+00 2.980000878052498692e+00 3.017331689782124293e+00 3.060781699862762828e+00 2.965097278515669732e+00 2.925730280054871013e+00 3.115693487302666487e+00 2.866705207657369137e+00 2.831775643103910500e+00 2.868776878569486932e+00 3.000195954830653822e+00 2.929483063736251225e+00 2.929483063736251225e+00 2.330611084188376481e+00 1.789870168850534959e+00 1.432059639739575951e+00 1.301304426226272959e+00 7.604616469261902267e-01 3.642590408242824540e-01 -2.960732526136388709e-01 -5.390136603580381047e-01 -1.208642809373938309e+00 -1.531504977167003512e+00 -1.674780507814751962e+00 -2.037444247645335160e+00 -2.247865843815969988e+00 -2.622715114415131943e+00 -2.687884514054980301e+00 -2.631668865701009885e+00 -2.506518802188113959e+00 -2.138818165811098737e+00 -2.138818165811098737e+00 -1.731553338466329750e+00 -1.681828884823497461e+00 -1.590065053223815639e+00 -1.589738534538562176e+00 -1.731346793251034022e+00 -2.015947850927573892e+00 -2.430984428862146718e+00 -2.584736667116855013e+00 -2.910108724969353133e+00 -3.279457399779536431e+00 -3.580372744598279589e+00 -3.580372744598279589e+00 -3.817991826423025259e+00 -4.006079379012986941e+00 -4.183636061549290019e+00 -4.157261888868162281e+00 -4.325035892588459774e+00 -4.470023863539613451e+00 -4.638520870932934415e+00
5.186535721801231347e+00 5.186535721801231347e+00 4.744499796103213818e+00 4.146380576415779728e+00 4.146380576415779728e+00 3.700053875553388494e+00 3.210354557746865289e+00 3.009329759394539838e+00 2.725977399250873567e+00 2.579688839175380721e+00 2.646575580093158742e+00 2.637138919737052944e+00 2.382105735335780849e+00 2.102427455109610488e+00 1.931877142739923725e+00 1.721409129757688561e+00 1.721409129757688561e+00 1.451175608697850006e+00 1.121775028509307104e+00 9.783719418139968926e-01 8.628002641096712555e-01 1.120345565915339625e+00 1.135121453555929083e+00 1.282050177522434664e+00 1.588814862121086469e+00 1.579064328109575532e+00 1.721826801483365310e+00 1.874339808868665802e+00 1.897113062559588670e+00 2.196532742612641531e+00 2.526706351935181338e+00 2.526706351935181338e+00 3.100491202096035792e+00 4.039541769815434336e+00 3.939260565018888549e+00 4.613949040154750492e+00 5.188634997490074952e+00 5.407191069216696455e+00 5.857994009108352884e+00 6.171827700664470839e+00 6.305943238491106051e+00 6.739553986130209395e+00 6.907733862907568856e+00 6.907733862907568856e+00 6.799358043669000651e+00 6.998928296174012686e+00 6.937342535939958310e+00 6.750096569533196700e+00 6.466000624467602265e+00 6.414194861938137038e+00 6.127071328101219905e+00 5.871008738305389940e+00 5.559041520062049990e+00 5.120607554163819408e+00 4.939483463556933351e+00 4.855970493712622016e+00 4.640928398773831454e+00 4.410996273043505944e+00 4.211487982091625781e+00 4.211487982091625781e+00 3.829679132295813027e+00 3.517800447678634868e+00 3.391167691707374310e+00 3.449906670906811801e+00 3.299102715404464536e+00 3.149657232102514470e+00 3.082598919741889709e+00 3.032270071078728257e+00 3.047135658899164490e+00 2.895061533091028316e+00 2.888851541289335412e+00 2.973816412164232315e+00 2.887421727852199194e+00 2.831788304847751014e+00 2.831788304847751014e+00 2.837514245561531645e+00 2.909097139922486530e+00 2.694697711925217121e+00 2.518246461002003223e+00 1.992504181486400849e+00 1.645603892467992768e+00 1.165130572995884961e+00 1.011137705198172254e+00 6.149350990962646479e-01 6.867746409692997156e-02 -8.062753014339663071e-01 -8.062753014339663071e-01 -1.358473643457344338e+00 -1.806939909050790716e+00 -2.037444247645335160e+00 -2.097720022578549948e+00 -2.492343286062055796e+00 -2.687884514054980301e+00 -2.506554679389250584e+00 -2.703128964283258995e+00 -2.444011246208059873e+00 -1.907771408927587675e+00 -1.685107356649221400e+00 -1.685107356649221400e+00 -1.631415178673348620e+00 -1.530182795876092516e+00 -1.530182795876092516e+00 -1.848450496346095040e+00 -2.320968921954513764e+00 -2.584736667116855013e+00 -2.713064067268838198e+00 -3.130934750415853340e+00 -3.355746864682815023e+00 -3.629784791400092914e+00 -3.663435334916425035e+00 -3.834452806158067162e+00 -4.013852579916457053e+00 -4.191161344045950088e+00 -4.191161344045950088e+00 -4.340867961685711762e+00 -4.515974420087236041e+00
5.186535721801231347e+00 5.186535721801231347e+00 4.880245994010886434e+00 4.445077555073308595e+00 3.948501240753412134e+00 3.744157074065137092e+00 3.512526642194779392e+00 2.989513526203972482e+00 2.532437198861737571e+00 2.532437198861737571e+00 2.471919559846906367e+00 2.330840626362270296e+00 2.382105735335780849e+00 2.162336130401820267e+00 1.934006593659918227e+00 1.757853295125978210e+00 1.543643923580092503e+00 1.378890022881495314e+00 1.265178115204617537e+00 1.006203350804981467e+00 8.902402144710466203e-01 8.902402144710466203e-01 1.282309684361734758e+00 1.604610555315655107e+00 1.757504584636207401e+00 1.757504584636207401e+00 1.898522248640375887e+00 2.055649623133035675e+00 2.071823252932006643e+00 2.367319781250639465e+00 2.951459932885823534e+00 3.036683121188709755e+00 3.988998465871584909e+00 5.055934920333529980e+00 4.726307650832250573e+00 5.168486044924468281e+00 5.523248389492047217e+00 5.523248389492047217e+00 6.049087473083672784e+00 6.326791159978246704e+00 6.326791159978246704e+00 6.613339737221832770e+00 6.826545837810537698e+00 6.842808516902059601e+00 6.779711958187562892e+00 6.779186246308816166e+00 6.802284514938401472e+00 6.603581404688310563e+00 6.425480629703161917e+00 6.343803183051053729e+00 6.038011750618892393e+00 5.626370003590302815e+00 5.626370003590302815e+00 5.190738337102240862e+00 5.060919022032177139e+00 4.855970493712622016e+00 4.727734409183973696e+00 4.441502617199414082e+00 4.379123968643900966e+00 4.006482471261416656e+00 3.932532598376827337e+00 3.711210133483878515e+00 3.495707907409149051e+00 3.427752741068581521e+00 3.427752741068581521e+00 3.240654881514859476e+00 3.062875592940009106e+00 3.032270071078728257e+00 3.054018967664215545e+00 2.915138065157692360e+00 2.888851541289335412e+00 2.964326025619510752e+00 2.866645651592309108e+00 2.813273292348002830e+00 2.792600148002713389e+00 2.709988959222597860e+00 2.835817605786372653e+00 2.842202335141718272e+00 2.422219793392741405e+00 2.422219793392741405e+00 1.891158012429385415e+00 1.412080440721465324e+00 1.011137705198172254e+00 8.112443323437517062e-01 3.385425393230372393e-01 -1.768996450232622475e-01 -1.055597848295830588e+00 -1.285173011048963199e+00 -1.501749174105092788e+00 -1.888559548726410631e+00 -2.237136485153531140e+00 -2.237136485153531140e+00 -2.506626433791522501e+00 -2.774160947627806628e+00 -2.703128964283258995e+00 -2.586484533648711004e+00 -1.830859100060744815e+00 -1.719436622440356333e+00 -1.704587108925169625e+00 -1.652176384786240071e+00 -1.530399493467221816e+00 -1.585773014349502574e+00 -1.950966854069481560e+00 -1.950966854069481560e+00 -2.418554727776102808e+00 -2.818839420750246738e+00 -3.130934750415853340e+00 -3.167270158395543156e+00 -3.461484423478954575e+00 -3.663435334916425035e+00 -3.864107744805066247e+00 -3.876905854751954816e+00 -4.012724526604438680e+00 -4.214369760719066882e+00 -4.247298335701250593e+00 -4.371235205565851878e+00
5.245365071014600922e+00 5.245365071014600922e+00 4.492409191204972174e+00 4.492409191204972174e+00 4.002282845489019358e+00 3.567112938990238291e+00 3.249315866519665530e+00 2.969697293013406014e+00 2.362480256232513121e+00 2.381088473084552071e+00 2.315927643726887197e+00 2.157749945220054588e+00 2.172662927855437687e+00 1.999497169438265276e+00 1.936116649973827819e+00 1.877756991560153743e+00 1.597851856123805536e+00 1.042201048402378039e+00 1.042201048402378039e+00 9.413073472330359959e-01 8.154713247065554782e-01 1.048890504534145229e+00 1.490701727899476747e+00 1.828159873966804794e+00 1.802084121540236339e+00 1.943101785544405047e+00 2.571383918938234814e+00 2.313516771035635244e+00 2.515981215834003581e+00 3.144852085924952245e+00 3.144852085924952245e+00 3.582458466774490535e+00 4.606657355269097032e+00 5.055934920333529980e+00 5.154368190608917821e+00 5.237714868412542302e+00 5.332678094936229130e+00 5.877253182096290551e+00 5.997698390005894886e+00 6.314320660316263378e+00 6.436375349627285303e+00 6.687651655156490627e+00 6.687651655156490627e+00 6.784839864295541645e+00 6.701212956531211518e+00 6.779186246308816166e+00 6.655451692982074618e+00 6.533531892394684348e+00 6.425480629703161917e+00 6.149290082878321684e+00 5.949758154497242657e+00 5.876357415415226271e+00 5.408197364625033643e+00 5.251074491503581854e+00 5.182587941571485501e+00 4.973233525705855307e+00 4.579846373118231284e+00 4.579846373118231284e+00 4.378046638822662651e+00 4.088242725042119829e+00 3.932532598376827337e+00 3.807243945277021258e+00 3.626895721815438289e+00 3.638883568170234284e+00 3.442974476710706000e+00 3.331652530927204925e+00 3.170237478782303775e+00 3.049329072618596204e+00 2.968272037371177952e+00 2.968272037371177952e+00 2.883267718594379581e+00 2.857188329834460916e+00 2.866645651592309108e+00 2.842895435037972263e+00 2.757044145665613399e+00 2.709988959222597860e+00 2.853365468710027830e+00 2.844267386984511425e+00 2.953256867898673033e+00 2.378020689804391630e+00 1.733677038469586762e+00 1.733677038469586762e+00 1.210225343677945986e+00 6.854591248531933800e-01 3.385425393230372393e-01 1.660955841433244817e-01 -7.049797672165519780e-01 -1.285173011048963199e+00 -1.384504466377327381e+00 -1.803746328714168623e+00 -2.000147108176189903e+00 -2.378984570876572668e+00 -2.496039658982676102e+00 -2.718101937360026810e+00 -2.785189401347812677e+00 -2.214385767424969842e+00 -2.214385767424969842e+00 -1.858346128413427278e+00 -1.707736908053000491e+00 -1.652176384786240071e+00 -1.542240314737800766e+00 -1.541200973001386920e+00 -1.725293509262916025e+00 -2.103720771490589669e+00 -2.225936943654973632e+00 -2.516429949131841148e+00 -2.904516253660437197e+00 -3.198416674088678135e+00 -3.198416674088678135e+00 -3.471531057465280679e+00 -3.702912305005442661e+00 -3.876905854751954816e+00 -3.890583358198777653e+00 -4.121999805305725850e+00 -4.247298335701250593e+00 -4.412979076194355699e+00
5.108334014758460384e+00 5.108334014758460384e+00 5.015992191918548393e+00 4.251460719375594444e+00 4.033506834442357025e+00 3.777472718684339092e+00 3.281374322202201821e+00 2.464876264486705271e+00 2.464876264486705271e+00 2.194001043202163714e+00 2.142836962584671490e+00 2.157749945220054588e+00 2.092961226388906582e+00 1.970703585716105488e+00 1.936116649973827819e+00 1.821507389460388815e+00 1.851105184542010118e+00 1.470378296314190480e+00 1.138743285390025450e+00 1.264494495086955883e+00 1.264494495086955883e+00 1.580592933039567827e+00 1.863487455096602075e+00 1.828159873966804794e+00 2.306812327624297332e+00 2.829251066840833939e+00 2.571383918938234814e+00 3.351689806057370991e+00 3.393156671921293110e+00 3.173587352549733787e+00 3.541056949719585401e+00 4.067129915512270877e+00 4.208878412629685428e+00 5.102737933428031170e+00 5.034278279996982519e+00 5.034278279996982519e+00 5.290546617389208173e+00 5.666912130401811964e+00 5.997698390005894886e+00 6.017761093350396884e+00 6.109405369729902446e+00 6.365414071183030487e+00 6.571688238046180075e+00 6.404044696391096636e+00 6.582307161467825019e+00 6.514224244342383230e+00 6.468471973506551898e+00 6.468471973506551898e+00 6.269360773442918422e+00 6.004523606458018747e+00 5.949758154497242657e+00 5.772349300084618662e+00 5.397707075836123636e+00 5.251074491503581854e+00 5.174617039375373651e+00 5.016865648746671624e+00 4.798836382903179043e+00 4.473661084578825609e+00 4.343454470888326924e+00 4.343454470888326924e+00 4.015347582748401756e+00 3.767373693353349040e+00 3.626895721815438289e+00 3.729501437240628547e+00 3.549919701901532942e+00 3.331652530927204925e+00 3.241788215629459735e+00 3.100431729318261720e+00 3.062023060702560695e+00 2.967319072214308129e+00 2.966871151577622268e+00 2.907444989382685918e+00 2.918101304604838742e+00 2.804969387294105054e+00 2.804969387294105054e+00 2.749215773649483996e+00 2.769742282380190712e+00 2.844267386984511425e+00 2.887649961672706933e+00 2.397928590447706121e+00 2.017145457721560398e+00 1.586209640856469427e+00 1.436598870242586479e+00 1.048916475318270702e+00 5.307908547733684035e-01 -1.095442084163523733e-01 -1.095442084163523733e-01 -8.863844319722742338e-01 -1.576865113395818918e+00 -1.803746328714168623e+00 -1.916427828187878823e+00 -2.255636072186164576e+00 -2.496039658982676102e+00 -2.775510787155406334e+00 -2.846425845590731640e+00 -2.551121449506024597e+00 -2.023789763348477155e+00 -1.801879751725640411e+00 -1.704443285363608007e+00 -1.686090521290664057e+00 -1.460649415531093842e+00 -1.510761766265393380e+00 -1.582997356331797834e+00 -1.917471109099576188e+00 -2.312050085186263093e+00 -2.312050085186263093e+00 -2.705303802281298076e+00 -2.996503281647667993e+00 -3.262646361523310556e+00 -3.277969127185646592e+00 -3.545434583579132770e+00 -3.754130933580239748e+00 -3.953181725954279635e+00 -3.987698472443851561e+00 -4.137542944863328742e+00 -4.319494789277347202e+00
5.108334014758460384e+00 5.108334014758460384e+00 5.151738389826221010e+00 4.344714987885005542e+00 4.033506834442357025e+00 3.859824273396460725e+00 3.370555523616041604e+00 2.912052333324953057e+00 2.187771837625788862e+00 2.171810549349292518e+00 2.109665694799724101e+00 2.055379381569673924e+00 1.983051035930903261e+00 1.983051035930903261e+00 1.924066594106715655e+00 1.871878017597777388e+00 1.851105184542010118e+00 1.875168352276946226e+00 1.777530111772947174e+00 1.546147365070230872e+00 1.701306281109004948e+00 2.017571907158288713e+00 1.929115525886766047e+00 2.389776531539282711e+00 3.087118214743433953e+00 3.087118214743433953e+00 3.609556953959970560e+00 3.843632970709627728e+00 3.393156671921293110e+00 4.027073545592039672e+00 4.198462563480863885e+00 4.067129915512270877e+00 4.659727145574547258e+00 5.061484970283882667e+00 5.075567355237139644e+00 5.191595125698482249e+00 5.372911558689225764e+00 5.372911558689225764e+00 5.730298034115504535e+00 5.915405080849312824e+00 5.915405080849312824e+00 6.001920715680144625e+00 6.180496581898465180e+00 6.404044696391096636e+00 6.230644420619623425e+00 6.218934176066627906e+00 6.354916314009625644e+00 6.252145113868922799e+00 6.021503282410799684e+00 6.030523726070330603e+00 5.777439191099142946e+00 5.543717264215590745e+00 5.543717264215590745e+00 5.195526568038483006e+00 5.149736084846745499e+00 5.016865648746671624e+00 4.795819771622025662e+00 4.510056907105188806e+00 4.361227984702773064e+00 4.113192931954204212e+00 4.069088231536750477e+00 3.933562780429920469e+00 3.760680060885293052e+00 3.692452390966075804e+00 3.692452390966075804e+00 3.396003631292336955e+00 3.190652922278963466e+00 3.091026856638070086e+00 3.091026856638070086e+00 3.040968249754128827e+00 2.978666319072746482e+00 2.952467190857276602e+00 2.997790830015010233e+00 2.847761587729812582e+00 2.790942526867712381e+00 2.783114154851583422e+00 2.839253294202910283e+00 2.849437389663792786e+00 2.667221771477676473e+00 2.536340154216023102e+00 2.142893101148448665e+00 1.767970808135750804e+00 1.289944873424383243e+00 1.289944873424383243e+00 7.325175249323808702e-01 1.667814680427968654e-01 -3.402286087407775939e-01 -6.848848044002838753e-01 -1.354400299744911607e+00 -1.693001295872671896e+00 -2.014501541679592833e+00 -2.093524668952551071e+00 -2.376655113768122440e+00 -2.695429812500171884e+00 -2.788523653205510211e+00 -2.788523653205510211e+00 -2.293992821605680632e+00 -1.777618223303318867e+00 -1.704443285363608007e+00 -1.669970787976986504e+00 -1.490785293250679544e+00 -1.510761766265393380e+00 -1.624793739662208747e+00 -1.702930890233589345e+00 -2.025650256688024342e+00 -2.394868509460667205e+00 -2.770740642716519542e+00 -2.770740642716519542e+00 -3.063808299567666538e+00 -3.334140675045140334e+00 -3.545434583579132770e+00 -3.637575465150418186e+00 -3.820675961403389387e+00 -3.987698472443851561e+00 -4.034223403586747025e+00 -4.228875908504137193e+00
5.287484587733883856e+00 5.287484587733883856e+00 4.587072463468301109e+00 4.587072463468301109e+00 4.152062128744794300e+00 3.756550013321985126e+00 3.370555523616041604e+00 3.002865781540245305e+00 2.399803918394273428e+00 2.171810549349292518e+00 2.046338530454785420e+00 2.013516848678315707e+00 2.055327237720776967e+00 1.958511917245785661e+00 1.930353318430806375e+00 1.896050630489173328e+00 1.890848937976968624e+00 1.898795439937745577e+00 1.898795439937745577e+00 1.943372088384061502e+00 2.213345912102645308e+00 2.017571907158288713e+00 2.822858858298978202e+00 3.428410898262756579e+00 3.235585296310129255e+00 3.867424101862570573e+00 4.647729988981706306e+00 4.389862841079107625e+00 4.407784618730734572e+00 4.611258008463789970e+00 4.611258008463789970e+00 4.585106691233842291e+00 4.842560065935451519e+00 5.061484970283882667e+00 4.996766519865360578e+00 5.145475382984422197e+00 5.236509048303642722e+00 5.453888237974123143e+00 5.459047057154810645e+00 5.624432018644771603e+00 5.784422850611987243e+00 5.933638957027586258e+00 5.789304925750750286e+00 6.032003645325824337e+00 6.055791555038720020e+00 6.056785882082218464e+00 6.056785882082218464e+00 5.970540478354995351e+00 5.798348344896872675e+00 5.827571177563787508e+00 5.605120227701041458e+00 5.372983484238046614e+00 5.291558512704064299e+00 5.125304899648267742e+00 5.141782963896201153e+00 4.983863592348343197e+00 4.632848252159067926e+00 4.523583712845842264e+00 4.384099333651709784e+00 4.160548423282860675e+00 4.062425941987562794e+00 4.062425941987562794e+00 3.917719168838767363e+00 3.744667895301547311e+00 3.542327092487434381e+00 3.455489951511725444e+00 3.232461328340466178e+00 3.169525359802589648e+00 3.064656076681510743e+00 3.097034891418868341e+00 3.060617932800379748e+00 3.050193563529715490e+00 3.060264771232614756e+00 3.060264771232614756e+00 2.824840908069812251e+00 2.826010810833756715e+00 2.839253294202910283e+00 2.867681328167816623e+00 2.799372477512732438e+00 2.536340154216023102e+00 2.046312538281740423e+00 1.957847307116132640e+00 1.669375017234530301e+00 1.088762328373711341e+00 5.846359017363921273e-01 5.846359017363921273e-01 -6.329277552565538978e-02 -1.026769882053020444e+00 -1.026769882053020444e+00 -1.572743781877187441e+00 -1.850516612604484301e+00 -2.093524668952551071e+00 -2.277938390563161608e+00 -2.632173472817616933e+00 -2.807671183792507463e+00 -2.697720527623633568e+00 -2.547426344434772894e+00 -2.025694969785260646e+00 -1.701149662674215746e+00 -1.646166615039080128e+00 -1.646166615039080128e+00 -1.459518487302796430e+00 -1.505752146090502785e+00 -1.702930890233589345e+00 -1.816139019416311395e+00 -2.181860134146001329e+00 -2.527917007688563089e+00 -2.794589889206657407e+00 -2.877675215255242946e+00 -3.084407196906012061e+00 -3.399134599272520596e+00 -3.672410344515370184e+00 -3.672410344515370184e+00 -3.880484623909004505e+00 -4.055427282049100413e+00 -4.228875908504137193e+00
5.287484587733883856e+00 5.287484587733883856e+00 5.287484587733883856e+00 4.371478967989336439e+00 4.365930145559842046e+00 3.945513608595842658e+00 3.504588841955792677e+00 2.786453329233566922e+00 2.604263199196351408e+00 2.331395268051308367e+00 2.092399569798443437e+00 1.977726869726589953e+00 1.977726869726589953e+00 1.935133143832540314e+00 1.904461576058150474e+00 1.911947677248330368e+00 1.930156611337791261e+00 2.038333362839809926e+00 1.993980680086172796e+00 2.379758059747076882e+00 3.243651517419912533e+00 3.017966212257111813e+00 3.556660752968260120e+00 4.297986785661700893e+00 4.297986785661700893e+00 4.815245821839316598e+00 5.304597381558281199e+00 5.304597381558281199e+00 5.245309769513630371e+00 5.145339091421089250e+00 4.855868177242141925e+00 4.915894411009522180e+00 4.927313863920617543e+00 5.020232007139732389e+00 5.024713216057454801e+00 4.998793672463033744e+00 5.205571012840615630e+00 5.309517014413705382e+00 5.408926310018483896e+00 5.408926310018483896e+00 5.456321895299175218e+00 5.552207863417289779e+00 5.789304925750750286e+00 5.627904571263429467e+00 5.683989913138783656e+00 5.905969191709306898e+00 5.857182652545694701e+00 5.638919976226046238e+00 5.754479985222287652e+00 5.586973974956765510e+00 5.432283372608411653e+00 5.432283372608411653e+00 5.164728873228031425e+00 5.038530195931278044e+00 5.141782963896201153e+00 4.920112676801789320e+00 4.631998686086197026e+00 4.523583712845842264e+00 4.342166224501420757e+00 4.196371225353771273e+00 4.123445489088924276e+00 4.118228464723737048e+00 4.102966130883505258e+00 3.934802675173907360e+00 3.553944572422398807e+00 3.403677249143227890e+00 3.403677249143227890e+00 3.201944303131239344e+00 3.115686403831129603e+00 3.097034891418868341e+00 3.150393383374393785e+00 3.147804001783552685e+00 3.139519663838605368e+00 2.956317856733976512e+00 2.893829834752057018e+00 2.862881369193254866e+00 2.895878541818866836e+00 2.988986416703284466e+00 2.988986416703284466e+00 3.010459377556740534e+00 2.336306304534423894e+00 1.957847307116132640e+00 1.778211980078061583e+00 1.283642063863666305e+00 9.376170250618254265e-01 3.574564893657068421e-01 1.449192236502751807e-01 -3.743435261257422320e-01 -1.252489412442581385e+00 -1.671741796207627528e+00 -1.671741796207627528e+00 -2.010869559076435387e+00 -2.370021770255621441e+00 -2.632173472817616933e+00 -2.682374262579612534e+00 -2.696385820039953085e+00 -2.547426344434772894e+00 -1.777236671941199386e+00 -1.807509755742814361e+00 -1.629401279704330463e+00 -1.536564251632595468e+00 -1.504504045298505011e+00 -1.475939659303736828e+00 -1.543488628282565944e+00 -1.799911655239449182e+00 -1.799911655239449182e+00 -2.334198858017948019e+00 -2.630130209891591964e+00 -2.877675215255242946e+00 -2.944616694009380087e+00 -3.250234955479522903e+00 -3.476563540650345452e+00 -3.744362675547547425e+00 -3.781556232189286604e+00 -3.936642277051871197e+00 -4.123863295099642556e+00
5.423230785641546703e+00 5.423230785641546703e+00 5.423230785641546703e+00 4.398242948093666449e+00 4.346106090563807811e+00 4.346106090563807811e+00 3.641346522687023413e+00 3.027150572457952826e+00 2.604263199196351408e+00 2.489419831952028872e+00 2.175295060229416322e+00 2.001576718056483184e+00 1.986705010281549333e+00 2.020765551852774511e+00 1.959970198973772337e+00 1.969794578530277063e+00 2.047886087482906348e+00 2.047886087482906348e+00 2.271918205467573060e+00 2.962508749835746968e+00 3.243651517419912533e+00 3.922558637260931125e+00 4.359220760877438927e+00 4.374382922558171849e+00 4.820169109105132854e+00 4.789028060717173574e+00 4.889573443673277175e+00 4.728086929159093899e+00 4.949716464290191631e+00 4.949716464290191631e+00 4.888021337316677872e+00 4.819455296067485683e+00 4.927313863920617543e+00 4.859665996335420068e+00 4.800094929807835697e+00 4.998793672463033744e+00 5.061775884411596316e+00 4.953543234107542936e+00 5.121505353830357876e+00 5.270712240985284680e+00 5.037333673055075955e+00 5.250771495167264824e+00 5.365064727290215885e+00 5.462113603570844411e+00 5.462113603570844411e+00 5.492660286903921829e+00 5.495908272068803946e+00 5.638919976226046238e+00 5.427958937140997087e+00 5.338839463632367277e+00 5.387306381323729632e+00 5.208732190108891658e+00 5.029377415530787765e+00 4.998697541984459036e+00 4.997162749482450650e+00 4.686275622173762478e+00 4.686275622173762478e+00 4.482935893494198076e+00 4.339453232733989196e+00 4.196371225353771273e+00 4.148946300956932731e+00 4.132913696774626722e+00 4.102966130883505258e+00 3.804731514577846418e+00 3.706441497659367368e+00 3.526788913777824774e+00 3.314876815313688496e+00 3.211978081338809687e+00 3.211978081338809687e+00 3.137497879791443456e+00 3.145056018571424250e+00 3.147804001783552685e+00 3.225889085277763524e+00 3.161835247062953158e+00 2.893829834752057018e+00 3.040848658528621407e+00 3.083010481136037928e+00 3.021938608642153579e+00 2.988228897971564990e+00 2.987471379239845071e+00 2.918391174825681222e+00 2.160975341879245004e+00 1.621815271944312187e+00 1.621815271944312187e+00 1.100414226952356245e+00 5.163980924435996878e-01 1.449192236502751807e-01 -5.738336808988184212e-02 -8.994271415313065399e-01 -1.280888785241112382e+00 -1.762664343501588515e+00 -1.907484738581036954e+00 -2.150837028581911614e+00 -2.491360247047372134e+00 -2.685396074254431831e+00 -2.685396074254431831e+00 -2.525179381318885863e+00 -2.054478857290546578e+00 -1.807509755742814361e+00 -1.631339875337571854e+00 -1.579938645092228588e+00 -1.504504045298505011e+00 -1.507293211928934618e+00 -1.548086840456476709e+00 -1.579011943442812482e+00 -1.984455768407078713e+00 -2.419066512780326583e+00 -2.476061974940571453e+00 -2.718454649832080960e+00 -3.027682928669000795e+00 -3.100817390561793729e+00 -3.330368847712448677e+00 -3.633281164791015705e+00 -3.832267479591719983e+00 -3.832267479591719983e+00 -4.068954054870224546e+00
5.558976983549218431e+00 5.558976983549218431e+00 4.664208990765127183e+00 4.419074727016430337e+00 4.715868148918494818e+00 4.320852672390936178e+00 3.470370962345082688e+00 3.470370962345082688e+00 2.953751367280255558e+00 2.515633514419203465e+00 2.175295060229416322e+00 2.346459214315071762e+00 2.366645359432489215e+00 2.020765551852774511e+00 2.292342281857084885e+00 2.584471462758958893e+00 2.327840599075610140e+00 2.590106185527388138e+00 3.099826251494764762e+00 2.891500470128417710e+00 3.843289443220504253e+00 4.253842328997569311e+00 4.253842328997569311e+00 4.502944846340872331e+00 4.758148280238755135e+00 4.789028060717173574e+00 4.732839985480012501e+00 4.630638251304082686e+00 4.978528746681750050e+00 4.920969625706630879e+00 4.712789697136501310e+00 4.778969626945510640e+00 4.761579306299180914e+00 4.697347275304068148e+00 4.697347275304068148e+00 4.734318191982204382e+00 4.770991275733408976e+00 4.953543234107542936e+00 4.744878034760116492e+00 4.874745577454287826e+00 5.037333673055075955e+00 5.112431010500612771e+00 4.946272896540582664e+00 5.191118465179490826e+00 5.261755100017641240e+00 5.322795025232299082e+00 5.322795025232299082e+00 5.293087079139676909e+00 5.232033029209120834e+00 5.232033029209120834e+00 5.165059775381592999e+00 5.046373131536350698e+00 5.029377415530787765e+00 4.868213213954334151e+00 4.789668407057442678e+00 4.798275402430590475e+00 4.564274387182980064e+00 4.430988531025969124e+00 4.380070786793076820e+00 4.200703763153089909e+00 4.138234197703203776e+00 4.138234197703203776e+00 4.110474206957365872e+00 3.873567907272355448e+00 3.706441497659367368e+00 3.607185058859752935e+00 3.431690656293532093e+00 3.309991469005786335e+00 3.237079869224437356e+00 3.289376630444562188e+00 3.265736717409633005e+00 3.274605187519900262e+00 3.270182229887021119e+00 3.270182229887021119e+00 3.113619694632847601e+00 3.126139601042355221e+00 3.141026623672205087e+00 3.141026623672205087e+00 3.076973709458119544e+00 2.986284877060537912e+00 2.651295642744839753e+00 2.478734015613491160e+00 1.844650290202924259e+00 1.471893095745680613e+00 9.106436994787824313e-01 7.744876432746350403e-01 3.507734202220077480e-01 -8.148689484714879416e-01 -6.953177091682662958e-01 -1.121866633965046711e+00 -1.674812074398692507e+00 -2.023612765343650644e+00 -2.023612765343650644e+00 -2.342057880734532915e+00 -2.570486241599534871e+00 -2.589675639581749955e+00 -2.418469200860683621e+00 -2.185828637209051628e+00 -1.906121931412060100e+00 -1.627567118581597860e+00 -1.602487035605192789e+00 -1.549489603294214035e+00 -1.511891424102845383e+00 -1.500218752841562253e+00 -1.500218752841562253e+00 -1.812243606697244491e+00 -2.261344226027614646e+00 -2.476061974940571453e+00 -2.559234084408919863e+00 -2.889588384398161125e+00 -3.100817390561793729e+00 -3.411229324119971817e+00 -3.469294626210458254e+00 -3.656598493753962842e+00 -3.896041631845361675e+00 -4.133936001219544742e+00
5.558976983549218431e+00 5.558976983549218431e+00 4.637924582871931989e+00 4.419074727016430337e+00 4.841397721013293243e+00 4.760513764587644303e+00 4.079100123297798142e+00 3.666822476022987054e+00 3.818649727106249614e+00 3.244501220917444861e+00 2.984119186012312408e+00 2.835872915873264510e+00 2.835872915873264510e+00 2.789479248660891031e+00 2.883911392767209314e+00 2.584471462758958893e+00 3.151068537478709519e+00 3.476407255484616599e+00 3.099826251494764762e+00 3.572205146560960110e+00 4.241489964612865649e+00 4.099779478482148853e+00 4.544534786423826134e+00 4.663902763838091658e+00 4.663902763838091658e+00 4.764924337729982362e+00 4.894409470675592289e+00 4.894409470675592289e+00 4.711423063769071717e+00 4.692799944169624204e+00 4.712789697136501310e+00 4.642044842881499100e+00 4.594707567308405238e+00 4.673288097550138076e+00 4.567471615357820092e+00 4.472239101002353223e+00 4.645246483986054997e+00 4.594188441809830437e+00 4.571646242487233280e+00 4.571646242487233280e+00 4.621088604427868063e+00 4.672654157583933987e+00 4.946272896540582664e+00 4.754332359095552185e+00 4.840626722102232549e+00 4.927653957721966904e+00 5.129867798911961430e+00 4.947254182053308469e+00 4.941302398153234243e+00 5.090266126225796661e+00 5.041510704451408031e+00 4.887387187151007950e+00 4.894025957833544993e+00 4.737653305752029809e+00 4.676438128059390742e+00 4.676438128059390742e+00 4.491372753960298780e+00 4.348763387880099529e+00 4.318467578071798485e+00 4.199337984347003783e+00 4.133486301993731793e+00 4.123168333324798596e+00 4.103830967466835844e+00 3.940866116250796303e+00 3.851710428460308755e+00 3.585098993903883091e+00 3.553205477592453754e+00 3.426760021112006172e+00 3.392966859604409358e+00 3.409872710834206622e+00 3.409872710834206622e+00 3.413296368125063207e+00 3.387783054834009100e+00 3.348444835154459120e+00 3.339723966900229435e+00 3.369375829216471718e+00 3.285076449152438904e+00 3.180212956757603848e+00 3.192763371659506078e+00 3.089524124360022661e+00 2.949023870608106890e+00 2.367074994551115363e+00 2.367074994551115363e+00 1.731865449861391459e+00 1.198201866327262444e+00 7.744876432746350403e-01 4.689785581374955603e-01 -1.710836132208790744e-02 -6.953177091682662958e-01 -1.344391487233580040e+00 -1.523721841348745665e+00 -1.798150867230855265e+00 -2.106319634605160918e+00 -2.415502323746812507e+00 -2.415502323746812507e+00 -2.482965459123547713e+00 -2.586706110166477668e+00 -2.586706110166477668e+00 -1.899046359721712207e+00 -1.573530074685884905e+00 -1.602487035605192789e+00 -1.594417588719884815e+00 -1.458893463330505735e+00 -1.457577632008181689e+00 -1.604631483790596835e+00 -1.697609685277238212e+00 -1.995820800372228643e+00 -2.320894716155732951e+00 -2.683378292914849528e+00 -2.683378292914849528e+00 -2.950761369946639956e+00 -3.263326645343172405e+00 -3.469294626210458254e+00 -3.562176520153273351e+00 -3.858701709553931991e+00 -3.985345279771794758e+00
5.363483832539110097e+00 5.363483832539110097e+00 5.363483832539110097e+00 4.431479809278261683e+00 4.869880155523881982e+00 4.869880155523881982e+00 4.804061403641752825e+00 4.458744191928022182e+00 3.818649727106249614e+00 4.212314840576615538e+00 3.943502787983234281e+00 3.350784607916133417e+00 3.333397631765995683e+00 3.736681144916516040e+00 3.922457624362294837e+00 3.489072112336562004e+00 3.785164535065155711e+00 4.342014478512313147e+00 3.919096058703545271e+00 4.190097008500602627e+00 4.435468357582435850e+00 4.435468357582435850e+00 4.716921205571884990e+00 4.726899255971269476e+00 4.746191015133863544e+00 4.781865608995916617e+00 4.685916944730113443e+00 4.533189573449072363e+00 4.572663518315540188e+00 4.464630262632618418e+00 4.602716543329965049e+00 4.538085865094090288e+00 4.486910198764854307e+00 4.486910198764854307e+00 4.363764980071842103e+00 4.359679681133547646e+00 4.359679681133547646e+00 4.250311638805972514e+00 4.159101384381036048e+00 4.472246522595233920e+00 4.212048119809832514e+00 4.236933951770566864e+00 4.516058475207612943e+00 4.628712310452748113e+00 4.419498344186823857e+00 4.666042477293152579e+00 4.763827325755118025e+00 4.784451136839903640e+00 4.784451136839903640e+00 4.813020831971640767e+00 4.850747666677098557e+00 4.887387187151007950e+00 4.743183596917061706e+00 4.595224245742541846e+00 4.634330256491436373e+00 4.499966964073722764e+00 4.418471120737616609e+00 4.384120998252710066e+00 4.297109726510736749e+00 4.176177038196060565e+00 4.176177038196060565e+00 4.113422969874970470e+00 4.047999972960787396e+00 3.940866116250796303e+00 3.949008132944743288e+00 3.675809866284210692e+00 3.553205477592453754e+00 3.484401773100674227e+00 3.543484012832808894e+00 3.454085896309517345e+00 3.472829111891244658e+00 3.458257077969157045e+00 3.458257077969157045e+00 3.485213493084777792e+00 3.520113719760439075e+00 3.520113719760439075e+00 3.487142417168839437e+00 3.296002618958990382e+00 3.192763371659506078e+00 3.353282317844699101e+00 3.269626467872262854e+00 2.948501006819551407e+00 2.202925003761211364e+00 1.952299273291201231e+00 1.625915335523836269e+00 1.047106246829767162e+00 4.609340585404556601e-01 4.609340585404556601e-01 -1.545694521227584661e-01 -1.245938357462490043e+00 -1.523721841348745665e+00 -1.701969852392013038e+00 -1.993973689494660695e+00 -2.191615447528085792e+00 -2.491629731542639448e+00 -2.568392880851689597e+00 -2.662071229016585328e+00 -2.403646278517598489e+00 -1.604736300619571843e+00 -1.604736300619571843e+00 -1.585617376804896672e+00 -1.487115905497323975e+00 -1.458893463330505735e+00 -1.401632191623627177e+00 -1.458094671278011623e+00 -1.697609685277238212e+00 -2.084994795674425028e+00 -2.190551249591828231e+00 -2.454314925318411778e+00 -2.765766519847794758e+00 -2.855311898181393637e+00 -3.029866325631987323e+00 -3.373143976943852262e+00 -3.636925886996470680e+00 -3.636925886996470680e+00 -3.903987167377024115e+00
5.126677159115603288e+00 5.126677159115603288e+00 4.611640174978736795e+00 4.443884891540093030e+00 5.190698203450001991e+00 5.158010253190534300e+00 4.953367553138410706e+00 5.133259784092038203e+00 4.730245282512129279e+00 4.190015940286777152e+00 4.412868447587107390e+00 4.412868447587107390e+00 4.286369921428767604e+00 4.318490988621951132e+00 4.318490988621951132e+00 4.488702326873402981e+00 4.652568928116757263e+00 4.342014478512313147e+00 4.815301285837430889e+00 4.740404075729546918e+00 4.668508179176388495e+00 4.731250565206576830e+00 4.735557487862926962e+00 4.825761706560252051e+00 4.811862192971251950e+00 4.648896624415907119e+00 4.648896624415907119e+00 4.418527454582990899e+00 4.373001112123059642e+00 4.464630262632618418e+00 4.458909344557167920e+00 4.354661472889991281e+00 4.427734781028513034e+00 4.340681544025062344e+00 4.163413306883732901e+00 4.210155127807952979e+00 4.193085230865418289e+00 4.015784686199415532e+00 4.015784686199415532e+00 4.096577603208385376e+00 4.049255055853317131e+00 4.236933951770566864e+00 4.111188575452150218e+00 4.239610470581685497e+00 4.419498344186823857e+00 4.537688877364677076e+00 4.403099283833459054e+00 4.601421284966939140e+00 4.654610153222050961e+00 4.517994131546555714e+00 4.720566563497320622e+00 4.737422815085874817e+00 4.588146634206476726e+00 4.588146634206476726e+00 4.475555155196395241e+00 4.403807884979666909e+00 4.418471120737616609e+00 4.326725127303323148e+00 4.263503035722141732e+00 4.190691251291081443e+00 4.126739178938009012e+00 4.085825279777089314e+00 4.097324887567560303e+00 4.004566954565657255e+00 3.779074594825417410e+00 3.779074594825417410e+00 3.674512201545020673e+00 3.604473866046065567e+00 3.543484012832808894e+00 3.620025559272646465e+00 3.636084900758940197e+00 3.551067876781468069e+00 3.500402038583953157e+00 3.595422910782950066e+00 3.568766352334061143e+00 3.612612057390587772e+00 3.414301022229184746e+00 3.414301022229184746e+00 3.562667742952948302e+00 3.263273685654860756e+00 3.269626467872262854e+00 3.451575888542546711e+00 2.553018365562036873e+00 1.952299273291201231e+00 1.808000909937588885e+00 1.266350789168435353e+00 8.754381780935442947e-01 2.733788383580938453e-01 3.168363943878861611e-02 -4.865351620715322456e-01 -1.276111679789731390e+00 -1.783784955657659932e+00 -1.783784955657659932e+00 -2.052370547959635694e+00 -2.381723391599146034e+00 -2.568392880851689597e+00 -2.567482844500382555e+00 -2.498350118932958885e+00 -2.056593895237983638e+00 -1.545881355872986473e+00 -1.548241994997097581e+00 -1.544829655485608022e+00 -1.435820902645430053e+00 -1.412570422480487586e+00 -1.412570422480487586e+00 -1.625877752763121409e+00 -1.921405419029193595e+00 -2.190551249591828231e+00 -2.312234360797888577e+00 -2.662575628917962511e+00 -2.855311898181393637e+00 -3.171453190972765679e+00 -3.265794864043305434e+00 -3.460125108565511809e+00 -3.712029199360823206e+00 -4.032383204045322245e+00
5.191456584652445194e+00 5.191456584652445194e+00 4.719945265686904534e+00 5.127171442006710933e+00 5.127171442006710933e+00 5.303420385677831028e+00 5.208541752865264662e+00 5.133259784092038203e+00 5.106119357655602542e+00 4.643791871372137336e+00 4.749094926886337831e+00 4.793240081983600298e+00 4.752435498928797131e+00 4.532243987756267245e+00 4.832954987170884564e+00 4.901721118956186451e+00 4.901721118956186451e+00 4.900108484346400672e+00 4.823727946230931707e+00 4.740404075729546918e+00 4.732957481057296967e+00 4.593367210240194787e+00 4.735557487862926962e+00 4.637059352533574597e+00 4.498389777619086871e+00 4.605273294366347692e+00 4.452404592121044224e+00 4.195046376915408715e+00 4.273562299202244397e+00 4.221840663787375547e+00 4.219978523823916028e+00 4.219978523823916028e+00 4.201481510642079087e+00 4.135682693744763938e+00 4.163413306883732901e+00 4.005262929894230162e+00 3.992349575093090408e+00 3.997093612615220781e+00 3.930277787991443450e+00 3.918374881407282739e+00 3.962011350923939190e+00 3.985451887991504627e+00 4.043571576201101081e+00 4.043571576201101081e+00 4.147762533773093452e+00 4.199564191492921594e+00 4.403099283833459054e+00 4.250028338194857369e+00 4.309725993938831046e+00 4.517994131546555714e+00 4.626772704928777458e+00 4.490122352681712670e+00 4.576437055548525201e+00 4.443353925035049556e+00 4.329652164030605377e+00 4.329652164030605377e+00 4.278071005239162616e+00 4.232273385750239925e+00 4.263503035722141732e+00 4.115995963002951896e+00 4.062805143486898807e+00 4.085825279777089314e+00 4.034553716322855976e+00 3.960190753744087910e+00 3.964265713234250033e+00 3.712606722995388964e+00 3.655035428722711366e+00 3.621405547582780216e+00 3.617202055234754354e+00 3.620402882410224787e+00 3.620402882410224787e+00 3.629165466477062729e+00 3.563817098535417394e+00 3.595422910782950066e+00 3.606523719160583230e+00 3.629424451349601011e+00 3.633293152892003608e+00 3.572431958410351882e+00 3.567815887047415924e+00 3.449785712139406435e+00 3.345311307506377840e+00 3.159794817392259869e+00 3.159794817392259869e+00 2.465089956120833481e+00 1.672307142036752570e+00 1.266350789168435353e+00 1.109573345316076320e+00 5.030839966436078114e-01 -1.975576909039101769e-01 -8.344584207359917460e-01 -9.293599037426780729e-01 -1.592842812005477393e+00 -1.837240887851242510e+00 -2.157038396388248902e+00 -2.244100502646926731e+00 -2.458527937386353557e+00 -2.589509280098464927e+00 -2.565115770774025084e+00 -2.256392355057681431e+00 -1.522788155437234225e+00 -1.484379907006572186e+00 -1.484379907006572186e+00 -1.448412965899420923e+00 -1.411535027971686063e+00 -1.454354723263029836e+00 -1.576395185191286741e+00 -1.769465091362333986e+00 -2.007133955491105404e+00 -2.433406832861332969e+00 -2.554579304924777805e+00 -2.747623165177906390e+00 -3.064104078072218851e+00 -3.359974585701620331e+00 -3.359974585701620331e+00 -3.606962103352937987e+00 -3.911998325392152420e+00
5.191456584652445194e+00 5.191456584652445194e+00 4.855691463594567381e+00 4.456289973801925264e+00 5.390029077568648574e+00 5.349078697112891412e+00 5.262470005222072089e+00 5.219519521944837592e+00 5.120531753730345415e+00 5.120531753730345415e+00 4.903202255791129893e+00 4.909418525919754472e+00 4.752435498928797131e+00 4.840304301425531364e+00 4.967611133616712138e+00 4.922638564091166735e+00 4.871971727065954383e+00 4.953947117346233497e+00 4.814787178503229903e+00 4.645629767203662830e+00 4.533905852309734641e+00 4.533905852309734641e+00 4.514426697716450221e+00 4.446559144647063810e+00 4.498389777619086871e+00 4.247805731942944973e+00 4.185595652744920514e+00 4.195046376915408715e+00 4.112906046312595265e+00 3.963294824218268175e+00 4.155152719506616243e+00 4.060515268938744704e+00 4.046128514291031486e+00 4.046128514291031486e+00 3.965676345190636276e+00 3.906053632373269302e+00 3.906053632373269302e+00 3.825517979578403782e+00 3.811306416460075397e+00 3.918374881407282739e+00 3.805888925866927064e+00 3.842166873829191864e+00 3.914735695911613078e+00 4.013699490691592153e+00 3.958286953653519014e+00 4.087854031728500814e+00 4.069612264058426021e+00 4.104517789254398252e+00 4.104517789254398252e+00 4.142181238636656104e+00 4.221983724617028422e+00 4.490122352681712670e+00 4.294608402498576005e+00 4.254512721130010888e+00 4.255774231030940769e+00 4.198900762854036905e+00 4.098762348760654817e+00 4.125393721824825555e+00 4.191849778123586390e+00 4.056850300020851563e+00 3.981127754198405810e+00 4.019656851609013870e+00 3.982873062469344916e+00 3.873915732253082389e+00 3.873915732253082389e+00 3.689204023006522615e+00 3.602410024190991322e+00 3.594779500149913876e+00 3.620023458073684530e+00 3.605525380643135769e+00 3.657841945107767945e+00 3.633743481064541925e+00 3.587050795770758249e+00 3.595833368970402955e+00 3.658707808835572006e+00 3.578973611610673178e+00 3.589113257822871272e+00 3.578657625489245042e+00 3.473807561640445574e+00 3.473807561640445574e+00 3.418553374604283324e+00 3.386855824581292307e+00 3.126268941631577203e+00 3.037847073274468013e+00 1.864942029901509146e+00 1.497948414463752265e+00 9.477438019361326127e-01 7.327891549291219997e-01 2.613887977243026239e-01 -3.933693808093708388e-01 -1.168059528620051246e+00 -1.168059528620051246e+00 -1.684981603138226314e+00 -2.031325288305600107e+00 -2.244100502646926731e+00 -2.324152601503326032e+00 -2.521089252553537996e+00 -2.565115770774025084e+00 -2.034503077066027732e+00 -1.579551958233629261e+00 -1.511971336134696475e+00 -1.467819348839672688e+00 -1.453838917336294223e+00 -1.453838917336294223e+00 -1.427829198218018236e+00 -1.584619147588305577e+00 -1.769465091362333986e+00 -1.823590736510006138e+00 -2.247364592622997925e+00 -2.554579304924777805e+00 -2.659363373621680626e+00 -2.956754965171671579e+00 -3.158445751142758162e+00 -3.439733559137836849e+00 -3.501895007345052324e+00 -3.705981419192931448e+00
5.256236010189287988e+00 5.256236010189287988e+00 4.855691463594567381e+00 4.490855270355042173e+00 5.465395165689735713e+00 5.349078697112891412e+00 5.293805279011496445e+00 5.307095635509309517e+00 5.182229217935844900e+00 4.961455586258191275e+00 5.052126003412048760e+00 4.941737561803494216e+00 5.017482873590419779e+00 4.948479859014374149e+00 4.948479859014374149e+00 5.109535058816723208e+00 5.040139039864850901e+00 4.953947117346233497e+00 4.769139841735965391e+00 4.609105186331940551e+00 4.623131373703664337e+00 4.402137086150984757e+00 4.293707707680567864e+00 4.400624332025636853e+00 4.171186017450283501e+00 4.055015657797752304e+00 3.895210171192793336e+00 3.976182639101746297e+00 3.853912117426399053e+00 3.850528193976813895e+00 3.850528193976813895e+00 3.765774075439574098e+00 3.809622790556744132e+00 3.926547946965381453e+00 3.755339651015475511e+00 3.692167517078612793e+00 3.785436221172447713e+00 3.770272578649874529e+00 3.692335044928708232e+00 3.742781385506947167e+00 3.714698766396266727e+00 3.735030386629869081e+00 3.735030386629869081e+00 3.784044588061635572e+00 3.887734019862651991e+00 3.924250350715763336e+00 3.753615181162110570e+00 3.757418027019019391e+00 3.932734236187579224e+00 3.802303674277591750e+00 3.879171130953658064e+00 4.102318363688941538e+00 4.146321874991560463e+00 4.093660315774734215e+00 4.055322475377771241e+00 4.039764573148949545e+00 4.040490995263318119e+00 4.040490995263318119e+00 4.105568184295456113e+00 3.990221176439051387e+00 3.981127754198405810e+00 3.976153960248206332e+00 3.927366338220651620e+00 3.901965220173211346e+00 3.764983495181359885e+00 3.715362483528628523e+00 3.652838800619456538e+00 3.602525856069973553e+00 3.594386839185338189e+00 3.594386839185338189e+00 3.676556744167242208e+00 3.594088997213040759e+00 3.587050795770758249e+00 3.600381309358481996e+00 3.632243834235441948e+00 3.578973611610673178e+00 3.564301014469409168e+00 3.527410475257240385e+00 3.500067802094830594e+00 3.476357853800348785e+00 3.423695847816467630e+00 3.423695847816467630e+00 3.090666086689382031e+00 2.261720254233470229e+00 2.261720254233470229e+00 1.723824471989016560e+00 1.172311186053762722e+00 7.327891549291219997e-01 5.939183561887259044e-01 -1.005061725969513819e-02 -7.735245099174594685e-01 -1.392716107571443152e+00 -1.498841963770787489e+00 -1.767391354351099286e+00 -2.106477613694707429e+00 -2.435070185472992588e+00 -2.435070185472992588e+00 -2.566829393883622412e+00 -2.277385760580286522e+00 -1.579551958233629261e+00 -1.475700677272295813e+00 -1.467968134758520948e+00 -1.464341540797359453e+00 -1.411458838440386554e+00 -1.401303673173006858e+00 -1.526912617619452295e+00 -1.625257214312715526e+00 -1.940149880321218490e+00 -1.940149880321218490e+00 -2.363588557480122976e+00 -2.758007172078686509e+00 -2.956754965171671579e+00 -3.051096638242210890e+00 -3.334999987043143932e+00 -3.501895007345052324e+00 -3.792085146708411791e+00
5.067907785126150699e+00 5.067907785126150699e+00 4.991437661502239109e+00 4.727688242321085532e+00 5.393559645090276078e+00 5.352613005318745287e+00 5.360540442241944703e+00 5.262220251968655838e+00 5.262220251968655838e+00 5.180447702033611712e+00 5.061302256002607969e+00 5.021573539294949207e+00 5.156546999472898740e+00 4.991579042725035720e+00 5.132898077619701738e+00 5.142571069883993928e+00 4.962948932269823921e+00 4.947640250966005127e+00 4.662896753726705867e+00 4.508832882434282041e+00 4.508832882434282041e+00 4.262153231391174302e+00 4.187681114017604678e+00 4.187681114017604678e+00 3.918440269150538668e+00 3.784641080860583706e+00 3.895210171192793336e+00 3.787806344092290445e+00 3.661465079301133407e+00 3.697478689094103377e+00 3.640632705344648556e+00 3.547633727958402261e+00 3.652668515026237461e+00 3.702184402322104440e+00 3.618871420280888707e+00 3.618871420280888707e+00 3.607151698300696374e+00 3.650596625544793472e+00 3.692335044928708232e+00 3.611449062741106886e+00 3.617966739366893059e+00 3.698161434368144818e+00 3.686553928771404198e+00 3.643537706576729374e+00 3.770926927166324827e+00 3.742946785799883713e+00 3.665354342440958924e+00 3.665354342440958924e+00 3.710745145124096034e+00 3.781159262282162814e+00 3.879171130953658064e+00 3.903551946229140590e+00 3.995849014425701284e+00 4.093660315774734215e+00 4.005968159365808745e+00 4.027446124729144650e+00 4.028927301599225075e+00 4.077741448658375845e+00 4.138576792836456519e+00 4.089405573837069596e+00 3.970056282838325679e+00 3.983809623427751134e+00 3.983809623427751134e+00 3.912931618173900450e+00 3.836324732013425276e+00 3.715362483528628523e+00 3.710420123528879621e+00 3.680732759966550027e+00 3.655417979400831463e+00 3.635861521643926508e+00 3.749016433653925340e+00 3.675872819716331730e+00 3.621682708290459907e+00 3.637163043981424870e+00 3.637163043981424870e+00 3.622118755264150280e+00 3.581002378629637661e+00 3.527410475257240385e+00 3.487677401211407791e+00 3.515002839049485850e+00 3.532501684274671483e+00 3.341764881585587155e+00 3.321611303551813776e+00 2.839724471092160307e+00 2.049521380101764212e+00 1.585680930838112346e+00 1.585680930838112346e+00 1.008365565637313388e+00 3.773768902139122972e-01 -1.005061725969513819e-02 -3.492601783187272990e-01 -1.106388338311713682e+00 -1.498841963770787489e+00 -1.888979091529800591e+00 -1.970330961192262365e+00 -2.227104689427720441e+00 -2.447505114542590121e+00 -2.503959227577166491e+00 -2.525331860918471172e+00 -1.826428879380869397e+00 -1.389201603620657144e+00 -1.389201603620657144e+00 -1.447372424304044003e+00 -1.396109537378996457e+00 -1.401303673173006858e+00 -1.483135112645612264e+00 -1.579146109472339132e+00 -1.729943092335663568e+00 -2.069440084174352990e+00 -2.159808443417395196e+00 -2.474107809452481543e+00 -2.837827107677818095e+00 -3.141670709317735621e+00 -3.141670709317735621e+00 -3.392527964658006212e+00 -3.664147269440581223e+00
5.067907785126150699e+00 5.067907785126150699e+00 5.127183859409901956e+00 4.527946642478273276e+00 5.393559645090276078e+00 5.335822917133281607e+00 5.365364961442942615e+00 5.358578049906034479e+00 5.249391752948118217e+00 5.228675551276145583e+00 5.184524142201442309e+00 5.105633700262866448e+00 5.086398940212406572e+00 5.086398940212406572e+00 5.070882659207638810e+00 4.994117049617697646e+00 4.962948932269823921e+00 4.766164679441214247e+00 4.554696865255367655e+00 4.463651495084804743e+00 4.292734243905167446e+00 4.165408127086452694e+00 4.162048881278089141e+00 4.021807398096692410e+00 3.794853927811895566e+00 3.794853927811895566e+00 3.739573542482670820e+00 3.653092990780089977e+00 3.661465079301133407e+00 3.589873500589822353e+00 3.532260047558050342e+00 3.547633727958402261e+00 3.622306580313357394e+00 3.591300883701476376e+00 3.656212982031489034e+00 3.596750858214513791e+00 3.589791093841586900e+00 3.656560229762601200e+00 3.673712223447013425e+00 3.569619545869162636e+00 3.569619545869162636e+00 3.584943950163564708e+00 3.600436404233774645e+00 3.643537706576729374e+00 3.587858717746361670e+00 3.663053977853606646e+00 3.636371906513391927e+00 3.652537735197336488e+00 3.609095287790391460e+00 3.688420196092834225e+00 3.764989926670475384e+00 3.895406039332454995e+00 3.895406039332454995e+00 3.959159880516249785e+00 3.963594891442348445e+00 4.027446124729144650e+00 4.019119363541213019e+00 4.077323725193789272e+00 4.138576792836456519e+00 4.028896324197145162e+00 4.002174156989251941e+00 3.992245911800638591e+00 3.958640391113831924e+00 3.870334870238711478e+00 3.870334870238711478e+00 3.792403953476993106e+00 3.724686411417074350e+00 3.680732759966550027e+00 3.740495468389485545e+00 3.753222742278996549e+00 3.749016433653925340e+00 3.751104858686860055e+00 3.669657948531367619e+00 3.664020230230354613e+00 3.704567505162616126e+00 3.726567378980051526e+00 3.603494023284356640e+00 3.558016421840477506e+00 3.538856631146859222e+00 3.538856631146859222e+00 3.584709234903413755e+00 3.478958620158965953e+00 3.321611303551813776e+00 3.387707889754930868e+00 2.517799359242475443e+00 2.004366735505130226e+00 1.381515643574786179e+00 1.243530750789066275e+00 8.334056550419595144e-01 1.338277812082233620e-01 -6.293010496111091090e-01 -6.293010496111091090e-01 -1.203105613669483986e+00 -1.750278637566496487e+00 -1.970330961192262365e+00 -2.111926389386240110e+00 -2.341444347461809183e+00 -2.503959227577166491e+00 -2.393109799039507823e+00 -2.129790381929267173e+00 -1.295829528068807246e+00 -1.387465945078028007e+00 -1.416355372137023672e+00 -1.353925354296733330e+00 -1.357192596970683507e+00 -1.510952555732526292e+00 -1.550892094173603297e+00 -1.684080527388888804e+00 -1.800040274384821837e+00 -2.193695994661231552e+00 -2.193695994661231552e+00 -2.618086752982994536e+00 -2.955528412434851759e+00 -3.201461118672652262e+00 -3.257332301494795246e+00 -3.541317068383581290e+00
5.191633793914824935e+00 5.191633793914824935e+00 4.585518542618371107e+00 4.585518542618371107e+00 5.326852327974181733e+00 5.386012410816929830e+00 5.365364961442942615e+00 5.393699138834463724e+00 5.266744440667240568e+00 5.228675551276145583e+00 5.255514252113236751e+00 5.188628371296379882e+00 5.192273988076717472e+00 4.955976849842197218e+00 5.005164359803749186e+00 4.980687657826225134e+00 4.795076790781868326e+00 4.561864245508116866e+00 4.561864245508116866e+00 4.330280191441216786e+00 4.164091321903809373e+00 4.165408127086452694e+00 4.074721973927222685e+00 3.871869585193546737e+00 3.841059414932511018e+00 3.674242952094490811e+00 3.603250086048612744e+00 3.660952996144847482e+00 3.573891852883757991e+00 3.554011882263318434e+00 3.554011882263318434e+00 3.449819853311124174e+00 3.492190063801049682e+00 3.591300883701476376e+00 3.585900820923241916e+00 3.574666572640302409e+00 3.589791093841586900e+00 3.726917120961716456e+00 3.697257593147683430e+00 3.609025798518770589e+00 3.569680511387975486e+00 3.586440262386335842e+00 3.586440262386335842e+00 3.551172038167895728e+00 3.638190295102974758e+00 3.638190295102974758e+00 3.553920391967968051e+00 3.548012918647643232e+00 3.609095287790391460e+00 3.572525469010047416e+00 3.699855881703369764e+00 3.785287161312243409e+00 3.837547553202648842e+00 3.818375544124537946e+00 3.941439247517568134e+00 4.006988682543747515e+00 4.090639199458441233e+00 4.090639199458441233e+00 4.163375053147412963e+00 4.095016629839590472e+00 4.002174156989251941e+00 4.008337863353070851e+00 3.993479042425009062e+00 3.913171337096620128e+00 3.912646020896259902e+00 3.868869685584903628e+00 3.768269240230422312e+00 3.771278912321443855e+00 3.812193358411982480e+00 3.852469237765584253e+00 3.820761093140271125e+00 3.761066944563038916e+00 3.727062131789533606e+00 3.727062131789533606e+00 3.728163006227360299e+00 3.739462630728916714e+00 3.625898926242144604e+00 3.577855943576811804e+00 3.579709272533326825e+00 3.497576240190242380e+00 3.585859779766228606e+00 3.553070041712172777e+00 3.395433137859082073e+00 3.572531565699432310e+00 2.899649349262129583e+00 2.220665205593077118e+00 1.590500209275445886e+00 1.070859542094993566e+00 1.070859542094993566e+00 4.616643921552516794e-01 -1.402293984004397975e-01 -8.197107399317504761e-01 -9.786553455322604123e-01 -1.598735900868044624e+00 -1.836533486259207759e+00 -2.165763468110760925e+00 -2.223615119016060238e+00 -2.416532900318866250e+00 -2.432079895502181621e+00 -1.462429976894801475e+00 -1.462429976894801475e+00 -1.289676347551591995e+00 -1.313092384194099127e+00 -1.353925354296733330e+00 -1.315717099612135899e+00 -1.442726390143074244e+00 -1.550892094173603297e+00 -1.712711919102092306e+00 -1.576388709247499076e+00 -1.819112722467896903e+00 -2.276554858939451087e+00 -2.765748684304802474e+00 -2.765748684304802474e+00 -3.051279153383625875e+00 -3.342749118671703989e+00 -3.541317068383581290e+00
5.191633793914824935e+00 5.262930057317565691e+00 5.262930057317565691e+00 4.383790554600768274e+00 5.235101741197635938e+00 5.306473065022967894e+00 5.349811098881543714e+00 5.373905042651097475e+00 5.373905042651097475e+00 5.206431779943146765e+00 5.283669759501155028e+00 5.188628371296379882e+00 5.223201573338764447e+00 4.934099385622969791e+00 5.005164359803749186e+00 4.854041243765069069e+00 4.619619594568694865e+00 4.581570857466005009e+00 4.434187393562358359e+00 4.150827596307933298e+00 4.150827596307933298e+00 4.063934383214825807e+00 3.887712353217673389e+00 3.887712353217673389e+00 3.735766451719256143e+00 3.554364717878383928e+00 3.603250086048612744e+00 3.498943417818405788e+00 3.372785406398998376e+00 3.501464684107650882e+00 3.421696685704070706e+00 3.294638391293534418e+00 3.372498175848072322e+00 3.493617948516098082e+00 3.642320621439588457e+00 3.642320621439588457e+00 3.572430489382477425e+00 3.769499406146439302e+00 3.609535712760254089e+00 3.609535712760254089e+00 3.456497778612695804e+00 3.415648482962208909e+00 3.533164310807960895e+00 3.362417806029061040e+00 3.370131436236229572e+00 3.582050314811552560e+00 3.474129178650703587e+00 3.303852143098237715e+00 3.483158102751626739e+00 3.565970552776556168e+00 3.614095699261954842e+00 3.614095699261954842e+00 3.650198907865306985e+00 3.794432807852564427e+00 3.933537954882743826e+00 3.923306797739413376e+00 4.030494338164311685e+00 4.066920275752753611e+00 4.101699997668609043e+00 4.124144717552860051e+00 4.055073821392229050e+00 4.088285022637133892e+00 4.080407935575500744e+00 3.973793398972960578e+00 4.001307492208572292e+00 3.844261634387581950e+00 3.844261634387581950e+00 3.852987487754231832e+00 3.883487059005081399e+00 3.852469237765584253e+00 3.812056533223970423e+00 3.734133357555477151e+00 3.693757735339679549e+00 3.715844619403265270e+00 3.623864773670457673e+00 3.723930120125005683e+00 3.607220145764832964e+00 3.543995999784655737e+00 3.543995999784655737e+00 3.486224121102231788e+00 3.563951794714591337e+00 3.553070041712172777e+00 3.404841093737760893e+00 3.381780373289464681e+00 2.899649349262129583e+00 1.979642497665115464e+00 1.793591196967267765e+00 1.481260558692603979e+00 9.038162919182514132e-01 3.466772958385477832e-01 3.466772958385477832e-01 -2.794794080910469880e-01 -1.205919936489927125e+00 -1.598735900868044624e+00 -1.656124151026538316e+00 -2.064012080727599230e+00 -2.223615119016060238e+00 -2.311242228287726519e+00 -2.423524695855166389e+00 -2.357536410351027012e+00 -1.216939113230662395e+00 -1.157126366132734230e+00 -1.271250163125651422e+00 -1.252775517604458377e+00 -1.310867877993471264e+00 -1.310867877993471264e+00 -1.489143053004246431e+00 -1.638307780804713065e+00 -1.576388709247499076e+00 -1.660727007168923297e+00 -2.094457103795357877e+00 -2.338979123977428909e+00 -2.757822101800977865e+00 -2.889049369111155841e+00 -3.118251982031187364e+00 -3.449331571048873890e+00
5.398676255225238307e+00 5.398676255225238307e+00 5.398676255225238307e+00 4.410554534705099172e+00 5.235101741197635938e+00 5.253279734765651909e+00 5.325423773502715896e+00 5.337274581815244723e+00 5.271392347944892975e+00 5.162314166944167226e+00 5.178822545506109876e+00 5.178861211749958393e+00 4.991800347816304217e+00 4.741988454341292680e+00 4.826948095576149456e+00 4.644140343971724150e+00 4.387129652001682700e+00 4.387129652001682700e+00 4.167151897826482987e+00 3.960173592239102369e+00 4.006171387605908407e+00 3.893612529619642437e+00 3.719024308327439243e+00 3.713731150225822120e+00 3.578165952412019735e+00 3.363354996564426713e+00 3.391829041088868735e+00 3.256712428932735826e+00 3.163129614282380597e+00 3.163129614282380597e+00 3.116475834575453963e+00 3.066186834256684257e+00 3.066186834256684257e+00 3.134150786992867754e+00 3.279264147267927143e+00 3.429063596790345336e+00 3.225840257041172610e+00 3.251143605810142834e+00 3.438710623292944746e+00 3.360152313757406528e+00 3.052671808853111290e+00 3.255970277245987532e+00 3.204249846466859175e+00 3.097068737742472599e+00 3.097068737742472599e+00 3.191748565456151709e+00 3.134092815146635402e+00 3.303852143098237715e+00 3.136123733053924667e+00 3.212219076511839688e+00 3.462665979644269587e+00 3.537610977322198202e+00 3.414690047158047914e+00 3.609344661662134968e+00 3.760606374422230225e+00 3.870583500564392043e+00 3.870583500564392043e+00 3.977586659324418683e+00 4.115290713645418208e+00 4.124144717552860051e+00 4.124219018629936784e+00 4.189454308183262476e+00 4.080407935575500744e+00 3.991216529745611474e+00 4.092567948009773637e+00 4.014552717567968720e+00 3.839113034724815243e+00 3.937639529173285080e+00 3.937639529173285080e+00 3.874769476736178220e+00 3.762192710218160485e+00 3.762192710218160485e+00 3.655352268829296314e+00 3.605998499283967540e+00 3.623864773670457673e+00 3.592467910364659733e+00 3.518244053498416513e+00 3.529194421929017444e+00 3.504477679998564188e+00 3.454605882828212238e+00 3.523999426928358769e+00 3.445978661939903986e+00 3.468101771409506817e+00 3.468101771409506817e+00 3.068871714496604675e+00 2.176208752209437325e+00 1.793591196967267765e+00 1.666015015048190939e+00 1.151878841015980148e+00 7.437722708727158016e-01 2.078220754019177163e-01 5.155828146985674820e-03 -5.233382050855917011e-01 -1.285426597028385798e+00 -1.829635317826060703e+00 -1.829635317826060703e+00 -2.077152570139249921e+00 -2.342291323854108320e+00 -2.423524695855166389e+00 -2.362559548208882809e+00 -1.222558952160407220e+00 -1.157126366132734230e+00 -1.193036158263541147e+00 -1.108212232203038994e+00 -1.251603217364061216e+00 -1.337738389125931793e+00 -1.387393913802385859e+00 -1.564756376186348108e+00 -1.572223146514717396e+00 -1.790696426456584778e+00 -1.790696426456584778e+00 -2.032185138384464462e+00 -2.536082525766957474e+00 -2.889049369111155841e+00 -2.998481634594892586e+00 -3.291605074291432231e+00
5.534422453132901154e+00 5.534422453132901154e+00 4.680181814881699154e+00 4.437318514809429182e+00 5.456369716867875752e+00 5.274456372754576350e+00 5.332429371950742514e+00 5.332429371950742514e+00 5.233274429464929156e+00 5.132663095914481666e+00 5.132663095914481666e+00 5.067026185520698611e+00 4.776259493027174230e+00 4.741988454341292680e+00 4.588183593299983265e+00 4.398938079377435528e+00 4.396721914789794461e+00 4.207592713455117206e+00 3.829137465305346488e+00 3.884788731158100639e+00 3.832436570233999085e+00 3.737432296139788335e+00 3.737432296139788335e+00 3.552112184944892892e+00 3.391577746852681763e+00 3.363354996564426713e+00 3.187652432905050848e+00 2.994651622881476349e+00 3.050793957435100623e+00 3.003534278694127035e+00 2.747568683757319885e+00 2.913888496475659284e+00 2.893578323992946899e+00 2.954279164611485875e+00 2.954279164611485875e+00 3.053584869838160465e+00 2.999178199382229959e+00 3.251143605810142834e+00 2.896122944832295154e+00 2.884314683895836673e+00 3.052671808853111290e+00 2.995604603271691424e+00 2.797042041470188423e+00 2.994623901640364849e+00 2.943502644114500022e+00 2.749031733448930925e+00 2.970582457935359244e+00 2.943902546793114361e+00 2.987011130848640228e+00 2.987011130848640228e+00 3.121476102973083755e+00 3.249236781171735533e+00 3.414690047158047914e+00 3.386912324675007468e+00 3.594716429948777048e+00 3.786901289057168274e+00 3.918359712447986087e+00 3.901948835136257898e+00 3.990970501955505068e+00 4.135671791663522612e+00 4.230625966768033486e+00 4.230625966768033486e+00 4.177935412897143763e+00 4.087870723225768721e+00 4.092567948009773637e+00 4.161852904066591030e+00 3.969958881980107712e+00 3.892912303615928771e+00 3.939833004203736166e+00 3.897404817230908147e+00 3.788203106581394586e+00 3.677739343754515833e+00 3.543675231043038387e+00 3.543675231043038387e+00 3.507593365190078138e+00 3.498746126306316206e+00 3.518244053498416513e+00 3.465195086870762164e+00 3.433191627970572757e+00 3.454605882828212238e+00 3.459958985096387440e+00 3.346217719748200814e+00 3.347672687099757738e+00 3.255923193185024100e+00 3.136245224704086176e+00 2.739588257290736184e+00 1.975530095139423237e+00 1.534987722557039191e+00 1.534987722557039191e+00 9.703948400554567311e-01 4.285292325731122620e-01 5.155828146985674820e-03 -1.534301172102455202e-01 -9.519540278411283696e-01 -1.452802595457944657e+00 -1.932231405452007333e+00 -1.942838029310234083e+00 -2.196483276977356347e+00 -2.374444299307596484e+00 -2.262079691406567949e+00 -2.262079691406567949e+00 -1.028958567426000226e+00 -1.065284200193338915e+00 -1.108212232203038994e+00 -1.092581308137912099e+00 -1.232370608126481137e+00 -1.387393913802385859e+00 -1.593151484546868613e+00 -1.576088352685134586e+00 -1.712223617963372524e+00 -1.867574337535544693e+00 -2.182726182313776242e+00 -2.343543369219614370e+00 -2.749686346114514013e+00 -3.055550897651248654e+00 -3.595141800153477174e+00
5.534422453132901154e+00 5.534422453132901154e+00 4.674623472171306915e+00 4.437318514809429182e+00 5.461045461644056687e+00 5.207329422290142951e+00 5.301108070354257684e+00 5.315912325600733901e+00 5.186303018277843790e+00 5.150484077489452694e+00 5.034981192933120298e+00 4.904227006143569767e+00 4.904227006143569767e+00 4.547894151251218986e+00 4.450078739324223598e+00 4.398938079377435528e+00 4.184330102326464740e+00 3.985666541110510774e+00 3.829137465305346488e+00 3.759467042794427449e+00 3.634621629095757367e+00 3.730070807273012434e+00 3.545145880366536328e+00 3.338899254852470300e+00 3.362529999096014688e+00 3.174991041953324267e+00 2.987388301861442663e+00 2.987388301861442663e+00 2.749253074151849052e+00 2.591809904175745416e+00 2.747568683757319885e+00 2.565483345962105144e+00 2.530563423193159522e+00 2.706286974413953494e+00 2.807689195186415798e+00 2.680181352031162589e+00 2.837697259747411049e+00 2.732959463408991319e+00 2.669786426627099640e+00 2.669786426627099640e+00 2.671987372687915752e+00 2.616140182551406124e+00 2.797042041470188423e+00 2.639593584551722216e+00 2.590472974200872081e+00 2.749031733448930925e+00 2.795961049702752277e+00 2.642466387107947234e+00 2.789832017968122635e+00 2.859937591437874627e+00 3.045960862462778085e+00 3.045960862462778085e+00 3.177541014314251289e+00 3.397504131851640352e+00 3.594716429948777048e+00 3.617861313057084693e+00 3.789783346459294933e+00 3.901948835136257898e+00 3.885785130562177336e+00 4.029104182375457199e+00 4.161312859305606793e+00 4.290623593729391949e+00 4.213858737321693582e+00 4.168209926074216476e+00 4.182833817322625158e+00 4.054391655333197342e+00 4.054391655333197342e+00 3.922329609103182957e+00 3.971798381907948539e+00 3.897404817230908147e+00 3.792261514164528613e+00 3.625242815498470605e+00 3.619039869435747736e+00 3.490807600783452092e+00 3.426976233170700770e+00 3.461005700604314228e+00 3.429924912677807747e+00 3.440241056782018525e+00 3.440241056782018525e+00 3.423077598099970587e+00 3.370363086528447738e+00 3.294074088508403442e+00 3.294074088508403442e+00 3.225837764984616385e+00 3.007757346381823460e+00 2.428597796516891005e+00 2.201209099558703475e+00 1.735074005907640382e+00 1.382698677186840808e+00 8.003841412844021619e-01 6.207717510831419760e-01 2.470460466031932367e-01 -3.372845730499751116e-01 -5.476263054407533026e-01 -1.172253384806476895e+00 -1.712999706035723824e+00 -2.079526199742655290e+00 -2.079526199742655290e+00 -2.271414679951544002e+00 -2.321363767660401312e+00 -1.570494933355571110e+00 -9.758689436497494096e-01 -1.007960116055701016e+00 -9.736061215571396588e-01 -1.106837806053741158e+00 -1.125557748701345062e+00 -1.291115472837454980e+00 -1.520080386432913544e+00 -1.734812737641997726e+00 -1.734812737641997726e+00 -1.891463109945879850e+00 -2.043240987671609776e+00 -2.343543369219614370e+00 -2.590509424363726332e+00 -2.954586378401057090e+00 -3.339689722454741272e+00
5.284186292002418739e+00 5.284186292002418739e+00 5.284186292002418739e+00 4.459720774276778599e+00 5.145691653354917960e+00 5.145691653354917960e+00 5.259616655074736968e+00 5.253537893876065290e+00 5.186303018277843790e+00 5.046544566214517857e+00 4.921830811538359995e+00 4.932640614792307865e+00 4.589374942647520328e+00 4.354285768445052440e+00 4.371194324128754083e+00 4.205403074274688180e+00 4.005283859023869297e+00 4.005283859023869297e+00 3.651938241097696825e+00 3.558970082830511306e+00 3.634621629095757367e+00 3.469692266478307197e+00 3.271560778404357883e+00 3.338899254852470300e+00 3.165038702313811125e+00 2.888859143096410342e+00 2.942392626135052147e+00 2.721149873566877098e+00 2.520431834801226678e+00 2.520431834801226678e+00 2.471110108802921701e+00 2.423683932917458428e+00 2.423683932917458428e+00 2.407275938631849854e+00 2.477299508525817373e+00 2.680181352031162589e+00 2.515174263904679464e+00 2.432245110408257638e+00 2.512172780505682823e+00 2.549219062267130020e+00 2.388150198034267202e+00 2.498320201685055864e+00 2.495565113627844944e+00 2.486784489157763733e+00 2.486784489157763733e+00 2.469359914406211498e+00 2.544048802172897528e+00 2.642466387107947234e+00 2.554359084123937862e+00 2.654213316924752597e+00 2.850545777377536005e+00 3.024718165039277373e+00 3.009110089302843072e+00 3.203176190847893512e+00 3.410407742381050156e+00 3.593891786573727209e+00 3.637198530208689107e+00 3.791560522511178366e+00 3.944605340964151274e+00 4.084299097193692774e+00 4.084299097193692774e+00 4.235973224799918668e+00 4.128482950119979122e+00 4.103922948056501596e+00 4.108880376846887117e+00 4.039083905537121488e+00 4.006004438380489141e+00 3.992132656707845673e+00 3.974773602422873253e+00 3.892168802753559032e+00 3.701146843300999301e+00 3.578794491514943665e+00 3.547669269109424039e+00 3.434037609448653772e+00 3.383919654576899916e+00 3.383919654576899916e+00 3.372765983317548510e+00 3.363298023520341129e+00 3.373521975845924281e+00 3.404973995530291120e+00 3.314725898686813110e+00 3.291013036074623699e+00 3.239751965542849277e+00 3.134118979595059251e+00 3.159485591951313399e+00 2.732711744866425541e+00 2.127051836577463551e+00 2.127051836577463551e+00 1.546873284449616914e+00 1.007183629830773475e+00 6.207717510831419760e-01 4.335128353639768894e-01 -9.288070779837841184e-02 -5.476263054407533026e-01 -1.284165915189539708e+00 -1.451462983773503135e+00 -1.828665913530062026e+00 -2.106585876168922233e+00 -2.370275666313442109e+00 -2.370275666313442109e+00 -1.813194892381438050e+00 -1.166796555778880862e+00 -1.007960116055701016e+00 -1.101328348891937203e+00 -9.993230193585039833e-01 -1.125557748701345062e+00 -1.189005040493555487e+00 -1.380836382487598657e+00 -1.536030838496566187e+00 -1.823027090048526366e+00 -1.891730328712858178e+00 -1.868899369349644957e+00 -2.265045062631546369e+00 -2.671509008757129155e+00 -2.671509008757129155e+00 -3.121975557088845665e+00
5.131598021966816248e+00 5.131598021966816248e+00 4.648339064278114385e+00 4.472125856538610833e+00 5.465721206420238509e+00 5.197844115543174937e+00 5.249781052128984271e+00 5.249781052128984271e+00 5.099030655369324094e+00 4.887568276848222482e+00 4.887568276848222482e+00 4.778314321161807321e+00 4.429277954878444667e+00 4.354285768445052440e+00 4.174263368080278980e+00 4.043310868465826324e+00 4.040726119096631486e+00 3.828141337780837095e+00 3.539522273847909517e+00 3.354533482082506790e+00 3.385576969701994621e+00 3.216816070761630897e+00 2.979192581789756655e+00 3.050052208654510100e+00 2.880493293828332746e+00 2.648720140577395021e+00 2.648720140577395021e+00 2.435444256650197481e+00 2.306053172801300288e+00 2.380365491922790788e+00 2.246117953511184151e+00 2.166777541362272519e+00 2.265935838903761823e+00 2.288833209817120462e+00 2.167915050699459112e+00 2.348334381449090458e+00 2.314710561412800960e+00 2.233779062613163724e+00 2.233779062613163724e+00 2.258944410469729824e+00 2.228301462624874496e+00 2.346226731885296513e+00 2.222366613109807876e+00 2.216223304938246486e+00 2.329865363911563403e+00 2.211647668378354581e+00 2.291257706171667685e+00 2.413819602066611392e+00 2.482620293368523967e+00 2.435892199691073845e+00 2.621724533660918066e+00 2.855046394779218843e+00 3.037506863160226445e+00 3.037506863160226445e+00 3.217389839454614098e+00 3.430063728936207035e+00 3.637198530208689107e+00 3.671219990305393477e+00 3.862164587277509220e+00 3.947946728805749927e+00 4.191912081643526022e+00 4.159901904892579161e+00 4.177557433944040000e+00 4.047129809199353723e+00 4.098646094666909434e+00 4.098646094666909434e+00 3.984492622786303340e+00 3.965452049949662161e+00 3.974773602422873253e+00 3.884563464344476635e+00 3.677676669439192914e+00 3.578794491514943665e+00 3.416112809989774846e+00 3.373565136556038180e+00 3.350121724464736772e+00 3.341044370304891764e+00 3.336812902699965999e+00 3.336812902699965999e+00 3.312023150937996707e+00 3.338717983804721623e+00 3.338717983804721623e+00 3.237235874994255802e+00 3.119242522065337031e+00 3.134118979595059251e+00 3.067195844951135619e+00 2.713639374087381206e+00 2.490987858003882671e+00 1.897059985655853431e+00 1.708436708457257591e+00 1.369936967327147759e+00 8.072100687824338427e-01 2.511086084923994100e-01 2.511086084923994100e-01 -2.327867838026794756e-01 -1.021356137124557639e+00 -1.451462983773503135e+00 -1.722964711395108317e+00 -1.992554986142944129e+00 -2.149656403658456227e+00 -2.292117383739790348e+00 -2.045881274831550911e+00 -9.862433448877034881e-01 -1.218290881328847775e+00 -1.001982044083946644e+00 -1.001982044083946644e+00 -1.042046209071340712e+00 -1.182635112241001263e+00 -1.380836382487598657e+00 -1.437507503123840680e+00 -1.785137900237327990e+00 -1.891730328712858178e+00 -2.042151742026725891e+00 -2.216710322234661579e+00 -2.362638193091008532e+00 -2.768905090629272259e+00 -3.150413714004622001e+00
5.196377447503659042e+00 5.196377447503659042e+00 4.695390735270585481e+00 5.439244781802372586e+00 5.439244781802372586e+00 5.195994516616349479e+00 5.230496789314549311e+00 5.163532459518886064e+00 5.011758292460803510e+00 4.746537453103240267e+00 4.810985563807502530e+00 4.558278305653288065e+00 4.280713732372486646e+00 4.174180646797136518e+00 4.002189994006386087e+00 3.897122135866797343e+00 3.897122135866797343e+00 3.660117631774880032e+00 3.360910120365340426e+00 3.360910120365340426e+00 3.135462723359724535e+00 2.918060997939720735e+00 2.979192581789756655e+00 2.760182739533162621e+00 2.589330746299506103e+00 2.601278739110316263e+00 2.413166042430887615e+00 2.164395338792555634e+00 2.250109487120140805e+00 2.168921079669837049e+00 2.085988858090345843e+00 2.085988858090345843e+00 2.007567773084826257e+00 2.001916695931182488e+00 2.167915050699459112e+00 2.017352793300934977e+00 1.997816179999014841e+00 2.131530757407524845e+00 2.096958487886099398e+00 1.968669758672330072e+00 2.104313023380619097e+00 2.076801441622066147e+00 2.088339874154283127e+00 2.088339874154283127e+00 2.071429494004323857e+00 2.113385534013934919e+00 2.291257706171667685e+00 2.187470972125282298e+00 2.255422764774608346e+00 2.435892199691073845e+00 2.638882856514052300e+00 2.659851830246185322e+00 2.848615081780984770e+00 3.009557457980625905e+00 3.236763450725601121e+00 3.236763450725601121e+00 3.484613713958083725e+00 3.697122788199370458e+00 3.697122788199370458e+00 3.866789275236041767e+00 4.099730441275490023e+00 4.159901904892579161e+00 4.116160594344590251e+00 4.001109348397148047e+00 4.034926936371149964e+00 3.999578673022586184e+00 3.962980807192117538e+00 3.979195543308717831e+00 3.978544443128620767e+00 3.764625179056867665e+00 3.764625179056867665e+00 3.532340060085970457e+00 3.356547786029861591e+00 3.373565136556038180e+00 3.275976788451950394e+00 3.277245355271901861e+00 3.315607053957290162e+00 3.286354990258663733e+00 3.245671457988998476e+00 3.386870392960611209e+00 3.259295038929965749e+00 3.118240503747350623e+00 3.118240503747350623e+00 3.033472849552288686e+00 2.937474708377008970e+00 2.713639374087381206e+00 2.380688847656726281e+00 2.000981749173086577e+00 1.708436708457257591e+00 1.225100637613776078e+00 9.995281995476248404e-01 6.199796241247605977e-01 2.156387691807169771e-01 -1.296359714239350425e-01 -5.216737979412060522e-01 -1.380885641840193134e+00 -1.844521100021012217e+00 -1.844521100021012217e+00 -2.051846807067260414e+00 -2.262870999819178497e+00 -2.045881274831550911e+00 -1.182743942122967962e+00 -8.370033864231376519e-01 -1.143548837343606461e+00 -8.918082326632671419e-01 -9.657704100333600605e-01 -1.082322862842350464e+00 -1.232476057748071785e+00 -1.633995000917182194e+00 -1.633995000917182194e+00 -1.873798367331120263e+00 -2.102990696014308991e+00 -2.216710322234661579e+00 -2.163505776102306655e+00 -2.554681387821179595e+00 -2.854565947401681125e+00
