5.328630647567863754e+00 5.328630647567863754e+00 5.328630647567863754e+00 5.328630647567863754e+00 4.651698181895166151e+00 4.617006167699009289e+00 5.396648958893677239e+00 5.339294578957771265e+00 5.262554914570127806e+00 5.277045835246254590e+00 5.183057450660930598e+00 4.842702862711732337e+00 5.056780344558749363e+00 4.941649310571104792e+00 5.053719769890149038e+00 4.933142517492861145e+00 4.933142517492861145e+00 4.956749090275066827e+00 4.918818121827060352e+00 4.887203168402695752e+00 4.746507127444057339e+00 4.576652997490270991e+00 4.610488409081900940e+00 4.498502372666631999e+00 4.331674265856753081e+00 4.438006852104046551e+00 4.172484612106227786e+00 4.047721835821078251e+00 3.854023191705879814e+00 3.969112956446419815e+00 3.869126745435456538e+00 3.850718907420461967e+00 3.850718907420461967e+00 3.794978855897001679e+00 3.788728424084333746e+00 3.898708668634709440e+00 3.757190396227310103e+00 3.694377421408005624e+00 3.788034720983319836e+00 3.730165993194807239e+00 3.676337459347989611e+00 3.731562323471864673e+00 3.720564853377581471e+00 3.799827609883709822e+00 3.799827609883709822e+00 3.876021466403345439e+00 3.893647084312048534e+00 3.949556461438394450e+00 3.791647761930730276e+00 3.860402082626184228e+00 4.016135119257285169e+00 3.879482067923637700e+00 3.937052349996397194e+00 4.124352534402955683e+00 4.052728960335784336e+00 3.968817821032859516e+00 4.124823252396746298e+00 4.054344717506983109e+00 4.043978806605074361e+00 4.043978806605074361e+00 4.042982624158240945e+00 3.905592171711068872e+00 3.942572202484914357e+00 3.947368931863102670e+00 3.838378776513928337e+00 3.858872885008934439e+00 3.764326110768543288e+00 3.646489096796654117e+00 3.632152803613967862e+00 3.548230152965072381e+00 3.547388999048971314e+00 3.547388999048971314e+00 3.571862601650374724e+00 3.616183846098454335e+00 3.595170794499200184e+00 3.632384409462304564e+00 3.583090132803566696e+00 3.517909335438624829e+00 3.523186310492260720e+00 3.403588056035743215e+00 3.426599276520844395e+00 3.468535973160658870e+00 3.444250433140425116e+00 3.444250433140425116e+00 3.353295042791178293e+00 3.284860704140990517e+00 3.284860704140990517e+00 3.231710198623998664e+00 1.446877086494308573e+00 6.977653354949031606e-01 2.063870790383616483e-01 -6.284057339424310717e-02 -3.562932241938394917e-02 -8.548651668197852771e-02 -3.697005796866598137e-01 -9.302327605509587150e-01 -1.512313133853991909e+00 -1.940189614685138508e+00 -1.940189614685138508e+00 -2.212547553501016395e+00 -2.207095375187345443e+00 -2.135851407723726059e+00 -2.011531727345530651e+00 -1.859599406755232165e+00 -1.710682391677513348e+00 -1.617182404964285114e+00 -1.660748555992574982e+00 -1.626157186926585618e+00 -1.676796726402172810e+00 -1.809648593068672540e+00 -1.809648593068672540e+00 -2.041179324383359805e+00 -2.275606243856354460e+00 -2.447221588597376485e+00 -2.541085078628263716e+00 -2.850427519397191745e+00
4.780616139437082524e+00 4.780616139437082524e+00 4.780616139437082524e+00 4.780616139437082524e+00 4.690836374810810838e+00 4.844125645750371412e+00 5.442451151789751584e+00 5.311097663109123346e+00 5.312291771324228584e+00 5.249841032998207702e+00 5.249841032998207702e+00 5.101055982076522000e+00 5.064545652260666664e+00 5.091932148365141408e+00 5.187658488382330901e+00 5.242430028613868309e+00 4.987974790041123541e+00 5.063276419114792759e+00 4.961888901595790102e+00 4.877855224512354759e+00 4.577580125989600290e+00 4.487655342122280899e+00 4.487655342122280899e+00 4.345454857058855147e+00 4.250598904571981862e+00 4.250598904571981862e+00 3.862008864493786220e+00 3.710661774929946866e+00 3.854023191705879814e+00 3.743322767647164095e+00 3.640256610723977992e+00 3.684755757712171675e+00 3.655647230319143404e+00 3.532390157561859034e+00 3.659063249849241473e+00 3.693920663007365768e+00 3.616605661670003080e+00 3.616605661670003080e+00 3.599870510018033265e+00 3.603477351437519349e+00 3.676337459347989611e+00 3.590807990215279411e+00 3.599412955904814915e+00 3.676555839133712755e+00 3.718926177122021670e+00 3.689279792535351099e+00 3.805062961069546112e+00 3.715685293227625863e+00 3.629551785605410252e+00 3.629551785605410252e+00 3.703247468287465871e+00 3.746119219374419274e+00 3.937052349996397194e+00 3.800093657029968153e+00 3.809483073088630434e+00 3.968817821032859516e+00 3.977882738083878156e+00 3.940343797015953609e+00 3.962511768579878968e+00 3.944539536776034971e+00 4.020422421313831762e+00 3.981864250424953955e+00 3.847023377529509069e+00 3.899506169990676785e+00 3.899506169990676785e+00 3.804834990776055470e+00 3.764008666480194609e+00 3.646489096796654117e+00 3.671787885471210267e+00 3.605901162373616575e+00 3.598835769368405213e+00 3.538246319820007812e+00 3.667142018538629422e+00 3.630684366874030289e+00 3.647276478175409231e+00 3.548326982317353551e+00 3.548326982317353551e+00 3.613803423386886760e+00 3.566102129641224305e+00 3.403588056035743215e+00 3.478729495843653652e+00 3.511363885522902795e+00 3.474222302614095703e+00 3.417474984195774113e+00 3.425494528717994314e+00 3.340848589191601103e+00 3.299903556481851297e+00 3.260762588785009797e+00 3.260762588785009797e+00 1.011970895628818035e+00 6.161799749576311880e-02 -6.284057339424310717e-02 3.026083670678998694e-02 2.941270276407633583e-02 -3.697005796866598137e-01 -1.205611601075255113e+00 -1.310198768801487113e+00 -1.648578607476317348e+00 -2.019824217732467453e+00 -2.060560990317167995e+00 -2.194581251294602353e+00 -2.139004874143542789e+00 -1.942248848583785659e+00 -1.942248848583785659e+00 -1.783636725670675771e+00 -1.683134036105607079e+00 -1.660748555992574982e+00 -1.644409115952111033e+00 -1.635234004831735533e+00 -1.684475766755852977e+00 -1.832269752138399266e+00 -1.889524190739504395e+00 -2.082849787293427291e+00 -2.375034840649721701e+00 -2.661686449386451159e+00 -2.661686449386451159e+00
4.780616139437082524e+00 4.780616139437082524e+00 4.780616139437082524e+00 4.780616139437082524e+00 4.744455487963234575e+00 4.785517313632974279e+00 5.442451151789751584e+00 5.311773244506889924e+00 5.313890205157719926e+00 5.314878533692286133e+00 5.253080319286270949e+00 5.159563863886745594e+00 5.181630979881628463e+00 5.174300527563566732e+00 5.149277220715385184e+00 5.149277220715385184e+00 5.018424013951631402e+00 4.987466752500274048e+00 4.961888901595790102e+00 4.758311542292410046e+00 4.477312615537407225e+00 4.490307674709053565e+00 4.292192953315273840e+00 4.174150027847434608e+00 4.177296808475919221e+00 4.021932935589896729e+00 3.667956214175410512e+00 3.667956214175410512e+00 3.643639686444215098e+00 3.649311171672919407e+00 3.640256610723977992e+00 3.530631517642503603e+00 3.485177227393638777e+00 3.532390157561859034e+00 3.601575304754688567e+00 3.607107756143705046e+00 3.639840020513244401e+00 3.597651673654197246e+00 3.579600711922368284e+00 3.588772940919880305e+00 3.645313252475046006e+00 3.550637117150057698e+00 3.550637117150057698e+00 3.583193862870687418e+00 3.589643901433603901e+00 3.689279792535351099e+00 3.615313811249150966e+00 3.622584759880922878e+00 3.612418603303364950e+00 3.660461774886090591e+00 3.590865484155231879e+00 3.675356761504120939e+00 3.729753339809251944e+00 3.816364319191256627e+00 3.816364319191256627e+00 3.853990358749824985e+00 3.924200532731552116e+00 3.940343797015953609e+00 3.978834401480244143e+00 4.032610367626862313e+00 4.020422421313831762e+00 3.918168747420994968e+00 3.958523850598753668e+00 3.965683608299881424e+00 3.882574129379314343e+00 3.805867852887992342e+00 3.805867852887992342e+00 3.724375239863958242e+00 3.715282979940581320e+00 3.605901162373616575e+00 3.692251387401581653e+00 3.682306439019960909e+00 3.667142018538629422e+00 3.729462455173714552e+00 3.691325893811092218e+00 3.653873671761629804e+00 3.627088667224235952e+00 3.656435013403514400e+00 3.658119477085343352e+00 3.529251267367681244e+00 3.538246768422760091e+00 3.538246768422760091e+00 3.568032890244944078e+00 3.409747522316310508e+00 3.425494528717994314e+00 3.409550617572256748e+00 3.340268899517705670e+00 3.277442810448432553e+00 2.503570334737698744e+00 1.599803670550443924e+00 7.650008493700792833e-01 8.811005786748396518e-02 7.342546159391766247e-02 7.342546159391766247e-02 -5.010265653081366621e-02 -7.643435709894896846e-01 -1.310198768801487113e+00 -1.438207322879510475e+00 -1.830237536294912815e+00 -2.060560990317167995e+00 -2.136833897129259530e+00 -2.088404206736688362e+00 -1.950216986054845059e+00 -1.872043097614680240e+00 -1.752270719584254843e+00 -1.680038576247291804e+00 -1.646587378406903390e+00 -1.624088504224558083e+00 -1.590801365941444612e+00 -1.627799670393967002e+00 -1.742309343466576399e+00 -1.951263764590733585e+00 -1.951263764590733585e+00 -2.221385915170278391e+00 -2.546030007446665522e+00 -2.727355190519818784e+00
4.780616139437082524e+00 4.780616139437082524e+00 4.975689940586124571e+00 4.975689940586124571e+00 4.792387074930634761e+00 4.792387074930634761e+00 5.264163012154707388e+00 5.276639399947338660e+00 5.313890205157719926e+00 5.323110419638245716e+00 5.229120509697988695e+00 5.159563863886745594e+00 5.249249008407263162e+00 5.187198933974240589e+00 5.203991334496702592e+00 5.111504845890392446e+00 4.955651182708570524e+00 4.925074205938670957e+00 4.776257582661495249e+00 4.560033273223801586e+00 4.560033273223801586e+00 4.316102036498155492e+00 4.144602948803810527e+00 4.174150027847434608e+00 4.041149684194752290e+00 3.867488945711728299e+00 3.759149482818017418e+00 3.613101898839214066e+00 3.588427798030441984e+00 3.584049070702050699e+00 3.526252830098222102e+00 3.479883936941611022e+00 3.479883936941611022e+00 3.393540197889033827e+00 3.455274943789013342e+00 3.607107756143705046e+00 3.555800239577116884e+00 3.621281001004412303e+00 3.579600711922368284e+00 3.658979848703997728e+00 3.655857779433739019e+00 3.608993421087570486e+00 3.559321920335174916e+00 3.525924655264756513e+00 3.525924655264756513e+00 3.543847881990219939e+00 3.563676503745127011e+00 3.563676503745127011e+00 3.520202346972402641e+00 3.573990787823219328e+00 3.590865484155231879e+00 3.565044260996052650e+00 3.639328342735801858e+00 3.699457811290650877e+00 3.780851193424242140e+00 3.815353253573272152e+00 3.923395025508409795e+00 3.919035793422131597e+00 4.060187265486303154e+00 4.060187265486303154e+00 4.107384244215246838e+00 4.011600473952769086e+00 3.958523850598753668e+00 4.045805361140125456e+00 3.988133544920998919e+00 3.862000262734542666e+00 3.851278972907262066e+00 3.840033220151548132e+00 3.735675482932643732e+00 3.724711455515217207e+00 3.795891781974845891e+00 3.820959473810982665e+00 3.781418540016057594e+00 3.737142893459119541e+00 3.693830286312898892e+00 3.693830286312898892e+00 3.697303255653976883e+00 3.702017350563879816e+00 3.600915505471232070e+00 3.580370866006325592e+00 3.619064845253064711e+00 3.516463848574997275e+00 3.556508997302589403e+00 3.503883452817102118e+00 3.486959284450050323e+00 3.423316485142263055e+00 3.299275708109546734e+00 3.304292958953332526e+00 3.142005863264999643e+00 1.127529704061014604e+00 1.127529704061014604e+00 1.603272589627787736e-01 -8.696056125914332358e-02 -2.743897298347145949e-02 -4.945122047455381697e-02 -3.904497911072777327e-01 -1.090611653893149402e+00 -1.540597819388178635e+00 -1.625931984239674666e+00 -1.865955460219369311e+00 -2.038445579642843342e+00 -2.039133779405637448e+00 -2.039133779405637448e+00 -1.875087051173427666e+00 -1.754873680240188971e+00 -1.680038576247291804e+00 -1.624137432385092117e+00 -1.596719895740156492e+00 -1.590801365941444612e+00 -1.662082428581442395e+00 -1.660968240430096277e+00 -1.750732303473437668e+00 -2.020462864059945574e+00 -2.306652459319361803e+00 -2.306652459319361803e+00 -2.628242840224443988e+00
4.975689940586124571e+00 4.975689940586124571e+00 4.975689940586124571e+00 4.975689940586124571e+00 4.975689940586124571e+00 4.726908981515579811e+00 5.243982583263198549e+00 5.275813470925172943e+00 5.304635227805484021e+00 5.280130800735525654e+00 5.280130800735525654e+00 5.189863152105425037e+00 5.252325630941635737e+00 5.187198933974240589e+00 5.211456884051416161e+00 4.938182215471836223e+00 4.955651182708570524e+00 4.807588312228170402e+00 4.594324850065746091e+00 4.576981603907381846e+00 4.364137112057523638e+00 4.074543807710441001e+00 4.074543807710441001e+00 4.008411596174694225e+00 3.894914549823541794e+00 3.894914549823541794e+00 3.669282025993318541e+00 3.524943196873735030e+00 3.588427798030441984e+00 3.461795111245058898e+00 3.394279404680542456e+00 3.410043304251104246e+00 3.352302288810589115e+00 3.243435423806375617e+00 3.332773752547715240e+00 3.489430086460868718e+00 3.680770743312140159e+00 3.680770743312140159e+00 3.566001805666006330e+00 3.726653483203867356e+00 3.593029597425177801e+00 3.593029597425177801e+00 3.462801389688308085e+00 3.400079946110078133e+00 3.481553771233508066e+00 3.380861995070310044e+00 3.350721582351435579e+00 3.510522864305527069e+00 3.459500783218485864e+00 3.428100152379839560e+00 3.484734919203801962e+00 3.615320298266320620e+00 3.600699557383284066e+00 3.600699557383284066e+00 3.742144817762925513e+00 3.851365846151248551e+00 3.896999648268449246e+00 3.882291930229457400e+00 4.078241400972880903e+00 4.097747016409289955e+00 4.104661990123803506e+00 4.107543501632505034e+00 4.076747364524033301e+00 4.129023805895103649e+00 4.088584030911603939e+00 3.927314708047600078e+00 3.938549279334330855e+00 3.834891781350549422e+00 3.834891781350549422e+00 3.840154380947450985e+00 3.884298476965165836e+00 3.820959473810982665e+00 3.858160254635178088e+00 3.767363547283774317e+00 3.732182930353256989e+00 3.782805427479903670e+00 3.674776678858549417e+00 3.750640050896818511e+00 3.507300673729945029e+00 3.584805386633426405e+00 3.584805386633426405e+00 3.538346329681217206e+00 3.581393095047660680e+00 3.503883452817102118e+00 3.464969624190155084e+00 3.396718272257841953e+00 3.299275708109546734e+00 3.275781815162033705e+00 3.118918522179539909e+00 2.922361557900035489e+00 7.783455224568267550e-01 4.946565187447501954e-02 4.946565187447501954e-02 -5.274597792573287869e-02 -8.137908465219018117e-02 -3.904497911072777327e-01 -6.236252434809032019e-01 -1.230081212949821978e+00 -1.625931984239674666e+00 -1.656663352545481027e+00 -1.894415050364159248e+00 -2.001670175338040814e+00 -1.940128619965185264e+00 -1.817157998037647770e+00 -1.796220921637496026e+00 -1.674547623550518338e+00 -1.604585882021112964e+00 -1.604585882021112964e+00 -1.556580499733160039e+00 -1.565001187115042658e+00 -1.660968240430096277e+00 -1.647123716030635121e+00 -1.922617005540974144e+00 -2.088531289340983310e+00 -2.382933906457218143e+00 -2.505664283395914627e+00
5.182750762100066133e+00 5.182750762100066133e+00 5.182750762100066133e+00 5.182750762100066133e+00 5.182750762100066133e+00 4.668300649398158697e+00 5.243982583263198549e+00 5.233366885219981057e+00 5.289330601558615008e+00 5.269148300220433789e+00 5.205450069604660612e+00 5.147286512630480537e+00 5.181001450607279679e+00 5.172324829027494353e+00 4.928168023898432004e+00 4.704016000679000165e+00 4.830507410452183237e+00 4.624597208842500251e+00 4.359936275377648052e+00 4.359936275377648052e+00 4.151818546375853458e+00 3.914375435300263106e+00 3.999607819131920206e+00 3.827680429960307329e+00 3.691133362144848995e+00 3.717840878740265698e+00 3.561314237588091736e+00 3.361923488299042528e+00 3.468706600419940500e+00 3.276589418080725569e+00 3.189586403741514253e+00 3.189586403741514253e+00 3.120204058117169055e+00 3.062698368262334103e+00 3.062698368262334103e+00 3.150762709968821795e+00 3.226995673784779139e+00 3.488837775529197049e+00 3.208385872655724391e+00 3.267903129848241939e+00 3.442289200830764173e+00 3.387812360168721781e+00 3.042292403122797584e+00 3.208928376185153475e+00 3.187344687432657864e+00 3.132728236155714718e+00 3.132728236155714718e+00 3.198495478603768483e+00 3.171171271602666764e+00 3.428100152379839560e+00 3.188649222198531419e+00 3.269334551936647237e+00 3.477180057536132463e+00 3.566473363437763666e+00 3.483640426167823101e+00 3.663199335601551088e+00 3.795258625863548563e+00 3.917657049943872760e+00 3.917657049943872760e+00 4.167403692238327295e+00 4.089317178219526561e+00 4.107543501632505034e+00 4.121432990059991752e+00 4.185175904547532078e+00 4.088584030911603939e+00 3.968875295115764423e+00 4.093390955798803077e+00 3.958117721872146610e+00 3.845078533046788927e+00 3.894366667594901354e+00 3.894366667594901354e+00 3.858925734183812573e+00 3.773378814870521403e+00 3.773378814870521403e+00 3.670657483053150649e+00 3.652073694900070500e+00 3.674776678858549417e+00 3.605291570712912730e+00 3.539819516691856460e+00 3.592869658942022149e+00 3.568640243518039767e+00 3.535620965242268543e+00 3.534839517660939290e+00 3.444598102361688063e+00 3.385077961955915260e+00 3.385077961955915260e+00 3.267423509935606596e+00 3.254436793704522213e+00 3.118918522179539909e+00 3.008595982753684339e+00 1.407165733028180155e+00 6.584116950280599623e-01 -2.523199151550827371e-02 -6.710369885254962967e-03 -4.082617367822655857e-02 -5.254461953952874881e-02 -7.536648309154527769e-01 -7.536648309154527769e-01 -1.384990658741046321e+00 -1.696947673998088657e+00 -1.894415050364159248e+00 -1.829663055217706225e+00 -1.795684187069954696e+00 -1.817157998037647770e+00 -1.737143226611729929e+00 -1.656785893646184782e+00 -1.630869393160251146e+00 -1.589367925913018675e+00 -1.530530151011090911e+00 -1.526174676571235178e+00 -1.589647494075117518e+00 -1.709461689588682498e+00 -1.709461689588682498e+00 -1.983247159239197810e+00 -2.289197377773092512e+00 -2.505664283395914627e+00
5.245163668291056069e+00 5.245163668291056069e+00 5.245163668291056069e+00 5.245163668291056069e+00 4.752207714493387414e+00 4.609692317280766005e+00 5.257006849304041829e+00 5.241604720350781399e+00 5.310748590619881249e+00 5.310748590619881249e+00 5.197446742710056355e+00 5.061921718931724712e+00 5.061921718931724712e+00 5.020350603859473182e+00 4.753922242943174226e+00 4.704016000679000165e+00 4.588841865772351092e+00 4.410485528661605592e+00 4.337339302736550550e+00 4.170273321810091360e+00 3.875594167743241503e+00 3.865928371638031269e+00 3.875162879301980112e+00 3.725321898648105368e+00 3.725321898648105368e+00 3.552067534562910467e+00 3.385271405969469960e+00 3.361923488299042528e+00 3.207662332679990680e+00 2.988536936522056209e+00 3.075049827688552284e+00 2.988006829205267945e+00 2.784348845202220701e+00 2.907165152131820030e+00 2.877749442568397598e+00 2.981730226940864092e+00 2.981730226940864092e+00 3.056328391281266654e+00 2.971561986598873606e+00 3.267903129848241939e+00 2.948696953330475878e+00 2.893204262475822741e+00 3.042292403122797584e+00 2.996436777512396343e+00 2.775938843777741027e+00 2.975628112027152383e+00 2.939852712092655196e+00 2.763231740176931073e+00 2.987604493229787384e+00 3.007134107498880216e+00 3.006213042722842399e+00 3.006213042722842399e+00 3.148569642397532675e+00 3.293745951116794579e+00 3.483640426167823101e+00 3.429939354307693034e+00 3.644600621033789345e+00 3.799085124870502206e+00 3.993171101836013204e+00 3.917573894196729967e+00 4.080877776410009261e+00 4.080909772379525791e+00 4.214118421723405561e+00 4.214118421723405561e+00 4.157881273901028685e+00 4.090097221410825767e+00 4.093390955798803077e+00 4.081291042770197386e+00 3.943172226707293504e+00 3.933704896226730696e+00 3.982729490728712740e+00 3.874535987575485674e+00 3.817231663733739122e+00 3.681517909009223377e+00 3.588091083335152476e+00 3.588091083335152476e+00 3.544994322055435187e+00 3.521937145227327814e+00 3.539819516691856460e+00 3.506776851285297258e+00 3.458733071010332338e+00 3.535620965242268543e+00 3.489979936270652505e+00 3.370783335657527857e+00 3.376681765176271277e+00 3.341720418371603163e+00 3.234052131632542348e+00 3.302216419359754518e+00 3.075031250009252481e+00 2.906778667243891334e+00 2.906778667243891334e+00 9.971617531255807521e-01 1.324958292560981243e-01 -6.710369885254962967e-03 -1.888307079580997180e-02 6.678015712888653310e-02 -2.619427720063920995e-01 -9.563315363561487592e-01 -1.143749691657938383e+00 -1.438700969980309941e+00 -1.723758758201809460e+00 -1.735492276318438609e+00 -1.735492276318438609e+00 -1.713898364343713787e+00 -1.704499789613266536e+00 -1.656785893646184782e+00 -1.626717192406389456e+00 -1.556818380586429740e+00 -1.530530151011090911e+00 -1.514110505082614688e+00 -1.515795271157973412e+00 -1.573257872560031689e+00 -1.797828750765788186e+00 -2.054399586863728366e+00 -2.159842814527952903e+00 -2.389321306009903001e+00
5.307576574482027354e+00 5.307576574482027354e+00 5.245163668291056069e+00 5.245163668291056069e+00 4.727653729278972428e+00 4.609692317280766005e+00 5.207564754000149065e+00 5.179308565633363948e+00 5.196791101452529205e+00 5.192595585949058012e+00 5.186023204702167710e+00 5.060603073915722838e+00 4.975263148223964649e+00 4.723897357988917634e+00 4.723897357988917634e+00 4.506571501429260884e+00 4.448387434149080555e+00 4.410485528661605592e+00 4.073269368988995609e+00 3.910065443458882406e+00 3.875594167743241503e+00 3.777654335284934994e+00 3.785515448481310496e+00 3.677920634343065931e+00 3.474958912441498349e+00 3.324362022248391835e+00 3.370759423771746643e+00 3.165516770957319537e+00 2.979633609907416769e+00 2.979633609907416769e+00 2.743175856000197310e+00 2.611169828002457560e+00 2.784348845202220701e+00 2.572686394072994709e+00 2.506109445923883516e+00 2.738225645714015499e+00 2.821344844569976029e+00 2.630158180225043996e+00 2.805658598186440145e+00 2.738482524962568831e+00 2.658586957909705450e+00 2.658586957909705450e+00 2.605214301828040924e+00 2.596749433862814982e+00 2.775938843777741027e+00 2.577596619419161961e+00 2.573852973476125960e+00 2.763231740176931073e+00 2.799856414203831356e+00 2.645093642231531206e+00 2.814798740284510714e+00 2.876237484712226067e+00 3.093048919648789585e+00 3.093048919648789585e+00 3.215877174309627051e+00 3.415382186813549659e+00 3.644600621033789345e+00 3.655075433444109123e+00 3.752995478380788175e+00 3.917573894196729967e+00 3.895518013678181291e+00 4.030267977772010290e+00 4.143697284398029979e+00 4.243359985254756772e+00 4.176213421663406145e+00 4.142599884983095393e+00 4.248338321863788458e+00 4.053721569100475541e+00 4.053721569100475541e+00 4.064294919137409146e+00 4.046813791075390299e+00 3.874535987575485674e+00 3.813986858680544323e+00 3.654904937564105172e+00 3.593602201161323784e+00 3.540870689740940325e+00 3.453109092392267598e+00 3.472122316942670039e+00 3.415239758357467625e+00 3.371157037993345984e+00 3.371157037993345984e+00 3.409589470297352154e+00 3.417635229407355091e+00 3.296186805493043437e+00 3.296186805493043437e+00 3.240410314850434848e+00 3.212711270175990119e+00 3.161617744404962682e+00 2.935678233739432486e+00 2.867956635799687959e+00 1.853967339301787476e+00 6.076408735958782614e-01 6.899884873721561229e-01 1.484137780421407316e-01 -8.501481483259616667e-02 1.082682599962667691e-01 -1.133457349920152790e-02 -6.361539859101581484e-01 -1.203709281238994455e+00 -1.203709281238994455e+00 -1.480777672885106977e+00 -1.583369018583292487e+00 -1.602702229457829697e+00 -1.619842630259253458e+00 -1.633203539234962864e+00 -1.630635072180917966e+00 -1.608925885550231971e+00 -1.528416861799428261e+00 -1.504479802289021562e+00 -1.466148313187981556e+00 -1.488120507526873526e+00 -1.488120507526873526e+00 -1.684037496869483785e+00 -1.919341696132256025e+00 -2.159842814527952903e+00 -2.259792347910139831e+00
5.307576574482027354e+00 5.307576574482027354e+00 5.307576574482027354e+00 5.307576574482027354e+00 5.307576574482027354e+00 4.551083985163371537e+00 5.093780164894582185e+00 5.093780164894582185e+00 5.169465662840409870e+00 5.157016559044153681e+00 5.186023204702167710e+00 4.992104382987998967e+00 4.809106521152197722e+00 4.869657934551019807e+00 4.527048040866253231e+00 4.324568065954494500e+00 4.352871604687241991e+00 4.227027551556548524e+00 3.903635168104437447e+00 3.903635168104437447e+00 3.653947674057670625e+00 3.556817366332879260e+00 3.785515448481310496e+00 3.483991578085731344e+00 3.240445657344369845e+00 3.324362022248391835e+00 3.168773494363515741e+00 2.899973632420972613e+00 2.938560778241695370e+00 2.718407493666466390e+00 2.516432022969740778e+00 2.516432022969740778e+00 2.484763643037393166e+00 2.399922431113750143e+00 2.399922431113750143e+00 2.385661439841929798e+00 2.459242071221868109e+00 2.630158180225043996e+00 2.436241589764952309e+00 2.364118677587327966e+00 2.507001361337036993e+00 2.462282065731039804e+00 2.273608785446133318e+00 2.416529956149975789e+00 2.431956665518623328e+00 2.419527242975600068e+00 2.419527242975600068e+00 2.413486165908098169e+00 2.494912229916538049e+00 2.645093642231531206e+00 2.553977420507516971e+00 2.662184354709091316e+00 2.854637207768817575e+00 3.063443009184212862e+00 3.040252384228681048e+00 3.228026841231015354e+00 3.442663797447834018e+00 3.652341654103144375e+00 3.647046599546818868e+00 3.738570643300421548e+00 3.896692809135377189e+00 4.080193584962536590e+00 4.080193584962536590e+00 4.180301213560381868e+00 4.097230555926983264e+00 4.127867566804935606e+00 4.169663798557416534e+00 4.043836251515828373e+00 4.032661838697027434e+00 3.987023953653103359e+00 4.051008448146409258e+00 3.862581093834786650e+00 3.707518811748226728e+00 3.690863645204960797e+00 3.588472119553700601e+00 3.529615322233514263e+00 3.363914533167208898e+00 3.363914533167208898e+00 3.321812421504020563e+00 3.225007846245827370e+00 3.251606744402134819e+00 3.249891310127002608e+00 3.341628872789730309e+00 3.332948015965713662e+00 3.168299233934656733e+00 3.079741420882738723e+00 3.115985990038709907e+00 3.075388746211863200e+00 2.888080459581196635e+00 2.888080459581196635e+00 2.719754504907371029e+00 1.278915867052528021e+00 6.899884873721561229e-01 5.950002552432062108e-01 2.313427074768990566e-01 1.082682599962667691e-01 -1.578505660026511270e-01 -3.082528328423612685e-01 -8.642627281076530332e-01 -1.271050179537038805e+00 -1.455484161963362721e+00 -1.455484161963362721e+00 -1.521686337385339094e+00 -1.572763097044287850e+00 -1.633203539234962864e+00 -1.564510287554732315e+00 -1.589801718436374189e+00 -1.528416861799428261e+00 -1.532817788258566294e+00 -1.480043807018867952e+00 -1.485637465169932003e+00 -1.540771197558125083e+00 -1.616631829405314580e+00 -1.789481814566124651e+00 -2.041613967672540220e+00 -2.399800264618177081e+00
5.328857695865248267e+00 5.328857695865248267e+00 5.328857695865248267e+00 5.328857695865248267e+00 4.709586640834381832e+00 4.551161165019681043e+00 5.148956421882754597e+00 5.121916146179836815e+00 5.159948048220931227e+00 5.159948048220931227e+00 5.076861690001961414e+00 4.814662451673959787e+00 4.814662451673959787e+00 4.757471890893738120e+00 4.370931323272263747e+00 4.324568065954494500e+00 4.145919196136365059e+00 4.027356073985177254e+00 3.941324113470397350e+00 3.775136105226737371e+00 3.525302926123708769e+00 3.337422052026672414e+00 3.463004854578163982e+00 3.259253403608258104e+00 2.981863599164148226e+00 3.020460973152518491e+00 2.862197585728769145e+00 2.631853497345353343e+00 2.631853497345353343e+00 2.454694325222505746e+00 2.298777191527630492e+00 2.381866324172595473e+00 2.255874613733155343e+00 2.109841255660616977e+00 2.211564466080551128e+00 2.258506724509635522e+00 2.112978142704077911e+00 2.277344785347272804e+00 2.218689848180851687e+00 2.175608032866296782e+00 2.175608032866296782e+00 2.137778799382033412e+00 2.110916532416762692e+00 2.293720072308903291e+00 2.120556731405106365e+00 2.111195452043246767e+00 2.273360226594774325e+00 2.107768356975035839e+00 2.210364810893387766e+00 2.395211224397389316e+00 2.479104394306166359e+00 2.456533445942529426e+00 2.627430410505231517e+00 2.857104252972824554e+00 3.059075019118110639e+00 3.059075019118110639e+00 3.216991960047330679e+00 3.432926958703335973e+00 3.647046599546818868e+00 3.638190282893350336e+00 3.819543191543070204e+00 3.953118360179702862e+00 4.148839409868427808e+00 4.112187854340556115e+00 4.136778926597576067e+00 4.068501842065021634e+00 4.082019881774535897e+00 4.082019881774535897e+00 3.990041458855107415e+00 4.093658433106754480e+00 4.051008448146409258e+00 3.896914675374389514e+00 3.701468787270578265e+00 3.690863645204960797e+00 3.566288034530477713e+00 3.500263826440699333e+00 3.380015218730590298e+00 3.294234265050025812e+00 3.238248924802736184e+00 3.238248924802736184e+00 3.187470277137935959e+00 3.227385708729377800e+00 3.227385708729377800e+00 3.287540492416030968e+00 3.040143718744288126e+00 3.079741420882738723e+00 3.016575859020659056e+00 2.979352075456025872e+00 2.883696148410774818e+00 2.815945391376897255e+00 2.699340421775149323e+00 2.314304777532818047e+00 1.174114600011879395e+00 3.865223741630600118e-01 3.865223741630600118e-01 3.947633118376934203e-01 8.036375371154019787e-02 -3.082528328423612685e-01 -4.861174195420340793e-01 -1.036892759719220347e+00 -1.280235088463211435e+00 -1.442040624678621263e+00 -1.400166912380067075e+00 -1.493930755659549803e+00 -1.550279009605200597e+00 -1.584890103239587678e+00 -1.584890103239587678e+00 -1.571639867473264118e+00 -1.516970966840487378e+00 -1.480043807018867952e+00 -1.494729916703171568e+00 -1.514601162132401369e+00 -1.616631829405314580e+00 -1.892326070198706578e+00 -1.962793577923972244e+00 -2.174153640013285926e+00
5.342241293229101018e+00 5.342241293229101018e+00 5.342241293229101018e+00 5.342241293229101018e+00 4.691527745071468303e+00 5.090348089765333484e+00 5.090348089765333484e+00 5.118607645081763025e+00 5.125533209919058919e+00 5.147580978620590386e+00 4.974002488789076359e+00 4.764164898435254258e+00 4.746913966858626210e+00 4.461330375432985385e+00 4.246929769212028916e+00 4.135024982297795582e+00 3.996517472201268184e+00 3.847374434452753178e+00 3.847374434452753178e+00 3.614713489196315521e+00 3.308362897107460121e+00 3.308362897107460121e+00 3.170939278487986179e+00 2.967139456678902221e+00 2.981863599164148226e+00 2.763956507523670059e+00 2.550452796788852616e+00 2.610275212103057019e+00 2.406669577067907184e+00 2.193594490038844214e+00 2.255703714979417018e+00 2.170850401489696324e+00 2.051663020801394843e+00 2.051663020801394843e+00 1.920443233163920294e+00 1.935679395036228323e+00 2.112978142704077911e+00 1.925386403207707708e+00 1.880514364399580973e+00 2.025758062094156209e+00 1.985473978847098309e+00 1.814398299736507125e+00 1.955687525862326526e+00 1.990076599384191791e+00 1.960685781640878034e+00 1.960685781640878034e+00 1.970643062843809856e+00 1.997319189388435667e+00 2.210364810893387766e+00 2.133145851633450718e+00 2.215481771329428806e+00 2.456533445942529426e+00 2.616368507351994221e+00 2.635241934519044538e+00 2.865014105705158798e+00 3.048550134985966942e+00 3.216246042644491432e+00 3.216246042644491432e+00 3.430193179362370781e+00 3.697746112283271991e+00 3.697746112283271991e+00 3.875968742587396321e+00 4.054004112801661286e+00 4.112187854340556115e+00 4.063842670023456449e+00 4.009136117325107662e+00 4.069783592573410047e+00 3.989678003596599520e+00 3.917115951007315022e+00 3.960771346951901251e+00 4.071505495372034211e+00 3.885343411153759252e+00 3.885343411153759252e+00 3.667181024043727255e+00 3.503869342443893586e+00 3.500263826440699333e+00 3.331848489316360684e+00 3.184412545842592923e+00 3.255320710312267440e+00 3.207298964044537293e+00 3.188102264382052020e+00 3.163313886514085294e+00 3.224203469818165413e+00 3.084063375922695194e+00 3.084063375922695194e+00 2.961491606847299174e+00 2.985068900499229017e+00 2.979352075456025872e+00 2.872654934086185108e+00 2.844077043306167063e+00 2.699340421775149323e+00 1.756080756481020577e+00 1.461951414201871469e+00 8.270751217494014540e-01 4.973495449701554882e-01 2.973809959748734966e-01 2.016396190432069024e-01 -7.860610375795928917e-02 -7.330529390089486341e-01 -7.330529390089486341e-01 -1.098819301407121030e+00 -1.281900800068803026e+00 -1.400166912380067075e+00 -1.348475160068341783e+00 -1.478385166610335588e+00 -1.522742131811771538e+00 -1.585026991317371792e+00 -1.604267819067995537e+00 -1.565404580353737529e+00 -1.503391538562595553e+00 -1.473576287060601064e+00 -1.473576287060601064e+00 -1.562947342056210331e+00 -1.814587284666203448e+00 -1.962793577923972244e+00 -2.111836210208941633e+00
5.342241293229101018e+00 5.342241293229101018e+00 5.342241293229101018e+00 5.342241293229101018e+00 4.697105051605971582e+00 4.570780701767734655e+00 5.270875276798051345e+00 5.143271586330934397e+00 5.139738312523283170e+00 5.096685249298498199e+00 4.789548441745028917e+00 4.789548441745028917e+00 4.663878459373728802e+00 4.322276042845104804e+00 4.246929769212028916e+00 3.955906048574676870e+00 3.761313645727589527e+00 3.823713607710288009e+00 3.557634791973037558e+00 3.456013834369812798e+00 3.414994293866087993e+00 3.114531412102697239e+00 2.868770363371569765e+00 2.868770363371569765e+00 2.722628990905836766e+00 2.499764314703821544e+00 2.550452796788852616e+00 2.328328609720830222e+00 2.127586807775327049e+00 2.193594490038844214e+00 2.083585624957543736e+00 1.966527642943280529e+00 2.025269080759044105e+00 1.818875017311144093e+00 1.635892465934954076e+00 1.767124102560976517e+00 1.767476653428379674e+00 1.720959099417075366e+00 1.720959099417075366e+00 1.691500588322636389e+00 1.662079777171289852e+00 1.814398299736507125e+00 1.637843920958055755e+00 1.683224171561929605e+00 1.816335049890587028e+00 1.807598919500892576e+00 1.667058254908296178e+00 1.812290441105222527e+00 1.922495967459962429e+00 2.050433243320987753e+00 2.050433243320987753e+00 2.247934590016384959e+00 2.387871555402817592e+00 2.635241934519044538e+00 2.678159057168685298e+00 2.845147123087746976e+00 2.991064393795928034e+00 3.237311785330019287e+00 3.326827221722694183e+00 3.577926180448878668e+00 3.782365517343907690e+00 3.917651246222630945e+00 3.917651246222630945e+00 4.030569677498804460e+00 4.036188022592596347e+00 4.009136117325107662e+00 3.984100067679610557e+00 3.903632079106600816e+00 3.917115951007315022e+00 3.965543995275666589e+00 4.042500618387197875e+00 3.862079219002098718e+00 3.658398812485424312e+00 3.573374349093433544e+00 3.493883132545112069e+00 3.414362486689885401e+00 3.209492725880941144e+00 3.209492725880941144e+00 3.205717403487535311e+00 3.214597262474443440e+00 3.188102264382052020e+00 3.202686995145079596e+00 3.192253700549375850e+00 3.136746071554242121e+00 3.012241844811023750e+00 2.962903464720078706e+00 2.915925432247144844e+00 2.913223458902576279e+00 2.849018881078610121e+00 2.849018881078610121e+00 2.801983967290024857e+00 2.706723737430963173e+00 1.204453492275144644e+00 1.204453492275144644e+00 5.911912675035037035e-01 1.706600002209786859e-01 9.764226937675692108e-02 1.730111559816282230e-01 -3.429127686400696984e-01 -8.067036258885198485e-01 -1.104974093462185225e+00 -1.129024501609704911e+00 -1.278647487374795277e+00 -1.378196790172861341e+00 -1.461434145865524448e+00 -1.461434145865524448e+00 -1.542281431738106612e+00 -1.588920334340690577e+00 -1.588920334340690577e+00 -1.517575070590287734e+00 -1.453740391688586264e+00 -1.498717840161700066e+00 -1.503901499726324920e+00 -1.812098562791773837e+00 -1.916897189685650815e+00 -2.259690433449335956e+00
5.355624890592954657e+00 5.355624890592954657e+00 5.355624890592954657e+00 5.355624890592954657e+00 4.697105051605971582e+00 4.593548916157829787e+00 5.367666627157896997e+00 5.143271586330934397e+00 5.178513706197528599e+00 5.007608761229218608e+00 4.911725509595580519e+00 4.682490302737338794e+00 4.516864983388838795e+00 4.528044385980011910e+00 4.157496418188093124e+00 3.793998903870420492e+00 3.793998903870420492e+00 3.637207837909068431e+00 3.450224022260050205e+00 3.456013834369812798e+00 3.291119298601255849e+00 2.994081603666934654e+00 2.930881599812150906e+00 2.694525450658648236e+00 2.515215976721490776e+00 2.474687922181275646e+00 2.333126930017288103e+00 2.090815318536000778e+00 2.090815318536000778e+00 1.988958835516906110e+00 1.908544256420440899e+00 1.966527642943280529e+00 1.843632663064616262e+00 1.652647935928671874e+00 1.635892465934954076e+00 1.627544305027441851e+00 1.584536015097667505e+00 1.619452535520405689e+00 1.580846369901619308e+00 1.581916505811914231e+00 1.581916505811914231e+00 1.578360480575744074e+00 1.584124732510947542e+00 1.683224171561929605e+00 1.615626264096237552e+00 1.618191457225195418e+00 1.667058254908296178e+00 1.615980324148857505e+00 1.739481734763093757e+00 1.897329710673348213e+00 2.018200417807832103e+00 2.054870390742080666e+00 2.228920836945327277e+00 2.404599144772511465e+00 2.670840789049238495e+00 2.670840789049238495e+00 2.814595059977432090e+00 3.103844722270563850e+00 3.326827221722694183e+00 3.431273265816815243e+00 3.706798627726973550e+00 3.868197591988079775e+00 3.965511249764572366e+00 4.000066818260335388e+00 4.015489643776733786e+00 3.993414961472236957e+00 3.985777038534897621e+00 3.953176173883198974e+00 4.009422691624468627e+00 4.028933157746606319e+00 3.848659079859167775e+00 3.848659079859167775e+00 3.617933936844036857e+00 3.408121648682982840e+00 3.381412379755792230e+00 3.323974527294116577e+00 3.227305469630844303e+00 3.162045582120994069e+00 3.181944506897323777e+00 3.210716893597147070e+00 3.229336477639452418e+00 3.219865641380544208e+00 3.174886627996721611e+00 3.114189123336137399e+00 3.029891709975712999e+00 2.932194183084623873e+00 2.932194183084623873e+00 2.914584982021120929e+00 2.950060213344213977e+00 2.852140753803214857e+00 2.874124513670021752e+00 2.845169190874074605e+00 2.379035386788626028e+00 1.205735644545043561e+00 9.158225753000308611e-01 4.892107958990154493e-01 3.075320815581076284e-01 2.206025425820799454e-02 2.206025425820799454e-02 -4.867516844820222177e-01 -8.724038847262127749e-01 -1.129024501609704911e+00 -1.206165443129460835e+00 -1.283319480525780376e+00 -1.412733928036017828e+00 -1.501575634155195571e+00 -1.473132709058004197e+00 -1.542358706300006155e+00 -1.562829169280638197e+00 -1.476805953352605005e+00 -1.476805953352605005e+00 -1.432357650377769076e+00 -1.612165763962219334e+00 -1.812098562791773837e+00 -1.969005862735581314e+00 -2.284995921880959457e+00
5.053753883535859970e+00 5.053753883535859970e+00 5.053753883535859970e+00 5.053753883535859970e+00 4.722808881235662781e+00 4.973131425530547212e+00 4.973131425530547212e+00 5.294789757072465797e+00 5.015260355888472077e+00 5.007608761229218608e+00 4.834426989915547423e+00 4.484088735979137041e+00 4.516864983388838795e+00 4.215860190811966390e+00 4.093103754374405767e+00 3.930002682448246354e+00 3.663449799022318043e+00 3.602015101021275534e+00 3.602015101021275534e+00 3.409370436437265006e+00 3.098503115977215394e+00 3.098503115977215394e+00 2.799201836969461787e+00 2.528771366087009476e+00 2.515215976721490776e+00 2.262684137050032795e+00 2.067795660755748610e+00 2.092401882741101282e+00 1.942341274183190247e+00 1.808650482430190998e+00 1.752078929137683261e+00 1.804040585891834692e+00 1.691097678486374045e+00 1.570153947273679851e+00 1.568048077660806339e+00 1.564809010669016232e+00 1.556901667582310633e+00 1.556901667582310633e+00 1.521238630965436212e+00 1.529243145062915588e+00 1.559630453804610628e+00 1.533818233646079277e+00 1.542882904681371681e+00 1.603649824444977501e+00 1.584754598275943449e+00 1.572409251122799390e+00 1.608576997250044549e+00 1.622612175542977431e+00 1.759035892489026587e+00 1.759035892489026587e+00 1.890116094601033359e+00 2.050353052801873410e+00 2.176834254797381796e+00 2.176961945656044062e+00 2.445180789813128364e+00 2.644523301767708112e+00 2.660115928216061576e+00 3.035374358690597241e+00 3.213676670825265980e+00 3.515618636632883653e+00 3.619600345600222369e+00 3.792186495992242001e+00 3.939430266514890810e+00 4.023788732470538143e+00 4.023788732470538143e+00 4.040332625551477541e+00 4.054147632690341396e+00 3.953176173883198974e+00 4.118182809341024431e+00 4.024446077820219791e+00 4.019390465711415672e+00 3.740348643315557275e+00 3.574946503348075844e+00 3.480666082018413654e+00 3.270411669257873744e+00 3.271659345787561346e+00 3.271659345787561346e+00 3.176434858668335526e+00 3.165808351501225637e+00 3.210716893597147070e+00 3.273164606369290741e+00 3.247059319135584765e+00 3.174886627996721611e+00 3.102516052704637595e+00 3.052096436782885114e+00 2.982595134733073472e+00 2.895468999479499761e+00 2.950984335101350275e+00 2.950984335101350275e+00 2.924390787951977710e+00 2.919751321487312534e+00 2.845169190874074605e+00 2.865135351848236311e+00 1.550480987491079432e+00 9.158225753000308611e-01 7.440980180276771661e-01 3.896137033409897144e-01 1.679691436608455879e-01 -4.903869515481090041e-02 -2.107736040423324464e-01 -5.955189814661064895e-01 -1.021508775571063010e+00 -1.228853999967981725e+00 -1.228853999967981725e+00 -1.349294549123578157e+00 -1.441062248451055572e+00 -1.473132709058004197e+00 -1.476172219623902215e+00 -1.524725818460084703e+00 -1.506108240677324073e+00 -1.430225023388564720e+00 -1.357027889609156768e+00 -1.451468574065044814e+00 -1.795705558513121858e+00 -2.083222115637066274e+00 -2.083222115637066274e+00
5.053753883535859970e+00 5.053753883535859970e+00 5.053753883535859970e+00 5.053753883535859970e+00 4.776427994388284581e+00 4.914523093413136756e+00 5.397718057964433491e+00 5.237508774617667839e+00 4.972623778351929147e+00 4.903788302455101444e+00 4.509192984427293105e+00 4.263515393397179665e+00 4.398830219490724502e+00 4.111306720245099910e+00 3.904399824742635694e+00 3.904399824742635694e+00 3.541586831468137575e+00 3.466590322711872840e+00 3.402329246421420095e+00 3.359862493376060577e+00 3.014073738282140980e+00 2.901277449568841149e+00 2.521885927546724027e+00 2.366889574498328930e+00 2.328154504698586091e+00 1.948958850316405922e+00 1.831611698389105980e+00 1.831611698389105980e+00 1.758628985238511966e+00 1.693154801497123607e+00 1.752078929137683261e+00 1.641401834570638485e+00 1.567279321563264105e+00 1.570153947273679851e+00 1.496290328578032902e+00 1.492300130554401694e+00 1.511186225205147338e+00 1.501918798285850842e+00 1.460316616324560668e+00 1.488976185782281636e+00 1.519179934450125780e+00 1.520048715003639472e+00 1.520048715003639472e+00 1.544237699966326982e+00 1.534439288418011804e+00 1.572409251122799390e+00 1.562575228521914328e+00 1.562324835499057318e+00 1.637239346182242761e+00 1.786104443907668760e+00 1.768499826376510153e+00 1.885556942730838959e+00 1.980981100265611694e+00 2.240431409986280986e+00 2.240431409986280986e+00 2.447863096221651436e+00 2.790847077672425236e+00 3.035374358690597241e+00 3.121464240655497768e+00 3.420280592305516176e+00 3.619600345600222369e+00 3.838650274682986918e+00 3.887157228941617859e+00 3.987342163184341093e+00 4.034343404129929311e+00 4.015715928893270004e+00 4.015715928893270004e+00 4.026741629865193239e+00 4.175505132985266599e+00 4.175505132985266599e+00 3.981664420724358777e+00 3.675841784056476325e+00 3.574946503348075844e+00 3.441353708186332572e+00 3.182819193101143362e+00 3.236427457431544585e+00 3.248715185030501829e+00 3.196643368105681393e+00 3.143902558868450825e+00 3.196066103218332177e+00 3.376864513124201661e+00 3.376864513124201661e+00 3.058911784498376640e+00 3.107361624126866229e+00 3.052096436782885114e+00 3.002050685100302818e+00 2.869267403042566222e+00 2.910620227268797766e+00 3.076473359883884040e+00 2.982225904153485097e+00 2.950620040606366956e+00 2.902358149166337498e+00 2.783931687774209962e+00 2.783931687774209962e+00 1.253842277187425136e+00 7.125576734510070676e-01 3.896137033409897144e-01 1.998284991677420075e-01 1.709518243231019086e-01 -2.107736040423324464e-01 -7.546716516783420481e-01 -9.138243218905774956e-01 -1.091540829927334366e+00 -1.221272441795567820e+00 -1.291173844984445873e+00 -1.346688597076744376e+00 -1.404001814443802898e+00 -1.495715124254017869e+00 -1.495715124254017869e+00 -1.491407721029059275e+00 -1.420420354404787089e+00 -1.357027889609156768e+00 -1.407905714592355695e+00 -1.720685328888422960e+00 -2.020841813509894003e+00 -2.305375563986239662e+00
5.053753883535859970e+00 5.053753883535859970e+00 5.053753883535859970e+00 4.971466730557990488e+00 4.768929823389548517e+00 4.768929823389548517e+00 5.371818040986522824e+00 5.059711197461207455e+00 5.059711197461207455e+00 4.862381152709139620e+00 4.380535469699378126e+00 4.263515393397179665e+00 4.280031367590773961e+00 3.996489697718831557e+00 3.959055440431223261e+00 3.667871620668807342e+00 3.442932155620280543e+00 3.381497071332669968e+00 3.340178156394729037e+00 3.123903537534646446e+00 3.123903537534646446e+00 2.796286697465679705e+00 2.376278279264926852e+00 2.366889574498328930e+00 2.143600931268863530e+00 1.707397233270428138e+00 1.752267371018665365e+00 1.705867574898228600e+00 1.595822883956778071e+00 1.628342129343475442e+00 1.595020514755493668e+00 1.532937187455117201e+00 1.532937187455117201e+00 1.479782480945662559e+00 1.456444733342800779e+00 1.492300130554401694e+00 1.440345795016189090e+00 1.431021550542227683e+00 1.460316616324560668e+00 1.475802834379022821e+00 1.465475583525023273e+00 1.492609037822597573e+00 1.503910001589404022e+00 1.487036908952560355e+00 1.510715729498872673e+00 1.526367412157793257e+00 1.546296733889295449e+00 1.546296733889295449e+00 1.550743581527860293e+00 1.658320017193982476e+00 1.768499826376510153e+00 1.738347679502931342e+00 1.860911430215921314e+00 1.949356847702948148e+00 2.219982331211870275e+00 2.323440396177845368e+00 2.531345460567316241e+00 2.948121649879620776e+00 3.272844785532666556e+00 3.272844785532666556e+00 3.554178954742432062e+00 3.775755522009865306e+00 3.887157228941617859e+00 3.897896969110768772e+00 4.008939340895159020e+00 4.012382733961771919e+00 4.110184263994092646e+00 4.155019341984575121e+00 4.125296786060355103e+00 4.090976915850326634e+00 3.892885719685855950e+00 3.892885719685855950e+00 3.618510821445714232e+00 3.327406467643748034e+00 3.182819193101143362e+00 3.224738508916511037e+00 3.258166913980928392e+00 3.196643368105681393e+00 3.155085845105532361e+00 3.209473631381322800e+00 3.208929437197110879e+00 3.110016968494894396e+00 3.048583612789705022e+00 3.049168282984731082e+00 3.069899707752024032e+00 2.936404817107037601e+00 2.936404817107037601e+00 2.994241538807624003e+00 3.082267661999053665e+00 2.982225904153485097e+00 3.074500791476018513e+00 2.982782398124223189e+00 2.872605975013869273e+00 2.124970002195738505e+00 1.611993942721166473e+00 1.031532586225114123e+00 5.342589561353922045e-01 3.445181614798729086e-01 3.445181614798729086e-01 -2.000121879653309065e-02 -5.710603823437936377e-01 -9.138243218905774956e-01 -1.033260741421722306e+00 -1.284405374629072671e+00 -1.407983160944681345e+00 -1.408144329092617886e+00 -1.532369000714739249e+00 -1.594457937968844163e+00 -1.514603675827647766e+00 -1.540223613585329998e+00 -1.732565989055665057e+00 -1.502296764114874117e+00 -1.705319185061903831e+00 -2.018482208835720826e+00 -2.018482208835720826e+00 -2.380472841289883679e+00
4.971466730557990488e+00 4.971466730557990488e+00 4.971466730557990488e+00 4.971466730557990488e+00 4.971466730557990488e+00 4.855914761295728965e+00 5.345918024008604164e+00 5.152080423340223980e+00 4.902375831276036600e+00 4.648771487695447568e+00 4.648771487695447568e+00 4.131243380595313930e+00 4.118464197334029464e+00 3.996489697718831557e+00 3.816475977448001711e+00 3.534737614399136696e+00 3.442932155620280543e+00 3.268489306163395725e+00 3.099011463443453351e+00 3.222150886618263765e+00 2.876612482733428067e+00 2.624149714450168869e+00 2.528708853451635541e+00 2.234860025627594560e+00 1.955468867651244835e+00 1.955468867651244835e+00 1.634745253352841488e+00 1.598080464550476476e+00 1.595822883956778071e+00 1.522147619541580621e+00 1.492520052603628189e+00 1.501556175189253883e+00 1.448376287504654414e+00 1.396264591372045061e+00 1.421179191682737653e+00 1.407894934062956294e+00 1.408737939280600537e+00 1.408737939280600537e+00 1.390038827968125723e+00 1.411176911070361140e+00 1.465475583525023273e+00 1.430055417850169874e+00 1.451339774740713073e+00 1.487036908952560355e+00 1.486711360396948844e+00 1.486984136539445611e+00 1.513606724570168094e+00 1.522320742808761729e+00 1.562259043512716827e+00 1.562259043512716827e+00 1.673276039005781701e+00 1.747270786584020241e+00 1.860911430215921314e+00 1.902034350848293531e+00 2.121152474771636598e+00 2.323440396177845368e+00 2.474628895865361944e+00 2.860786756958058064e+00 3.098356701199052488e+00 3.398525094067543328e+00 3.539003438113414113e+00 3.630227059628689190e+00 3.777627243683642000e+00 3.898745932743338471e+00 3.898745932743338471e+00 4.008860107759075753e+00 4.137053185954717271e+00 4.155019341984575121e+00 4.115383962717242383e+00 4.034202157340952333e+00 3.987125806863546895e+00 3.756670591104263046e+00 3.750494484075521662e+00 3.438796246585840599e+00 3.291056018243200043e+00 3.261662339562128032e+00 3.255799678873664060e+00 3.200589826915156699e+00 3.174563079168184032e+00 3.238355188709900467e+00 3.238355188709900467e+00 3.145773787775783870e+00 3.091039529736500313e+00 3.102597502896951465e+00 3.089654439808908748e+00 2.965872076234091992e+00 2.914003987871890189e+00 2.886939687570721169e+00 3.034071339054853933e+00 3.033208553026545573e+00 3.065637735478026205e+00 3.078622193292856579e+00 2.995094554562828471e+00 2.975712903014413158e+00 1.407120972085499577e+00 1.407120972085499577e+00 6.291987559613236858e-01 1.531334018404943709e-01 2.317640588215308384e-01 2.178911472646138936e-02 -4.426855043692583536e-01 -7.292425869382643810e-01 -1.231446612992653122e+00 -1.369498347133889959e+00 -1.401427427071411547e+00 -1.594643623316970515e+00 -1.665023693151966411e+00 -1.665023693151966411e+00 -1.737740661590723379e+00 -1.838698585312823486e+00 -1.732565989055665057e+00 -1.922383797325084798e+00 -2.093910455209694543e+00 -2.051595057544887801e+00 -2.303350317731835517e+00 -2.530314908360127735e+00
5.193099839428199083e+00 5.193099839428199083e+00 5.193099839428199083e+00 5.193099839428199083e+00 5.193099839428199083e+00 4.797306429178334497e+00 5.345918024008604164e+00 5.143171927615450834e+00 4.754646772428892554e+00 4.737579228853419977e+00 4.305526122095816532e+00 4.009373890837517607e+00 4.135259311220460532e+00 3.888042300414239261e+00 3.720819853358611873e+00 3.720819853358611873e+00 3.241958648345214300e+00 2.961552469761085327e+00 3.099011463443453351e+00 2.917305179796985115e+00 2.637194641500220982e+00 2.624149714450168869e+00 2.254370224087023811e+00 2.122502624496940271e+00 2.067980267906896152e+00 1.736264847082546581e+00 1.603734163186572470e+00 1.603734163186572470e+00 1.524437342274763907e+00 1.473081597327663195e+00 1.473081597327663195e+00 1.420516504968998284e+00 1.369687290104395494e+00 1.396264591372045061e+00 1.342599786692664665e+00 1.335126644258225026e+00 1.368214598993149345e+00 1.351650257595133464e+00 1.314045621548550091e+00 1.355717285546955697e+00 1.386537181899182736e+00 1.404969159497620135e+00 1.395523088725872718e+00 1.434632334534724496e+00 1.452055477344480705e+00 1.483030121554420599e+00 1.483030121554420599e+00 1.493762179705719895e+00 1.533422122778155705e+00 1.572002410845613429e+00 1.584846933524801216e+00 1.651503591339788191e+00 1.785980289925805486e+00 1.972149204804688027e+00 2.015187028246556711e+00 2.209723450536210443e+00 2.592275657545457079e+00 2.944808135677771332e+00 2.944808135677771332e+00 3.266869494741317492e+00 3.528251487255340102e+00 3.668756754693253797e+00 3.686939246011851523e+00 3.805765906591160874e+00 3.953541335622203778e+00 4.042388836436996868e+00 4.110717310567483906e+00 4.166869487408556338e+00 4.108041773549210518e+00 3.985194613010341058e+00 3.967961416440711986e+00 3.807973120498355790e+00 3.589729005362507941e+00 3.589729005362507941e+00 3.375484524637151651e+00 3.280334136536148915e+00 3.255799678873664060e+00 3.204536285724632450e+00 3.229291428505807637e+00 3.243261497001247218e+00 3.317580539163660802e+00 3.140363660096259668e+00 3.077244315144186171e+00 3.128488298900195197e+00 3.021237295402519951e+00 3.021237295402519951e+00 2.940965226149239164e+00 2.944245695427837983e+00 3.034071339054853933e+00 3.040879289851292633e+00 3.192106976375533200e+00 3.078622193292856579e+00 3.074016156114066867e+00 3.144812115260404273e+00 1.953153123468180485e+00 1.081137383384240369e+00 4.139048556764113318e-01 4.139048556764113318e-01 3.079759697583001610e-01 -2.538848689836599171e-01 -4.426855043692583536e-01 -8.156970988949563406e-01 -1.309076267532643278e+00 -1.369498347133889959e+00 -1.512690595602895982e+00 -1.813690378586427121e+00 -1.774999755412796087e+00 -1.819470455471576376e+00 -1.973474564675351761e+00 -1.926805215793103265e+00 -2.030270115091929561e+00 -2.133433282369062489e+00 -2.133433282369062489e+00 -2.266807467353548766e+00 -2.510473484326616767e+00 -2.530314908360127735e+00
5.255512745619194348e+00 5.255512745619194348e+00 5.255512745619194348e+00 5.255512745619194348e+00 4.810777885516127839e+00 4.810777885516127839e+00 5.320018007030689944e+00 4.788498348075297173e+00 4.788498348075297173e+00 4.601311455883912771e+00 4.198633204089700754e+00 3.968968869533112009e+00 3.968968869533112009e+00 3.811154442724909330e+00 3.538984171843969406e+00 3.380246810140601355e+00 3.017623043152118267e+00 2.672955069041968557e+00 2.778642667572716274e+00 2.638010035924893248e+00 2.395657450747925132e+00 2.427063684924203102e+00 2.168703679098899162e+00 1.982384193907411163e+00 1.982384193907411163e+00 1.757062390850785638e+00 1.578443637477636052e+00 1.531642585042011451e+00 1.453920608651878554e+00 1.402362331790360406e+00 1.415914781646037568e+00 1.354056659036538601e+00 1.295347757988371651e+00 1.315636375552656112e+00 1.297603204552453482e+00 1.280977675858951947e+00 1.280977675858951947e+00 1.272758447188805375e+00 1.292630528303921889e+00 1.341470608621283311e+00 1.311021816591392941e+00 1.342154955457584897e+00 1.395523088725872718e+00 1.383297020732868532e+00 1.417582455701786870e+00 1.446479096439974965e+00 1.466589453194712567e+00 1.477927144201218956e+00 1.491802268401664300e+00 1.530410990326330101e+00 1.581810982180512415e+00 1.581810982180512415e+00 1.723692221824077109e+00 1.863456714572714557e+00 2.015187028246556711e+00 2.070076706004654987e+00 2.377016570702731091e+00 2.652850467830975667e+00 2.984200229080008704e+00 3.030793750811337617e+00 3.347909401101079041e+00 3.588264484756689576e+00 3.775247691175681375e+00 3.775247691175681375e+00 3.889894430059019470e+00 4.043275346541596704e+00 4.110717310567483906e+00 4.183168136600202480e+00 4.056563682265563742e+00 3.985194613010341058e+00 3.938671378794210476e+00 3.901797681512079841e+00 3.806999601918692466e+00 3.553608738941133716e+00 3.329703820116994173e+00 3.329703820116994173e+00 3.256532761472068938e+00 3.211015949117588697e+00 3.211015949117588697e+00 3.275670061445549841e+00 3.259487392961784469e+00 3.140363660096259668e+00 3.103370645145523188e+00 3.130490164779253348e+00 3.128524768283546198e+00 3.003496387817642166e+00 2.990380117472352772e+00 2.969399017218549819e+00 2.968836245004740082e+00 3.237301430920597856e+00 3.237301430920597856e+00 3.288786628056602268e+00 3.119733321956819072e+00 3.144812115260404273e+00 2.507814985374089645e+00 1.150098928714438751e+00 7.551537946829808279e-01 2.170901346065044479e-01 2.183980851608637863e-01 9.577050313047370811e-02 -7.846268453611252580e-01 -1.206169765335106447e+00 -1.206169765335106447e+00 -1.454591319638707470e+00 -1.769501552913046449e+00 -1.813690378586427121e+00 -1.974494834293320844e+00 -2.044482972974309476e+00 -1.973474564675351761e+00 -2.118436134657553982e+00 -2.346273316913858764e+00 -2.228157492536751327e+00 -2.299868909896098934e+00 -2.459403694422133135e+00 -2.459403694422133135e+00 -2.695050817861452508e+00
5.317925651810167409e+00 5.255512745619194348e+00 5.255512745619194348e+00 5.255512745619194348e+00 4.785249224519628086e+00 4.738698097060927594e+00 5.294117990052779277e+00 4.730088905236394581e+00 4.611021970923500746e+00 4.458927908971321408e+00 4.120047905921220277e+00 3.887504401079721283e+00 3.891451180153918887e+00 3.674861758854246485e+00 3.674861758854246485e+00 3.196449555975635626e+00 2.720843884656185985e+00 2.720843884656185985e+00 2.548052753507318080e+00 2.361538962256254148e+00 2.395657450747925132e+00 2.218623226090887801e+00 2.027756161856925754e+00 2.012254896486506794e+00 1.822496317944107158e+00 1.600953450046536997e+00 1.614831746316331085e+00 1.464231982344011307e+00 1.391653076291688995e+00 1.391653076291688995e+00 1.334306343188806032e+00 1.268505775551779458e+00 1.295347757988371651e+00 1.233398706452624616e+00 1.201329933234390079e+00 1.246532111972476820e+00 1.214107910512693511e+00 1.147363034596992959e+00 1.215662425948781600e+00 1.249052880441416047e+00 1.304314647134698468e+00 1.304314647134698468e+00 1.345010627659209757e+00 1.347755792001747110e+00 1.417582455701786870e+00 1.405115954694744262e+00 1.483072337687258990e+00 1.477927144201218956e+00 1.500785234672595170e+00 1.527288294459578033e+00 1.540664194297967970e+00 1.670609593412812677e+00 1.714651341266635542e+00 1.714651341266635542e+00 1.861177757442791014e+00 2.113695339699216635e+00 2.113695339699216635e+00 2.399070544518640435e+00 2.776629471943398819e+00 3.030793750811337617e+00 3.116014508393348592e+00 3.492520142222041990e+00 3.662588005662856805e+00 3.769257220827367583e+00 3.808713861032602122e+00 3.986399745548312445e+00 4.092440324446747546e+00 4.121708610862664379e+00 4.121708610862664379e+00 4.048659272092012706e+00 4.044938668313545094e+00 3.901797681512079841e+00 3.836701374335167891e+00 3.505277822298348944e+00 3.451529136456476188e+00 3.297784731845316841e+00 3.292513895382991773e+00 3.223315995223374308e+00 3.284019777843432131e+00 3.291677065260576462e+00 3.291677065260576462e+00 3.131881566947047890e+00 3.178728545763267910e+00 3.130490164779253348e+00 3.198944837338078440e+00 3.012311518265115673e+00 2.990380117472352772e+00 2.950073914819887566e+00 2.877470039229004684e+00 3.022905837914382943e+00 3.208034461762184542e+00 3.034641944131288849e+00 3.074221061774982999e+00 3.105694514140746598e+00 1.641166848518648802e+00 1.641166848518648802e+00 7.560952716959592479e-01 2.697151520976405203e-01 2.183980851608637863e-01 -1.427775965178779138e-01 -7.537805112405595587e-01 -1.041993887600482616e+00 -1.391462693762510749e+00 -1.617789668598704544e+00 -1.668016579004323319e+00 -1.994449574570609895e+00 -2.077690188325722165e+00 -2.077690188325722165e+00 -2.131994971681793416e+00 -2.246792317566793873e+00 -2.346273316913858764e+00 -2.327082873181671285e+00 -2.338492680616956143e+00 -2.437649970818624556e+00 -2.673780347577653149e+00 -2.740979215406983638e+00
5.317925651810167409e+00 5.317925651810167409e+00 5.317925651810167409e+00 5.317925651810167409e+00 5.317925651810167409e+00 4.680089764943532238e+00 5.205188696348059807e+00 5.205188696348059807e+00 4.541339622878771465e+00 4.335664507244233690e+00 4.120047905921220277e+00 3.883484327049130158e+00 3.775597190795346503e+00 3.697092240536918872e+00 3.411809277276983909e+00 3.038873626731918964e+00 2.899449649830007303e+00 2.618393320950565872e+00 2.372035633071815308e+00 2.372035633071815308e+00 2.217769647917880338e+00 2.077309472985789718e+00 2.027756161856925754e+00 1.891767815714990864e+00 1.642426279088348817e+00 1.600953450046536997e+00 1.507626055517819585e+00 1.398424647224320028e+00 1.393010966631943903e+00 1.316688514894027051e+00 1.257178241055610490e+00 1.257812294347754545e+00 1.202633522226034701e+00 1.154139653889911132e+00 1.154139653889911132e+00 1.126240543723134646e+00 1.094264013149514492e+00 1.147363034596992959e+00 1.084957654783000880e+00 1.117134016459125911e+00 1.196414706930577054e+00 1.259706912734144701e+00 1.237131890907837928e+00 1.314938354142573651e+00 1.352195730859064859e+00 1.403066593956895369e+00 1.403066593956895369e+00 1.442406911930518287e+00 1.470939099757395674e+00 1.527288294459578033e+00 1.499342285493495019e+00 1.635992040725054997e+00 1.673493940415464065e+00 1.746218911595879719e+00 1.793033235572847772e+00 1.935995773625202032e+00 2.217862416245876656e+00 2.545107819425365570e+00 2.545107819425365570e+00 2.849549558549051120e+00 3.246609563825835654e+00 3.492520142222041990e+00 3.553794943423850494e+00 3.727671437642002150e+00 3.808713861032602122e+00 4.052065393748125466e+00 4.050068514368327044e+00 4.164612529716029243e+00 4.097469834744306816e+00 4.086121716029169626e+00 4.018312808227457289e+00 4.006847206956345886e+00 3.718211681612122010e+00 3.718211681612122010e+00 3.481727850344349395e+00 3.327329153389732674e+00 3.292513895382991773e+00 3.264227651176578426e+00 3.242252019142157771e+00 3.271315825408595224e+00 3.232959813457465081e+00 3.119547509279574804e+00 3.143286391221695286e+00 3.194544352415699784e+00 2.986943887551158028e+00 3.072226504184647489e+00 3.093398557395550696e+00 2.893185082056786150e+00 2.990704014414982126e+00 2.990704014414982126e+00 3.041280707678209350e+00 2.962729509528011285e+00 3.014820177232475196e+00 3.030033309262690544e+00 1.603514247510509971e+00 1.077766125733211178e+00 4.537080340496169595e-01 3.233840118655860185e-01 6.194479368942894248e-02 -5.234849775862971955e-01 -1.141975812074330410e+00 -1.141975812074330410e+00 -1.587482201705139540e+00 -1.891232425373020165e+00 -1.891232425373020165e+00 -2.010337103316199414e+00 -1.954699983453768386e+00 -2.040851289588222262e+00 -1.979174542091824307e+00 -2.042280940427868785e+00 -2.202855557442497059e+00 -2.295457455036630900e+00 -2.290337472164028831e+00 -2.399319601282881020e+00 -2.612732787977397830e+00 -2.796808882654933992e+00
5.334474346865700767e+00 5.334474346865700767e+00 5.334474346865700767e+00 5.334474346865700767e+00 5.334474346865700767e+00 4.621481432826126223e+00 5.268217973074858840e+00 4.684967975526720174e+00 4.435316989010978261e+00 4.377893354418041838e+00 4.108104321692380267e+00 3.710996107691550527e+00 3.710996107691550527e+00 3.543974841694191191e+00 3.290845291327595845e+00 3.038873626731918964e+00 2.909112266653341550e+00 2.630626396142323742e+00 2.515465054394092181e+00 2.312442331255749828e+00 2.220381129606829429e+00 2.145691940223430016e+00 1.951737003882501931e+00 1.675651395167091717e+00 1.675651395167091717e+00 1.527414293226116548e+00 1.439307216303286507e+00 1.398424647224320028e+00 1.327666240881832715e+00 1.254602645449059750e+00 1.257178241055610490e+00 1.188284191855416339e+00 1.115512623012287374e+00 1.139266854929896100e+00 1.083288752054077264e+00 1.048093836837964421e+00 1.048093836837964421e+00 1.017522032664587295e+00 1.025702059909619157e+00 1.117134016459125911e+00 1.065661650760038270e+00 1.147448531900062019e+00 1.237131890907837928e+00 1.217769281881320387e+00 1.279786321505359759e+00 1.341452384893893957e+00 1.423810785648306432e+00 1.390318960972733553e+00 1.432155426637958806e+00 1.496689180064159519e+00 1.515640646503163103e+00 1.515640646503163103e+00 1.654948331500509351e+00 1.712302250763349409e+00 1.871579264375324181e+00 1.871579264375324181e+00 2.128884801494061119e+00 2.399006005837782673e+00 2.632693322495946120e+00 2.713113318963094045e+00 3.075348520260005714e+00 3.327686814742235377e+00 3.636045757794336808e+00 3.695324056542570901e+00 3.789043840626061144e+00 3.996621081317363711e+00 4.094952669092458031e+00 4.094952669092458031e+00 4.135926948925917834e+00 4.066649688239309057e+00 4.000656377330950697e+00 3.978669845023448115e+00 3.792187598969722018e+00 3.575792608866762201e+00 3.454121697199644458e+00 3.357742043540159482e+00 3.278650369875773407e+00 3.345597844299659229e+00 3.196078277704625492e+00 3.223162363336992797e+00 3.174585170434295112e+00 3.113050415444333474e+00 3.113050415444333474e+00 3.204682422974846734e+00 3.024288808233838832e+00 3.072226504184647489e+00 2.984155754170828789e+00 2.932073993553454549e+00 2.900858675943223997e+00 2.996691881657143952e+00 3.014597969000809563e+00 3.038676469967803051e+00 2.951331393881893028e+00 3.028809933252920139e+00 3.028809933252920139e+00 7.949081041189950403e-01 3.836277757273621747e-01 3.233840118655860185e-01 8.744696988503052049e-02 -7.223699106559047234e-01 -9.394887035400454334e-01 -1.509353224924866677e+00 -1.818365687499133632e+00 -1.873886556781700463e+00 -2.115883957392911796e+00 -1.939959022962944646e+00 -1.939959022962944646e+00 -1.918310906124728543e+00 -1.883234725171775814e+00 -2.042280940427868785e+00 -1.987086576885680245e+00 -2.160196977892998138e+00 -2.290337472164028831e+00 -2.491126998779079837e+00 -2.560845362047515117e+00 -2.689091789477101813e+00
5.347857944229552629e+00 5.347857944229552629e+00 5.347857944229552629e+00 5.347857944229552629e+00 4.746103328790769460e+00 4.621481432826126223e+00 5.219353869545510172e+00 4.684845564069496149e+00 4.435316989010978261e+00 4.201500253574851129e+00 4.063499689602753762e+00 3.888586167598016896e+00 3.643130089833038543e+00 3.406666066072083332e+00 3.406666066072083332e+00 2.989392019262851807e+00 2.754226496822144377e+00 2.754226496822144377e+00 2.513763330589509515e+00 2.349148606260662131e+00 2.220381129606829429e+00 2.121796865846982350e+00 1.913537720973604195e+00 1.578281328008064532e+00 1.561247909630965935e+00 1.491834616369128286e+00 1.373960267094866516e+00 1.338636616026362303e+00 1.255352722457419912e+00 1.191858454920262211e+00 1.175595295388413231e+00 1.106697980220106903e+00 1.043281926567068973e+00 1.043281926567068973e+00 9.764576160361546631e-01 9.259060356563855176e-01 9.683401129434860977e-01 8.900562709709403109e-01 8.851020224578258766e-01 9.780256688630404316e-01 1.042927146075264488e+00 1.014704782783496739e+00 1.112959045633659105e+00 1.216139167268709187e+00 1.276909102362576265e+00 1.276909102362576265e+00 1.364515587043818146e+00 1.388383784429650714e+00 1.446982847968364405e+00 1.465837483557576482e+00 1.469201982990996136e+00 1.582216321903809897e+00 1.637050775929254520e+00 1.676149938666385175e+00 1.746374272475594180e+00 1.955320928788911949e+00 2.046298046284588779e+00 2.203553045271424260e+00 2.506683210459963451e+00 2.824905450723579126e+00 2.824905450723579126e+00 3.169236010042224549e+00 3.511952646250288801e+00 3.695324056542570901e+00 3.768668992375626914e+00 3.942928840757999875e+00 4.016149966207659183e+00 4.054110895452145868e+00 4.161856108179224911e+00 4.111400278259887742e+00 4.021272749925165257e+00 4.011020563779286618e+00 4.011020563779286618e+00 3.627724620000531086e+00 3.507009293060157962e+00 3.357742043540159482e+00 3.267727267548691472e+00 3.499123299412723043e+00 3.196078277704625492e+00 3.174741373404300404e+00 3.127605647673366462e+00 3.110096810779340970e+00 3.185518103176144145e+00 3.009050754200724320e+00 3.009050754200724320e+00 3.042035715672322116e+00 2.963870087067693060e+00 2.932073993553454549e+00 2.924750949645762432e+00 3.019779028071782889e+00 3.014597969000809563e+00 3.056526646225000032e+00 2.932330830495535334e+00 2.994310023108052832e+00 1.555340668317541475e+00 7.436841527446507172e-01 5.613776081436183674e-01 3.056647269825208402e-01 -4.795253268178489847e-01 -4.795253268178489847e-01 -1.200286346123347725e+00 -1.707495642067799801e+00 -1.818365687499133632e+00 -2.110755753738733365e+00 -2.204622979860987542e+00 -2.089376594366684881e+00 -1.863690988184558694e+00 -1.785320453544673391e+00 -1.808991025363564153e+00 -1.832705730804888411e+00 -2.013152342241994130e+00 -2.013152342241994130e+00 -2.243575543182275478e+00 -2.461202960077290669e+00 -2.560845362047515117e+00 -2.564014969204043481e+00
5.347857944229552629e+00 5.347857944229552629e+00 5.347857944229552629e+00 5.347857944229552629e+00 4.742511921316776125e+00 4.611013843001185109e+00 5.271467385141002104e+00 4.730242580145177733e+00 4.392251412209369654e+00 4.093432881283263214e+00 3.857062649434880086e+00 3.857062649434880086e+00 3.526555045862771465e+00 3.288471487721057240e+00 3.167397221816600883e+00 2.905826144523774524e+00 2.778865974971333141e+00 2.639842072351806124e+00 2.451391239531985899e+00 2.351303110415655873e+00 2.249245703776159733e+00 2.015129209791566289e+00 1.699023793335313393e+00 1.699023793335313393e+00 1.469984534815527155e+00 1.371427979393374130e+00 1.373960267094866516e+00 1.277973764747794005e+00 1.187456668491108092e+00 1.191858454920262211e+00 1.107706434773112925e+00 1.024537712337628470e+00 1.028814158906190324e+00 9.601707074780871931e-01 8.693246516823969205e-01 8.921080636854148427e-01 8.417822540186424840e-01 8.129867787220560471e-01 8.129867787220560471e-01 8.278438741036501236e-01 8.912101724749414977e-01 1.014704782783496739e+00 9.732162679684900342e-01 1.124275110490282170e+00 1.208133849306593399e+00 1.268818760835183745e+00 1.295917711405629280e+00 1.337864204965919512e+00 1.412387710572622357e+00 1.420249371704115360e+00 1.420249371704115360e+00 1.530306520337767262e+00 1.629447694976896788e+00 1.676149938666385175e+00 1.731860628278460101e+00 1.941134268777875427e+00 2.046298046284588779e+00 2.294473296675370033e+00 2.475836716190438214e+00 2.609302033479603544e+00 2.923579777120828282e+00 3.293188596778585442e+00 3.293188596778585442e+00 3.658849189232424415e+00 3.861510157443095004e+00 3.861510157443095004e+00 3.994263208420838041e+00 4.024949061641710735e+00 4.161856108179224911e+00 4.116916288847919603e+00 4.071155412717315514e+00 3.982679528882242082e+00 3.848202490900448858e+00 3.693901254965738179e+00 3.523952487587300730e+00 3.404351571658440712e+00 3.282039835828596708e+00 3.282039835828596708e+00 3.180875008988496511e+00 3.132561696564256426e+00 3.127605647673366462e+00 3.101874767957515822e+00 3.164303650134004720e+00 3.173198335710791795e+00 3.005551939053361377e+00 3.057659889654911201e+00 3.019239889068564331e+00 2.944899565346624115e+00 3.055536214363671288e+00 3.055536214363671288e+00 3.031021658773615179e+00 3.024616802280198691e+00 2.932330830495535334e+00 2.985792795895730212e+00 1.313979696173200207e+00 7.436841527446507172e-01 5.555895992160335695e-01 1.275809979376628378e-01 -1.735406945107356713e-01 -1.027694408908408352e+00 -1.562960733974099181e+00 -1.562960733974099181e+00 -2.010804570572238603e+00 -2.119244980935566680e+00 -2.119244980935566680e+00 -1.971127224824250845e+00 -1.738475822195663101e+00 -1.785320453544673391e+00 -1.682475625450146728e+00 -1.769873534655248104e+00 -1.850681996378472194e+00 -2.073319836234638114e+00 -2.095266428465497821e+00 -2.276448820326407052e+00 -2.422865114757541960e+00 -2.528549591000793573e+00
5.361241541593408044e+00 5.361241541593408044e+00 5.361241541593408044e+00 5.361241541593408044e+00 5.361241541593408044e+00 4.630633379749182765e+00 5.317124814554077261e+00 4.730242580145177733e+00 4.575978019727596546e+00 4.054826568032994238e+00 3.983245067638121029e+00 3.596087446476071925e+00 3.502515117397660749e+00 3.333127677748813689e+00 3.095245461948612942e+00 2.890146008390970245e+00 2.890146008390970245e+00 2.592267334259990896e+00 2.370593652347869007e+00 2.351303110415655873e+00 2.152383755027365897e+00 1.936619074969819332e+00 1.857258030116721859e+00 1.519855101282790333e+00 1.464956490529177202e+00 1.460694583507352373e+00 1.315080640254000954e+00 1.198899884997707277e+00 1.198899884997707277e+00 1.123931480959283302e+00 1.023628083647555531e+00 1.024537712337628470e+00 9.379770708458967654e-01 8.471018143309017034e-01 8.693246516823969205e-01 7.867864793690710901e-01 6.789503632918605369e-01 7.386191675126750900e-01 7.028918097031779944e-01 7.419443733697888010e-01 7.419443733697888010e-01 8.244831794767953914e-01 9.659145514595964821e-01 9.659145514595964821e-01 1.120610450458231266e+00 1.223477139398358560e+00 1.295917711405629280e+00 1.293132794056286228e+00 1.374879333004133342e+00 1.431545422676885337e+00 1.437134586661162672e+00 1.505721318830693711e+00 1.602628993999588802e+00 1.697655804670438862e+00 1.850717340441850212e+00 1.850717340441850212e+00 2.097198055757853119e+00 2.338851840081918709e+00 2.475836716190438214e+00 2.623021685982673823e+00 2.903232030757543658e+00 3.103600750297682787e+00 3.443385658400972993e+00 3.601116914740774888e+00 3.727018251277553595e+00 3.932753370799344061e+00 4.026142981417169864e+00 4.026142981417169864e+00 4.135712412987007092e+00 4.114708297164588302e+00 4.071155412717315514e+00 4.036925128313572309e+00 3.863850022344175628e+00 3.693901254965738179e+00 3.505092552847023146e+00 3.476422230608313235e+00 3.371493592266140205e+00 3.323259320360766544e+00 3.234429743935551382e+00 3.111556772054353104e+00 3.102514783177783286e+00 3.051597516589056092e+00 3.051597516589056092e+00 3.128858737383352295e+00 3.021410928414268948e+00 3.057659889654911201e+00 3.048618493552170072e+00 3.096373445056575857e+00 3.075954829710123573e+00 3.031077605456715673e+00 2.987186860322700976e+00 3.008110882773906258e+00 3.028705549456605972e+00 3.035611319011848330e+00 1.438230408143848837e+00 7.265568484255084947e-01 3.330144965189978934e-01 -3.323998861304013897e-01 -3.323998861304013897e-01 -1.100089443070052520e+00 -1.605190183284395555e+00 -1.746181049183378464e+00 -1.884561906824999244e+00 -1.931539312894891003e+00 -1.973187586456876863e+00 -1.764057175491464013e+00 -1.607074116472785974e+00 -1.650084255532829003e+00 -1.678471634409957725e+00 -1.785859363736751249e+00 -1.785859363736751249e+00 -1.943536230503564610e+00 -2.117401129343921884e+00 -2.117401129343921884e+00 -2.261862450743049813e+00 -2.374882787614533530e+00
5.307781133720521183e+00 5.307781133720521183e+00 5.307781133720521183e+00 5.307781133720521183e+00 4.751280363307435195e+00 5.102137205310706136e+00 5.102137205310706136e+00 5.003608449476331543e+00 4.227993056182317133e+00 4.054826568032994238e+00 3.930640679799361159e+00 3.607031353913791705e+00 3.502515117397660749e+00 3.298377749601965281e+00 3.073649455185112345e+00 2.910292445956322638e+00 2.712167165679604697e+00 2.523251253411687323e+00 2.423444709337573055e+00 2.246595071141505251e+00 1.987949106475795258e+00 1.987949106475795258e+00 1.750992764149339020e+00 1.501242661902978170e+00 1.464956490529177202e+00 1.440755557303766921e+00 1.274940130354316192e+00 1.233528305863205166e+00 1.134685389269330935e+00 1.062336493190785047e+00 1.048890306544763451e+00 9.370998135304543508e-01 8.304355658031856713e-01 8.304355658031856713e-01 7.354373312044373279e-01 6.320882177633742049e-01 6.789503632918605369e-01 4.396750384381517551e-01 2.621365778681848946e-01 6.172788710329999429e-01 6.682222524247946049e-01 6.047881185388607195e-01 7.978343654183102096e-01 1.021086259838888788e+00 1.137459101529144201e+00 1.137459101529144201e+00 1.234723630095316604e+00 1.300932000110481379e+00 1.374879333004133342e+00 1.390730870228756633e+00 1.438176474120211434e+00 1.505721318830693711e+00 1.580058947464666463e+00 1.720361419543491976e+00 1.785594268913892169e+00 1.995026481716059674e+00 2.140113981887909134e+00 2.225591275663666213e+00 2.499164457996156052e+00 2.767458487100126430e+00 2.767458487100126430e+00 3.052980013637342172e+00 3.415844677554010556e+00 3.686288968587752013e+00 3.686288968587752013e+00 3.915020516654776905e+00 3.997034860355662911e+00 4.006303671098782715e+00 4.109479037233556120e+00 4.124199852695667801e+00 4.080562490504620499e+00 4.002694843909829103e+00 3.872173588188981164e+00 3.763009527222109796e+00 3.629979267933722387e+00 3.447751908369604212e+00 3.447751908369604212e+00 3.299704964966207577e+00 3.178812777607995965e+00 3.129648924323082504e+00 3.096236829183931505e+00 3.029825606725273346e+00 3.130592355414858474e+00 3.023658442075591868e+00 3.040428014015937652e+00 3.079767359750908984e+00 3.101802575755813862e+00 3.060199628141249573e+00 3.060199628141249573e+00 3.003607195879471004e+00 2.978603293724339629e+00 2.978603293724339629e+00 3.041101935442894977e+00 2.952506059161018825e+00 1.438230408143848837e+00 1.054295012249743202e+00 4.509735289914722500e-01 5.423381475714000866e-03 -8.224703365926571141e-01 -1.175071907106853608e+00 -1.392481024287885560e+00 -1.701866079903295192e+00 -1.891957035921010721e+00 -1.891957035921010721e+00 -1.760665509008618290e+00 -1.536516754064125134e+00 -1.607074116472785974e+00 -1.514848057520983948e+00 -1.616675456024649016e+00 -1.714312455733067120e+00 -1.830266953801450214e+00 -1.813752624772491329e+00 -1.965114541212420018e+00 -2.117103502041360663e+00 -2.238719259529624583e+00 -2.238719259529624583e+00
5.307781133720521183e+00 5.307781133720521183e+00 5.307781133720521183e+00 5.307781133720521183e+00 4.808400500813184486e+00 4.657782118232455915e+00 5.362782243967166629e+00 4.901177254314985632e+00 4.630945214827280942e+00 4.027778073802322112e+00 3.716732058321940979e+00 3.716732058321940979e+00 3.489659679884457244e+00 3.314318705119924324e+00 3.073649455185112345e+00 2.914758747388870752e+00 2.629148215189127669e+00 2.523251253411687323e+00 2.258595346917075641e+00 2.118086404733832584e+00 2.066348012757903252e+00 1.856292689490422809e+00 1.596324136679325267e+00 1.596324136679325267e+00 1.463480811744930943e+00 1.326118756132951493e+00 1.274940130354316192e+00 1.193827477379861390e+00 1.087553053777097878e+00 1.062336493190785047e+00 9.803277103366221379e-01 8.606638536282389396e-01 7.226885700800069756e-01 7.233495053895935278e-01 6.084813119373942980e-01 3.296165378501090815e-01 2.392192637915034892e-01 -2.464681572118639641e-01 -9.224061888387353747e-01 -3.448850564770721827e-01 -4.091584532563080634e-01 6.659416617146400874e-01 6.659416617146400874e-01 9.211661088653405605e-01 1.081629569540944136e+00 1.168024479638221980e+00 1.190558834299435764e+00 1.259080266913237933e+00 1.337336419779436403e+00 1.393478008329680051e+00 1.419863089200271045e+00 1.483677563504993913e+00 1.653773983773727529e+00 1.839327909549324236e+00 1.839327909549324236e+00 2.038643767481878033e+00 2.262328186405468067e+00 2.383230383488467385e+00 2.522985583059234482e+00 2.763824307444459727e+00 2.899161878965932360e+00 3.200977345544380182e+00 3.364157664686715066e+00 3.540345762463867896e+00 3.792998895847748297e+00 3.893622361586632774e+00 3.971742910284301598e+00 3.997930375982109208e+00 4.114681552239044748e+00 4.114681552239044748e+00 4.077525444278584210e+00 3.934574200441261382e+00 3.872173588188981164e+00 3.798920778318632507e+00 3.742967368397909667e+00 3.601308945695012476e+00 3.365809916914239253e+00 3.250220096900074296e+00 3.253249500406124817e+00 3.136594858328189961e+00 3.048488721868571893e+00 3.048488721868571893e+00 3.096881060695711785e+00 3.004140711907335781e+00 3.040428014015937652e+00 3.115892921779584768e+00 3.162729211441357435e+00 3.213636202308915557e+00 3.024025811225923288e+00 3.000734611925024886e+00 2.999461921732087699e+00 3.049409574252776700e+00 3.074964602246679224e+00 3.074964602246679224e+00 1.482455984376589431e+00 7.370442172844193784e-01 4.509735289914722500e-01 8.014906367272685295e-02 -8.191490687208673460e-01 -1.175071907106853608e+00 -1.431771706227117136e+00 -1.657551110623211921e+00 -1.776507156806861776e+00 -1.764803437921889984e+00 -1.549856585762512617e+00 -1.428851158236889907e+00 -1.423164334180308632e+00 -1.532351551884606033e+00 -1.532351551884606033e+00 -1.658751376810885914e+00 -1.729704915773727425e+00 -1.813752624772491329e+00 -1.781349168312324149e+00 -1.905618506919422028e+00 -2.067762544792467683e+00 -2.221215984228273044e+00
5.307781133720521183e+00 5.307781133720521183e+00 5.307781133720521183e+00 4.967243520529951439e+00 4.967243520529951439e+00 4.745472571848276644e+00 5.391742649842477419e+00 4.440029971683426169e+00 4.440029971683426169e+00 4.056083420431597197e+00 3.652079327849570678e+00 3.604879437684009424e+00 3.490650845642105704e+00 3.307276556979870552e+00 3.066351826321871865e+00 2.791612605272351555e+00 2.549849561878023252e+00 2.460935666460406512e+00 2.155573356266574869e+00 1.953273503804015654e+00 1.953273503804015654e+00 1.774868331293437684e+00 1.529820811976214001e+00 1.482630222523166008e+00 1.451955875070900737e+00 1.303054622461902401e+00 1.234799620454631208e+00 1.107370612487174055e+00 1.039190385533296901e+00 1.003154673170675082e+00 8.766652174586576640e-01 7.446180476989022745e-01 7.446180476989022745e-01 6.006751643515668704e-01 4.419494297380725523e-01 3.296165378501090815e-01 -5.420572652950916837e-01 -9.739926022755494017e-01 -9.224061888387353747e-01 -1.527118147513519597e+00 -1.553804450898385259e+00 -8.923858310479617639e-01 7.620980218697173125e-01 8.104910585405112888e-01 9.533627130156133722e-01 1.103666090357610541e+00 1.204792997838116220e+00 1.204792997838116220e+00 1.295315849785579454e+00 1.366391772874561594e+00 1.419863089200271045e+00 1.455637290490845670e+00 1.640116515811778752e+00 1.743067034416544647e+00 1.982204290024007998e+00 2.037193843711383678e+00 2.182833634431443848e+00 2.403273322128407941e+00 2.643658343763120033e+00 2.643658343763120033e+00 2.896796568261446492e+00 3.171169633943454969e+00 3.364157664686715066e+00 3.521971256377473658e+00 3.759380902511534561e+00 3.893622361586632774e+00 3.984347171966057477e+00 4.008425947915241316e+00 4.090128062677226062e+00 4.151141622801515219e+00 4.044433560336081257e+00 4.044433560336081257e+00 3.903857949255089110e+00 3.722309548913594668e+00 3.742967368397909667e+00 3.489353956880263397e+00 3.336887202000564656e+00 3.250220096900074296e+00 3.225234049118391511e+00 3.197036908043875858e+00 3.111530505702136740e+00 3.032379185420497336e+00 3.098473213732570120e+00 3.034895053428749989e+00 3.045871617814714050e+00 3.123506507585568137e+00 3.123506507585568137e+00 3.077475080584481049e+00 3.045870460123556001e+00 3.000734611925024886e+00 3.030988999822607610e+00 2.921945648651855798e+00 3.072275047241371571e+00 3.000504093340790046e+00 1.627397051214669155e+00 1.068963098419094981e+00 3.835102784073823878e-01 -3.906820418790023508e-01 -3.906820418790023508e-01 -1.039702540639400707e+00 -1.535315703130322174e+00 -1.657551110623211921e+00 -1.715415992417233637e+00 -1.638786355816892915e+00 -1.549856585762512617e+00 -1.264925626225549715e+00 -1.322574595509654394e+00 -1.397909120455272713e+00 -1.551104521883982734e+00 -1.633234829435026514e+00 -1.633234829435026514e+00 -1.699330085581604699e+00 -1.776120812400617144e+00 -1.776120812400617144e+00 -1.941128233084841836e+00 -2.171005383719944337e+00
4.967243520529951439e+00 4.967243520529951439e+00 4.967243520529951439e+00 4.967243520529951439e+00 4.967243520529951439e+00 4.984920541075892331e+00 5.407388804339152699e+00 4.921388380073946855e+00 4.240594445584768835e+00 3.805955869208832443e+00 3.805955869208832443e+00 3.518384520301001572e+00 3.355874708881538826e+00 3.307276556979870552e+00 3.082137822415018658e+00 2.747699634911643596e+00 2.549849561878023252e+00 2.326699467686799139e+00 2.046533426525615873e+00 1.987964765574249171e+00 1.778594969881335031e+00 1.620227352669755483e+00 1.578592953768084506e+00 1.442683286331319703e+00 1.367094833568189172e+00 1.367094833568189172e+00 1.208609846042576930e+00 1.078086690563937022e+00 1.039190385533296901e+00 9.517962207772925343e-01 8.166054017134612986e-01 7.700288889916373503e-01 6.324046586205430698e-01 5.168094366470272760e-01 4.948020105215632514e-01 -3.671645870770667286e-01 -7.655462599713155347e-01 -7.655462599713155347e-01 -1.282427560156825574e+00 -1.750823119724035815e+00 -1.553804450898385259e+00 -2.658386735094024900e-01 6.519958125591652776e-01 8.104910585405112888e-01 1.018999067476868081e+00 1.050511377037345095e+00 1.144513989171454860e+00 1.224320811047019619e+00 1.313450762083805845e+00 1.313450762083805845e+00 1.396531304410788987e+00 1.488857174135001626e+00 1.488857174135001626e+00 1.725885021413850584e+00 1.940155319736561301e+00 2.037193843711383678e+00 2.139308252094187068e+00 2.373006541400760838e+00 2.505612750945865663e+00 2.750009909113694917e+00 2.880623603127937749e+00 2.984462296060346631e+00 3.346728076106114003e+00 3.641616540635377319e+00 3.641616540635377319e+00 3.867411904551912194e+00 4.009533276243071320e+00 4.008425947915241316e+00 4.084767503906386210e+00 4.201189442892165005e+00 4.103322590504183687e+00 3.992542717571922140e+00 3.935133447093714487e+00 3.845759457767293554e+00 3.659679628709283428e+00 3.411149927793673875e+00 3.411149927793673875e+00 3.240738997538178623e+00 3.181247691315849835e+00 3.197036908043875858e+00 3.158059011572751373e+00 3.058946844018156863e+00 3.098473213732570120e+00 3.013506025703026392e+00 3.040352609842152720e+00 3.090043502925540864e+00 3.064324468772837484e+00 3.005142429960106831e+00 3.029647552205260830e+00 2.972055842677430171e+00 2.959818831698221686e+00 2.959818831698221686e+00 2.920493163568151473e+00 2.979124773227189493e+00 1.627397051214669155e+00 1.292806906483764617e+00 5.251651761727482715e-01 6.314049482455830198e-02 -6.750937554089990744e-01 -9.809415195615743821e-01 -1.306957461105416440e+00 -1.594926808435853660e+00 -1.678241049938289819e+00 -1.678241049938289819e+00 -1.491365378084466009e+00 -1.314706250873481030e+00 -1.379730106923794830e+00 -1.379730106923794830e+00 -1.466913020888470420e+00 -1.491396756888161201e+00 -1.606222891924525609e+00 -1.572541460628410270e+00 -1.672803518295537195e+00 -1.804371615671005458e+00 -2.000875564903450865e+00 -2.117029926635801473e+00
5.203448916756356013e+00 5.203448916756356013e+00 5.203448916756356013e+00 5.203448916756356013e+00 5.203448916756356013e+00 4.926312208958496974e+00 5.407388804339152699e+00 4.967238988465036975e+00 4.232767915489328736e+00 3.936936000711602546e+00 3.541029110879935438e+00 3.374395159659613341e+00 3.339685867701357225e+00 3.171815068353900369e+00 2.812501231099834076e+00 2.812501231099834076e+00 2.469287097295540079e+00 2.151357079895332980e+00 2.046533426525615873e+00 1.826531260546619961e+00 1.604496736340934149e+00 1.620227352669755483e+00 1.442388114286188516e+00 1.382871744095983457e+00 1.373329125316770538e+00 1.308926488976746461e+00 1.185928863579758019e+00 1.108550566220242395e+00 9.912235101210630228e-01 8.662206276991921694e-01 8.662206276991921694e-01 7.046177900394087201e-01 5.426582025889089556e-01 5.168094366470272760e-01 3.164911581677000152e-01 -4.533800264129487223e-01 -6.678625045340568223e-01 -1.142993454487965854e+00 -1.492588921869846263e+00 -1.585702875594175332e+00 -9.412141540076944812e-01 4.999522145139022600e-01 4.999522145139022600e-01 7.581894519848646485e-01 9.570205450238418177e-01 1.050511377037345095e+00 1.090323190122583608e+00 1.199380671577079838e+00 1.256737807137098040e+00 1.331686137075574372e+00 1.381447712906073377e+00 1.414517913323313225e+00 1.618912788178040962e+00 1.821498633405700174e+00 1.821498633405700174e+00 2.006807422737956426e+00 2.229495347812181283e+00 2.373006541400760838e+00 2.468423993319575516e+00 2.734088403210424456e+00 2.880623603127937749e+00 3.156775816873436558e+00 3.339213771161697153e+00 3.499514323840654750e+00 3.720196202490505755e+00 3.829821027785188736e+00 3.970681531056846403e+00 4.029823370305447128e+00 4.151941623419682870e+00 4.151941623419682870e+00 4.157871657736402327e+00 4.022806342457917239e+00 3.935133447093714487e+00 3.884914061917405625e+00 3.688051952186304216e+00 3.397367603103748745e+00 3.346710579325494095e+00 3.231257898176282062e+00 3.167319542382935005e+00 3.192199923960823860e+00 3.140967639189590432e+00 3.106960063636155400e+00 3.084404334275750337e+00 3.046407698020364485e+00 3.050158516321689550e+00 3.050158516321689550e+00 2.980127354805295781e+00 3.006425275391433782e+00 2.975235978978565399e+00 2.959831708276831286e+00 2.970572438011955363e+00 2.945132265025976803e+00 2.944459450836249381e+00 3.002716838017837730e+00 1.728471077238007636e+00 9.424009326202229531e-01 1.719251664997813733e-01 1.719251664997813733e-01 -6.129426857449580268e-01 -1.277885519882864918e+00 -1.277885519882864918e+00 -1.512052336377997630e+00 -1.542819292180173329e+00 -1.544960729088275198e+00 -1.449201712840391343e+00 -1.371589800629371192e+00 -1.341821694233566120e+00 -1.404416502535486000e+00 -1.384802358687124091e+00 -1.432481734894523573e+00 -1.469624781223215049e+00 -1.559527678907770554e+00 -1.559527678907770554e+00 -1.702927423405181662e+00 -1.923286777919870350e+00 -2.117029926635801473e+00
5.265861822947352167e+00 5.265861822947352167e+00 5.265861822947352167e+00 5.265861822947352167e+00 5.265861822947352167e+00 4.869348056538868263e+00 5.383029164757339835e+00 4.528599830267055815e+00 4.528599830267055815e+00 3.811325433550610597e+00 3.431701136340317149e+00 3.374395159659613341e+00 3.188720889760609190e+00 3.034036120351184973e+00 3.060685801411793250e+00 2.700590098523449001e+00 2.394602638896236702e+00 2.172814111289587569e+00 1.938004922397614571e+00 1.652728933391315103e+00 1.652728933391315103e+00 1.453185188704929853e+00 1.354316469373030518e+00 1.382871744095983457e+00 1.295055744235419137e+00 1.310151392851315100e+00 1.185928863579758019e+00 1.036027300978067389e+00 9.437311498517457764e-01 9.004377683839099866e-01 7.589419112405124679e-01 5.909324468380443562e-01 5.909324468380443562e-01 4.289837256507549323e-01 -1.617536231699341631e-01 -4.533800264129487223e-01 -9.868657540933213346e-01 -1.475018256805598282e+00 -1.492588921869846263e+00 -1.857084067402822392e+00 -1.073495955204067043e+00 -2.032816981509770748e-01 6.056186054053916967e-01 7.118122448310910677e-01 9.129305383258276008e-01 9.973407333415270637e-01 1.149593480890680475e+00 1.176484802827010512e+00 1.218987291567671605e+00 1.320347600852989967e+00 1.381635507861609824e+00 1.381635507861609824e+00 1.571355656099617359e+00 1.790977668138287848e+00 1.897026791951500257e+00 1.975878454943437612e+00 2.188117107061604116e+00 2.336559972478341241e+00 2.614847179703226665e+00 2.734560305283304071e+00 2.863092051355621948e+00 3.127552188968825586e+00 3.476004735630645825e+00 3.476004735630645825e+00 3.713067250852311041e+00 3.954745504470166928e+00 4.025607837032469938e+00 4.054368905264714051e+00 4.158337764297755257e+00 4.249214476122893380e+00 4.104650424638300876e+00 4.061011597251415139e+00 3.964146451841476182e+00 3.856255845964985163e+00 3.712202102156660466e+00 3.551644522433070161e+00 3.321105947325354357e+00 3.183629514746731282e+00 3.183629514746731282e+00 3.159397819018310294e+00 3.200448738033265794e+00 3.106960063636155400e+00 3.109252815577948414e+00 3.009914972617643070e+00 3.042173559758947210e+00 2.955112279650483842e+00 2.940240903585573662e+00 3.024749993662997571e+00 3.036323190501111213e+00 3.041626811362593941e+00 3.041626811362593941e+00 3.008607206806777512e+00 3.033430083613296802e+00 3.002716838017837730e+00 1.882451893031553247e+00 8.962771194318770451e-01 5.628837542983495812e-01 -7.956004516228706858e-02 -3.998022145047658293e-01 -1.013074073707545653e+00 -1.315900796948131113e+00 -1.495073009752921678e+00 -1.495073009752921678e+00 -1.450021329918868673e+00 -1.381344628322878298e+00 -1.371589800629371192e+00 -1.341662576963003950e+00 -1.356581789142192074e+00 -1.384802358687124091e+00 -1.349558684341295667e+00 -1.352852675059460275e+00 -1.445752835675215620e+00 -1.562362496059772177e+00 -1.742795631451163896e+00 -1.824588969273281736e+00 -2.143352663873328900e+00
5.265861822947352167e+00 5.265861822947352167e+00 5.265861822947352167e+00 5.265861822947352167e+00 5.265861822947352167e+00 4.867703876841103394e+00 5.357129147779425615e+00 5.012896417878112132e+00 4.063802508669697389e+00 3.522847254752968560e+00 3.522847254752968560e+00 3.227203089168449335e+00 2.985843536464361847e+00 2.917923087751464362e+00 2.930382236237053739e+00 2.646413562297166955e+00 2.061935474037741578e+00 2.061935474037741578e+00 1.797287634492736208e+00 1.504902262443276406e+00 1.443810643514817915e+00 1.358756185892941559e+00 1.302876266018618168e+00 1.322325826620002864e+00 1.223780143111251384e+00 1.276991984456227414e+00 1.165534733210800145e+00 9.887793071017161317e-01 8.472752356465490520e-01 8.472752356465490520e-01 6.841011374144725377e-01 4.920159115722417265e-01 4.817774681978888585e-01 2.635332886037895506e-01 -3.992247363799166227e-01 -4.126234538345750491e-01 -1.515018430110645964e+00 -1.724976239694650859e+00 -1.748471824327734847e+00 -1.667165571754138709e+00 -5.881762928829781245e-01 -5.881762928829781245e-01 6.145436877514842688e-01 8.020451544456552728e-01 9.129305383258276008e-01 9.525803065950455562e-01 1.101712353193094796e+00 1.176484802827010512e+00 1.270633056133489758e+00 1.295278935466483539e+00 1.345576050278968205e+00 1.412040731663864346e+00 1.519754757225355579e+00 1.689199315930309364e+00 1.860470096367361492e+00 2.038527806405214804e+00 2.038527806405214804e+00 2.296184874142033649e+00 2.571963392369491341e+00 2.734560305283304071e+00 2.826939770274608854e+00 3.089009967120903255e+00 3.331699466217280303e+00 3.630576933022716446e+00 3.722672169440945034e+00 3.799399472126474997e+00 4.028110819314896673e+00 4.069788453312200183e+00 4.069788453312200183e+00 4.265318467571537653e+00 4.123704323789376680e+00 4.061011597251415139e+00 3.975004597674705487e+00 3.857147093526389181e+00 3.712202102156660466e+00 3.395502452036377239e+00 3.338165367757495172e+00 3.242164871855748309e+00 3.154717655673375365e+00 3.166398435361064578e+00 3.166398435361064578e+00 3.141454497468165741e+00 2.991245416487692044e+00 3.009914972617643070e+00 3.035228718417415816e+00 2.955986376173863395e+00 2.940240903585573662e+00 2.993684267536009802e+00 3.023872549011275446e+00 2.993758361186684702e+00 2.988536142892212144e+00 3.039309205493745836e+00 2.944283230209190361e+00 3.067221681629156649e+00 1.303193925569027689e+00 1.303193925569027689e+00 5.922928995899027216e-01 1.179809816078650903e-01 -3.998022145047658293e-01 -6.036639238448209266e-01 -1.124131996078890694e+00 -1.366418996962603716e+00 -1.437080448516308451e+00 -1.409078897006603937e+00 -1.394270369940093790e+00 -1.335654990720241297e+00 -1.285529249450598321e+00 -1.285529249450598321e+00 -1.286082077302961979e+00 -1.255877072793941007e+00 -1.352852675059460275e+00 -1.383037491300754152e+00 -1.639675226007708542e+00 -1.742795631451163896e+00 -2.072402852508584026e+00 -2.240539686839356115e+00
