8.222162366911959230e-01 9.874708691848147479e-01 1.034926664747393366e+00 1.076249249686730414e+00 1.095683995349058470e+00 1.123683504840546687e+00 1.139429565247007892e+00 1.150310385297765858e+00 1.176965245384237413e+00 1.200838943115241086e+00 1.200838943115241086e+00 1.243411929625273027e+00 1.289536291098356324e+00 1.276764452585904541e+00 1.314878249140964961e+00 1.397384865638124252e+00 1.436399387260791194e+00 1.535181483361639065e+00 1.550452628300833080e+00 1.585292754062490150e+00 1.697955609225699991e+00 1.383705219663735608e+00 1.383705219663735608e+00 8.347596779621987428e-01 5.357896214655626377e-01 4.296523216973635040e-01 2.633796640729754168e-01 1.573726246099555193e-01 1.867278039450974703e-01 -6.503423756691015800e-01 -1.184376086285918506e+00 -1.451830196317171584e+00 -2.025490281621465716e+00 -2.367832006705661296e+00 -2.367832006705661296e+00 -2.525707238758122752e+00 -2.568461924527141171e+00 -2.689437037386238405e+00 -2.717176346126149777e+00 -2.869245330673257932e+00 -2.903244809451102526e+00 -3.047432745985155567e+00 -3.110775143677726895e+00 -2.914376005460771246e+00 -2.580765665059424396e+00 -2.370474882888293777e+00 -2.228695145376528686e+00 -2.139154482086816689e+00 -2.202810628049246766e+00 -2.202810628049246766e+00 -2.522404020471434194e+00 -2.914807684234875573e+00 -3.070457209389225728e+00 -3.263422528765118180e+00 -3.647289497395312274e+00 -3.804328323559280634e+00 -4.208669445682035715e+00 -4.520513189907889640e+00 -4.693618371841422388e+00 -5.075133824069641975e+00 -5.367583655429518430e+00 -5.367583655429518430e+00 -5.659694507845685507e+00 -5.882721337613997292e+00 -5.950683315761032155e+00 -6.095012012306074034e+00 -6.339475084510354463e+00 -6.296977652799007785e+00 -6.507930224149799159e+00 -6.625219043630416138e+00 -6.670788544768530670e+00 -6.809894874715212154e+00 -6.884117898615135900e+00 -6.884117898615135900e+00 -6.979947885613959180e+00 -7.099197325857529606e+00 -7.099197325857529606e+00 -7.187383412049481279e+00 -7.290991334711870664e+00 -7.265250397344345856e+00 -7.418707801634011112e+00 -7.466426740124718187e+00 -7.466920828971073121e+00 -7.549334774135515680e+00 -7.685930799667322511e+00 -7.659427320099029934e+00 -7.752399501911056312e+00 -7.819499579006737200e+00 -7.819499579006737200e+00 -7.904836405086480333e+00 -7.949924700729639859e+00 -7.950910426108185547e+00 -8.034073178864318265e+00 -8.152251889088983461e+00 -8.151929168852525720e+00 -8.236843357210116068e+00 -8.314833618179070740e+00 -8.320761210764045401e+00 -8.440530730302461038e+00 -8.512791759160572624e+00 -8.512791759160572624e+00 -8.604367516089867607e+00 -8.666304693495264999e+00 -8.696900494801843351e+00 -8.768549135506564340e+00 -8.846082869801268345e+00 -8.874424324556416721e+00 -9.024207686120101712e+00 -9.099093405446351923e+00 -9.125234197325379881e+00 -9.256930867116308193e+00 -9.365485644109394769e+00 -9.411526031381653112e+00 -9.535657044704031193e+00 -9.676759814501311396e+00 -9.676759814501311396e+00
9.048614834084121039e-01 1.008059173227768390e+00 1.057436019124197379e+00 1.076249249686730414e+00 1.118644561709616125e+00 1.132229315403991299e+00 1.139429565247007892e+00 1.172077813521742229e+00 1.185661020741810123e+00 1.196076134165469540e+00 1.228178828412723966e+00 1.274637955736210415e+00 1.274637955736210415e+00 1.320996496683770616e+00 1.391410436128886374e+00 1.391410436128886374e+00 1.427222125226375260e+00 1.539262848949351836e+00 1.550452628300833080e+00 1.608740686880220760e+00 1.696289194067670092e+00 1.512505999223881847e+00 1.020451464955179688e+00 7.369677539408395761e-01 6.313106296297227304e-01 3.629220574807850985e-01 9.093504938645627367e-02 9.093504938645627367e-02 2.629157806033306788e-02 -8.228021532354887757e-01 -1.184376086285918506e+00 -1.537395608615489628e+00 -2.063490047607909439e+00 -2.249978765130889791e+00 -2.430835673886490245e+00 -2.457900536420982718e+00 -2.532672716343955965e+00 -2.666215299540509953e+00 -2.830914715722482544e+00 -2.830914715722482544e+00 -3.087643572782505785e+00 -3.254063516891230634e+00 -3.110775143677726895e+00 -3.164037793212425509e+00 -2.814717842187614671e+00 -2.370474882888293777e+00 -2.169727314400632601e+00 -2.088953552771051214e+00 -2.129670842790933882e+00 -2.367099523416553719e+00 -2.742828257689625460e+00 -2.788000800151550163e+00 -3.172989509664070340e+00 -3.537354625701601307e+00 -3.537354625701601307e+00 -3.914064573153039461e+00 -4.345291555967741637e+00 -4.520513189907889640e+00 -4.814511204615692819e+00 -5.219449089775594963e+00 -5.292066839831555569e+00 -5.575137225126068685e+00 -5.784084909609090275e+00 -5.830375973681892532e+00 -6.059565732841982744e+00 -6.258281103644145915e+00 -6.258281103644145915e+00 -6.476232672497494569e+00 -6.634011533773032099e+00 -6.625219043630416138e+00 -6.774092348765306859e+00 -6.908488623646201532e+00 -6.913756904608680642e+00 -6.996613763070936187e+00 -7.124889892063130503e+00 -7.121816816190229105e+00 -7.223459157469070746e+00 -7.305044288493929727e+00 -7.305044288493929727e+00 -7.372776465257329548e+00 -7.518158133020260259e+00 -7.466426740124718187e+00 -7.621200182520020405e+00 -7.698054973768150511e+00 -7.685930799667322511e+00 -7.747302215376356216e+00 -7.843167238974999123e+00 -7.814065565663885771e+00 -7.893911644109887327e+00 -7.995244700752752287e+00 -7.964945812495643374e+00 -8.042154492174343972e+00 -8.116406757076202183e+00 -8.116406757076202183e+00 -8.226389045254697052e+00 -8.311523978337937990e+00 -8.314833618179070740e+00 -8.398273385700299798e+00 -8.507757354083471668e+00 -8.476648616707620931e+00 -8.589117877234469844e+00 -8.637447464155464161e+00 -8.659483348759039245e+00 -8.736263197737876851e+00 -8.833736058523200541e+00 -8.833736058523200541e+00 -8.934575620146347319e+00 -9.089384084495337746e+00 -9.194532815526050840e+00 -9.194532815526050840e+00 -9.344659490232427146e+00 -9.478739499204415608e+00 -9.515965018163189626e+00 -9.579239156997260807e+00 -9.726458378932992588e+00 -9.770430325870709254e+00
9.871480561471830395e-01 1.023315710346939245e+00 1.048143310275668760e+00 1.089886996157169552e+00 1.130082887038050821e+00 1.130082887038050821e+00 1.144694936023847198e+00 1.178763130755549060e+00 1.185661020741810123e+00 1.203564536371990457e+00 1.248635701421610733e+00 1.257148083151702789e+00 1.311531370129275675e+00 1.345342296330207521e+00 1.344777334690320680e+00 1.440346577552215512e+00 1.505594865225302392e+00 1.505594865225302392e+00 1.548511713551273816e+00 1.652780182713243562e+00 1.696289194067670092e+00 1.372630290677216758e+00 8.635653914883991700e-01 7.369677539408395761e-01 4.511279987368325695e-01 2.844628142753481415e-01 1.944204051989777415e-01 -5.838086347517770780e-02 -1.375085475641795729e-01 -5.216572598644564351e-01 -1.261506155740170332e+00 -1.843843494457061860e+00 -1.843843494457061860e+00 -2.210484979884104639e+00 -2.395659692545241359e+00 -2.457900536420982718e+00 -2.527311129941396839e+00 -2.741751946078803126e+00 -2.769415603553564420e+00 -3.026840158318803820e+00 -3.266110377817033061e+00 -3.304829057455555663e+00 -3.358218843960923294e+00 -3.175824384372646136e+00 -3.175824384372646136e+00 -2.470146810026930151e+00 -2.111890297716492171e+00 -2.088953552771051214e+00 -2.194611439590577806e+00 -2.561848865204641612e+00 -2.742828257689625460e+00 -3.003663766673756008e+00 -3.280353437120828275e+00 -3.392963162225006712e+00 -3.784038025287353335e+00 -4.213360056149557664e+00 -4.213360056149557664e+00 -4.683166568061971624e+00 -5.094773746121987301e+00 -5.219449089775594963e+00 -5.431750497514006071e+00 -5.710589552126775104e+00 -5.784084909609090275e+00 -5.978077963202352407e+00 -6.181941162732399242e+00 -6.219796789540507298e+00 -6.417940230870422980e+00 -6.597367277443836109e+00 -6.636242866025355625e+00 -6.794845477453494098e+00 -6.913160777128127599e+00 -6.913160777128127599e+00 -7.050059860563405500e+00 -7.147156389333685134e+00 -7.124889892063130503e+00 -7.268625000926020263e+00 -7.346271427265195442e+00 -7.453940371939880905e+00 -7.418160750935577141e+00 -7.556020119849936378e+00 -7.634521048204366167e+00 -7.638028836587274384e+00 -7.717178168129494864e+00 -7.873898053164184674e+00 -7.811286572377190929e+00 -7.882809565093316095e+00 -7.951452288175115513e+00 -7.951452288175115513e+00 -8.018419801547814529e+00 -8.085387314920515323e+00 -8.082353686855716646e+00 -8.168250646180567287e+00 -8.211501004273246807e+00 -8.229659107922802974e+00 -8.296238231642014682e+00 -8.414917733307568426e+00 -8.411563236903390361e+00 -8.486528421360466368e+00 -8.602918665193836745e+00 -8.571396510432345295e+00 -8.652286554792542717e+00 -8.744452122089104051e+00 -8.744452122089104051e+00 -8.813346853940188907e+00 -8.911514451771294532e+00 -8.911596535426680177e+00 -9.036846474420059394e+00 -9.167642809959222205e+00 -9.163590196041170088e+00 -9.316791924936635994e+00 -9.406618599666289882e+00 -9.450222458567871797e+00 -9.574803286374931943e+00 -9.693115224524916584e+00 -9.693115224524916584e+00 -9.817631653858359897e+00
1.004800607240576849e+00 1.023315710346939245e+00 1.058054630590929523e+00 1.099039093505636888e+00 1.115656229082740314e+00 1.139256387997420461e+00 1.161650440897759706e+00 1.167238073773016804e+00 1.207467475500383358e+00 1.238814920847145062e+00 1.238814920847145062e+00 1.287146387068180298e+00 1.342635780168025761e+00 1.345342296330207521e+00 1.380567186651681322e+00 1.424130767460913383e+00 1.500920538359392431e+00 1.533299481797048225e+00 1.456377338941169164e+00 1.474466120847718109e+00 1.524265483123871112e+00 1.021192512925955143e+00 1.021192512925955143e+00 6.604963911812202770e-01 3.459462081231125530e-01 2.844628142753481415e-01 2.115744809693697048e-01 1.297525663405052487e-01 -1.375085475641795729e-01 -9.817385820948578701e-01 -1.347453781113362892e+00 -1.595787183766837591e+00 -2.048033366958396329e+00 -2.295255925266305397e+00 -2.295255925266305397e+00 -2.451209650302129006e+00 -2.699321213452325008e+00 -2.699321213452325008e+00 -2.876480551023472998e+00 -3.131047769026211292e+00 -3.266110377817033061e+00 -3.423628308444787383e+00 -3.370344778325984336e+00 -3.380969390152906762e+00 -2.950293794801496894e+00 -2.675524497724563133e+00 -2.285154059106011992e+00 -2.093405356056881494e+00 -2.225234541481663886e+00 -2.572646719863651121e+00 -2.680299095915109842e+00 -3.093251319061302684e+00 -3.466510226246620974e+00 -3.466510226246620974e+00 -3.925060118093712802e+00 -4.376719283447669362e+00 -4.518001413062016525e+00 -4.836771477698727395e+00 -5.255713179505097088e+00 -5.353524592749055344e+00 -5.642282026928671534e+00 -5.822795288079575471e+00 -5.903636847940616050e+00 -6.165420229103981242e+00 -6.345295235246872778e+00 -6.345295235246872778e+00 -6.573763326967028142e+00 -6.704184253760335110e+00 -6.803232327213744490e+00 -6.898942857983178634e+00 -7.032310996756122812e+00 -7.021825263212955193e+00 -7.171854383041234016e+00 -7.290835219903598841e+00 -7.298711313758209585e+00 -7.397130933173714062e+00 -7.497275382319335435e+00 -7.478447227606498160e+00 -7.578282262358074561e+00 -7.651457072767014367e+00 -7.651457072767014367e+00 -7.768492965021463803e+00 -7.865114158881276296e+00 -7.873898053164184674e+00 -7.910212205864998403e+00 -7.997802489765241774e+00 -7.974627388970178643e+00 -8.041594902342879436e+00 -8.131737516510643360e+00 -8.108562415715580229e+00 -8.167901265908588115e+00 -8.234039749471884662e+00 -8.234039749471884662e+00 -8.345116055899527652e+00 -8.405156605641412426e+00 -8.414917733307568426e+00 -8.517157269548437881e+00 -8.594786728890477789e+00 -8.602918665193836745e+00 -8.676021790421241775e+00 -8.765236358840205355e+00 -8.747347367723639522e+00 -8.878250279139594525e+00 -8.937058358697374416e+00 -8.937058358697374416e+00 -9.011905360496742290e+00 -9.138534140477272416e+00 -9.167642809959222205e+00 -9.269004718491910211e+00 -9.389150792353262887e+00 -9.406618599666289882e+00 -9.530562221929034905e+00 -9.642471407991635601e+00 -9.648146844553242119e+00 -9.782793443927566557e+00 -9.875133276301156116e+00
9.652330537271289757e-01 1.037817226183990416e+00 1.082939877833483111e+00 1.099039093505636888e+00 1.132795714270278031e+00 1.166082651281294513e+00 1.161650440897759706e+00 1.190136775945334735e+00 1.215100749736845565e+00 1.228994140272679392e+00 1.277325606493714849e+00 1.325657072714750084e+00 1.325657072714750084e+00 1.382678749139924168e+00 1.438928355993536190e+00 1.489714806125729485e+00 1.500394398538546614e+00 1.438288557034619997e+00 1.370808060423187813e+00 1.370808060423187813e+00 1.303327563811755407e+00 9.570060838534373282e-01 8.116109806931590676e-01 5.879163267571765328e-01 2.424123125748621488e-01 2.558307388901502888e-01 4.941831750358077757e-02 -1.949633458074425119e-01 -3.520618046953938318e-01 -1.094117231479617924e+00 -1.717830275442204346e+00 -1.717830275442204346e+00 -2.180705024939505243e+00 -2.425008947253114222e+00 -2.441847507191902800e+00 -2.632207202550186587e+00 -2.870546485734234654e+00 -2.873433943795229872e+00 -3.046059566060468349e+00 -3.215638581097463700e+00 -3.298109118671557205e+00 -3.351240314849511570e+00 -3.235182040299574346e+00 -3.235182040299574346e+00 -3.018844305091992641e+00 -2.609793601532634622e+00 -2.285154059106011992e+00 -2.205345468986035673e+00 -2.466921620733145470e+00 -2.572646719863651121e+00 -2.831901671418706190e+00 -3.226546017853517689e+00 -3.349454917599889114e+00 -3.767666923325734718e+00 -4.068823620404848462e+00 -4.216198248210524469e+00 -4.682712361034025328e+00 -5.152340467736803653e+00 -5.152340467736803653e+00 -5.484112867432586746e+00 -5.756262034591340893e+00 -5.822795288079575471e+00 -5.997880851303633243e+00 -6.270223053721390549e+00 -6.321851554571614074e+00 -6.533268394410510993e+00 -6.671498705793843520e+00 -6.713281492896403080e+00 -6.893376488676436153e+00 -7.022692907338738522e+00 -7.022692907338738522e+00 -7.147357975664191621e+00 -7.282367511559311168e+00 -7.290835219903598841e+00 -7.408941934601225299e+00 -7.501750598696586003e+00 -7.497275382319335435e+00 -7.605537290884393009e+00 -7.755281606931941241e+00 -7.672763913230289390e+00 -7.798210812917286461e+00 -7.874536093166001116e+00 -7.874536093166001116e+00 -7.956235335522814367e+00 -8.007225985960019443e+00 -7.997802489765241774e+00 -8.087945103933005697e+00 -8.154912617305706490e+00 -8.131737516510643360e+00 -8.221880130678407284e+00 -8.256513757061973990e+00 -8.283792013455212100e+00 -8.330346985690653128e+00 -8.460307716037899439e+00 -8.433622350955822355e+00 -8.525194301602208924e+00 -8.615523392811681447e+00 -8.615523392811681447e+00 -8.706719569602999087e+00 -8.777500180619218995e+00 -8.765236358840205355e+00 -8.857247271291814883e+00 -8.979358365017676036e+00 -8.922288684893423749e+00 -9.013767772282553992e+00 -9.107046445008084135e+00 -9.138927056685261618e+00 -9.257110243852366693e+00 -9.361952714707671319e+00 -9.361952714707671319e+00 -9.479579396635280375e+00 -9.623009850953659239e+00 -9.642471407991635601e+00 -9.723328113431517039e+00 -9.843838993710845031e+00 -9.875133276301156116e+00
1.015728419345288014e+00 1.044645587159179989e+00 1.093596178903655902e+00 1.113629602834240062e+00 1.153316835461245304e+00 1.169023271968830491e+00 1.176832245407008815e+00 1.205375186535915910e+00 1.240621730100964992e+00 1.240621730100964992e+00 1.290009512979113593e+00 1.339397295857261749e+00 1.357314402531198505e+00 1.403545216987639233e+00 1.434110899654860383e+00 1.489714806125729485e+00 1.477125340822706523e+00 1.464946554062502182e+00 1.387711235213770600e+00 1.298297129604835121e+00 1.026914715767758945e+00 1.026914715767758945e+00 6.645876358107857262e-01 3.022605558538120629e-01 3.022605558538120629e-01 8.287908011761083160e-02 -1.834841844704945824e-01 -1.949633458074425119e-01 -7.750963258803829081e-01 -1.388149269367450200e+00 -1.574216525931932509e+00 -2.184536540167600460e+00 -2.607346934644096059e+00 -2.508415173161926415e+00 -2.679973776494572135e+00 -2.867659027673239436e+00 -2.867659027673239436e+00 -3.038349802385337028e+00 -3.210931220752148985e+00 -3.215638581097463700e+00 -3.376781693417294061e+00 -3.323541633878623003e+00 -3.233340617041295051e+00 -3.136976275838224026e+00 -3.127580710912748252e+00 -2.857606301255375847e+00 -2.432941196841887699e+00 -2.353062014904119703e+00 -2.353062014904119703e+00 -2.723165411877875641e+00 -3.087700549408110451e+00 -3.226546017853517689e+00 -3.495394360237957354e+00 -3.910655717703815260e+00 -4.068823620404848462e+00 -4.523279607106336364e+00 -4.818007829961957533e+00 -4.973779491986324075e+00 -5.384928682806616962e+00 -5.674093134866672550e+00 -5.674093134866672550e+00 -5.946757347981919573e+00 -6.196967797593936567e+00 -6.196967797593936567e+00 -6.454513478696773277e+00 -6.629715918691283960e+00 -6.671498705793843520e+00 -6.806828061497609994e+00 -6.971950539011442238e+00 -7.010989362283086557e+00 -7.144358417175629583e+00 -7.257500361893829854e+00 -7.262423770328587658e+00 -7.384559393444440900e+00 -7.506648517650684305e+00 -7.506648517650684305e+00 -7.621165033259963195e+00 -7.723848943320816396e+00 -7.755281606931941241e+00 -7.866400033037308503e+00 -7.893379961735451644e+00 -7.883958027450726824e+00 -7.965657269807539187e+00 -8.056778446449076370e+00 -8.016214290816929378e+00 -8.111120204728068828e+00 -8.178087718100769621e+00 -8.178087718100769621e+00 -8.245055231473470414e+00 -8.312022744846171207e+00 -8.256513757061973990e+00 -8.398874384880926414e+00 -8.449192967108059449e+00 -8.460307716037899439e+00 -8.523489835102235901e+00 -8.635302636153653566e+00 -8.622751302193485401e+00 -8.703045036420487435e+00 -8.810520474012163206e+00 -8.778268574207473307e+00 -8.878186162887864441e+00 -8.957009318559711275e+00 -8.957009318559711275e+00 -9.031230515846660367e+00 -9.116021092793815228e+00 -9.107046445008084135e+00 -9.237029560285698437e+00 -9.348917823527752802e+00 -9.369913743991874711e+00 -9.465176251480404090e+00 -9.571524380861717418e+00 -9.602082581420557261e+00 -9.711210214222479209e+00 -9.818587415439623101e+00 -9.818587415439623101e+00 -9.932634898743954111e+00
1.038676913128649293e+00 1.073562754973071742e+00 1.073562754973071742e+00 1.125367691477467513e+00 1.155295463601418104e+00 1.169023271968830491e+00 1.187237836611072517e+00 1.216324091003757824e+00 1.215743345624954452e+00 1.270829855462970670e+00 1.301851715760762085e+00 1.320217638341119049e+00 1.382795777056443853e+00 1.415186502457640216e+00 1.415186502457640216e+00 1.449046194731415937e+00 1.490002982553117805e+00 1.464946554062502182e+00 1.452767767302298063e+00 1.249528200397145739e+00 1.125749639941193481e+00 7.824783519746987270e-01 5.439098368212917922e-01 4.151037862816181478e-01 6.913662051580561629e-02 -5.038489525908992905e-02 -5.038489525908992905e-02 -5.172872857462614826e-01 -1.215924580414985634e+00 -1.388149269367450200e+00 -1.832585442285509902e+00 -2.456294881151798837e+00 -2.607346934644096059e+00 -2.753920152898130524e+00 -2.895113263472505860e+00 -2.892579250525819656e+00 -3.035462344324341366e+00 -3.203265660975444629e+00 -3.206223860406834270e+00 -3.375022731195234993e+00 -3.372342842017162390e+00 -3.372342842017162390e+00 -3.284378513818563938e+00 -3.183662643086233146e+00 -3.127580710912748252e+00 -2.971794698614392161e+00 -2.570071514264014034e+00 -2.332775928855124636e+00 -2.562852607323979903e+00 -2.630351715925994593e+00 -2.890151298114206124e+00 -3.289825680845353428e+00 -3.723189944200828272e+00 -3.723189944200828272e+00 -4.182475116498451051e+00 -4.668821513978926419e+00 -4.818007829961957533e+00 -5.122111943069471707e+00 -5.516300802597345232e+00 -5.591924235142005983e+00 -5.870122974142523375e+00 -6.049807419163917288e+00 -6.119186655815829212e+00 -6.367883366642766774e+00 -6.589962841381099778e+00 -6.589962841381099778e+00 -6.762614525401493992e+00 -6.919326384308787325e+00 -6.971950539011442238e+00 -7.149174367263631424e+00 -7.228509571646922538e+00 -7.257500361893829854e+00 -7.380675410311227758e+00 -7.498568379870554246e+00 -7.517351119677155857e+00 -7.627949884150691418e+00 -7.727981960364425973e+00 -7.728530422455458293e+00 -7.831214332516308829e+00 -7.902801896020177352e+00 -7.902801896020177352e+00 -7.984501138376990603e+00 -8.066200380733802078e+00 -8.056778446449076370e+00 -8.122216375768857688e+00 -8.210241851006969682e+00 -8.291405433063596675e+00 -8.268230332268533544e+00 -8.358372946436297468e+00 -8.459552821684004797e+00 -8.375274609846513840e+00 -8.488782346297963244e+00 -8.566449682215427686e+00 -8.575499376176265898e+00 -8.637368867168641273e+00 -8.728345334838531144e+00 -8.728345334838531144e+00 -8.811303343950497080e+00 -8.883211465385711492e+00 -8.878978570817196214e+00 -8.981726057288085485e+00 -9.063287916795013999e+00 -9.080466450895757546e+00 -9.143720476460467594e+00 -9.218274413305074688e+00 -9.205653997345809358e+00 -9.332874407312043985e+00 -9.456609010562569750e+00 -9.456609010562569750e+00 -9.542749864771954194e+00 -9.673762960910421427e+00 -9.673762960910421427e+00 -9.781437095507296675e+00 -9.875291528623943549e+00 -9.904884543494123506e+00 -9.990136521186753882e+00
1.048908286025442393e+00 1.093974833667341162e+00 1.111149618750466139e+00 1.152911666416246872e+00 1.152911666416246872e+00 1.177156846058962980e+00 1.205484116754850010e+00 1.216324091003757824e+00 1.225421226257328744e+00 1.297228762709839556e+00 1.301851715760762085e+00 1.349151266623494161e+00 1.382647236884248620e+00 1.393145376904233013e+00 1.429840058273937231e+00 1.448843628970568176e+00 1.475311511395482889e+00 1.513150874378511812e+00 1.368938181935558385e+00 1.368938181935558385e+00 9.964050369266272966e-01 6.783528391124115098e-01 5.439098368212917922e-01 3.135268098526944325e-01 2.820015331507023659e-01 1.292674746469978098e-01 -1.670833216386672093e-01 -8.048622740985516000e-01 -1.042524121506830603e+00 -1.704531300004146210e+00 -2.274616523890029551e+00 -2.274616523890029551e+00 -2.641988511801403483e+00 -2.897647276419191620e+00 -2.895113263472505860e+00 -3.208213011095708556e+00 -3.451608029608113970e+00 -3.203265660975444629e+00 -3.373263768973175480e+00 -3.362190491650235202e+00 -3.386805662771884329e+00 -3.297095383989419481e+00 -3.245215393758503986e+00 -3.245215393758503986e+00 -3.119948073843655578e+00 -2.805113615274691163e+00 -2.570071514264014034e+00 -2.520746699050640860e+00 -2.370552133737783063e+00 -2.630351715925994593e+00 -2.848480208584700968e+00 -3.368466889868337866e+00 -3.545086300190907203e+00 -3.973612066112159447e+00 -4.303565747147461096e+00 -4.826383649449457636e+00 -4.978020758232983844e+00 -5.396075699617133736e+00 -5.598922077970851952e+00 -5.705371372750266623e+00 -5.983983913693704082e+00 -6.240492460328024293e+00 -6.240492460328024293e+00 -6.468376841391155097e+00 -6.683828881309969105e+00 -6.718400989305377990e+00 -6.836986333172004215e+00 -7.044709132159712617e+00 -7.077833414669927770e+00 -7.194043783097773925e+00 -7.337993450276298901e+00 -7.347126514667364106e+00 -7.474911201484105483e+00 -7.626955039510663781e+00 -7.626955039510663781e+00 -7.765794864721597968e+00 -7.865387838265590403e+00 -7.823777749440019136e+00 -7.944761186493835226e+00 -8.003345006946441131e+00 -7.993923072661715423e+00 -8.075622315018527786e+00 -8.166743491660065857e+00 -8.157321557375340149e+00 -8.219230155863879617e+00 -8.316243935958901545e+00 -8.314580533858659805e+00 -8.381548047231360599e+00 -8.448515560604061392e+00 -8.448515560604061392e+00 -8.494601451676132342e+00 -8.605294880280627723e+00 -8.566449682215427686e+00 -8.690691036314635909e+00 -8.742226658286320173e+00 -8.738761937191602769e+00 -8.822519336471705387e+00 -8.919561651480506725e+00 -8.919415616823664905e+00 -8.984951720990697055e+00 -9.077047078428165605e+00 -9.077047078428165605e+00 -9.181574536773839057e+00 -9.247051535342015072e+00 -9.218274413305074688e+00 -9.304261549683534582e+00 -9.430044540729429769e+00 -9.443060710488426324e+00 -9.551643992169871922e+00 -9.623679335964475001e+00 -9.661970142118772031e+00 -9.776342297318363350e+00 -9.858664356664927908e+00 -9.858664356664927908e+00 -9.965930093277400204e+00 -1.006629549144282798e+01
1.048908286025442393e+00 1.072295533763596431e+00 1.114093351395632148e+00 1.131980918028557159e+00 1.162410429971681314e+00 1.184986972465041255e+00 1.195235544609945411e+00 1.224023562516316943e+00 1.265902355561075776e+00 1.265902355561075776e+00 1.316488424249821820e+00 1.373264872440464579e+00 1.382647236884248620e+00 1.412389498959406575e+00 1.442805885884995032e+00 1.448843628970568176e+00 1.487219165292746226e+00 1.420239795069392574e+00 1.418046612313335286e+00 1.145854971247628917e+00 7.914027034886018663e-01 7.914027034886018663e-01 4.336503999102226392e-01 1.182970890810955689e-01 1.643689234785324915e-01 2.852256180153511234e-01 -4.268347238653810161e-01 -1.253890004700511263e+00 -1.253890004700511263e+00 -1.858013896693115452e+00 -2.362050247195999653e+00 -2.555627941020627958e+00 -2.803144213175734922e+00 -2.969901222941894403e+00 -3.005341471894390715e+00 -3.316022287058964402e+00 -3.251646553155726593e+00 -3.312587788766564234e+00 -3.331883906594435896e+00 -3.335562670208705782e+00 -3.335562670208705782e+00 -3.214120769722774273e+00 -3.099700073592946303e+00 -3.137006191954487377e+00 -2.987837855663757924e+00 -2.854271582290093701e+00 -2.723690473194337436e+00 -2.470322722040873664e+00 -2.689992171834922452e+00 -2.672314023457107002e+00 -3.128354769535519164e+00 -3.613336107077831372e+00 -3.613336107077831372e+00 -4.112365401778792950e+00 -4.665250083649565838e+00 -4.826383649449457636e+00 -5.124091075590299305e+00 -5.485965939206241870e+00 -5.598922077970851952e+00 -5.895689602429773579e+00 -6.091690570973799623e+00 -6.152857490345914115e+00 -6.410373353847818478e+00 -6.538282943704074590e+00 -6.639845061872975407e+00 -6.794247752540739427e+00 -6.991865456693348690e+00 -6.991865456693348690e+00 -7.170841957244659781e+00 -7.340618132028235543e+00 -7.337993450276298901e+00 -7.473404236420522651e+00 -7.583447885597050409e+00 -7.610394647277317404e+00 -7.754997106856065692e+00 -7.937959284391828518e+00 -7.849788731927329621e+00 -7.932256789757056836e+00 -8.034334392223762222e+00 -8.034334392223762222e+00 -8.094466183587979202e+00 -8.176165425944791565e+00 -8.166743491660065857e+00 -8.257864668301603928e+00 -8.325232240815809703e+00 -8.316243935958901545e+00 -8.404723148026423729e+00 -8.494865762194187653e+00 -8.471690661399124522e+00 -8.566070361026532964e+00 -8.621233375452325376e+00 -8.621233375452325376e+00 -8.677424398691851337e+00 -8.767204760003741271e+00 -8.742226658286320173e+00 -8.852543301612177729e+00 -8.927264028475198288e+00 -8.919561651480506725e+00 -9.029206637050688045e+00 -9.109152146460832711e+00 -9.084751086385072227e+00 -9.169566515030318499e+00 -9.282682622651920568e+00 -9.237942707481822779e+00 -9.320527733816334148e+00 -9.432674472095744278e+00 -9.432674472095744278e+00 -9.537203597449098069e+00 -9.644016437369868910e+00 -9.623679335964475001e+00 -9.736925255403420465e+00 -9.853008520500715406e+00 -9.851663976792115918e+00 -9.942157118890989409e+00 -1.003213683006522317e+01 -1.004785453784385574e+01
1.055951472335837638e+00 1.096205784762707358e+00 1.114235279059556660e+00 1.134458335000870566e+00 1.173373982886394939e+00 1.203214822733798872e+00 1.203214822733798872e+00 1.233562473406209170e+00 1.272360630849000085e+00 1.294034931981254521e+00 1.328610215833863517e+00 1.381955628584011997e+00 1.410352786254155832e+00 1.432776005009482878e+00 1.404629370273363875e+00 1.448543708664154162e+00 1.422432977825449640e+00 1.233309643650088550e+00 1.233309643650088550e+00 1.037259312999685434e+00 7.152266094420242082e-01 5.665847939236713371e-01 4.505248505857157304e-01 2.751450388188667051e-01 1.643689234785324915e-01 -9.520904303586663620e-02 -5.734758566450101069e-01 -8.981426235737474117e-01 -1.602044230723047802e+00 -2.106080581225931780e+00 -2.106080581225931780e+00 -2.610116931728815537e+00 -2.934460973989397647e+00 -2.969901222941894403e+00 -3.056054181079142396e+00 -3.181005639561577336e+00 -3.251646553155726593e+00 -3.239996139980409584e+00 -3.228008240165980425e+00 -3.273952123472993136e+00 -3.238397910006219238e+00 -3.134529851607334994e+00 -3.126896138605608222e+00 -3.012475442475780252e+00 -2.933061268576454328e+00 -2.933061268576454328e+00 -2.844108166910308988e+00 -2.709304169056490963e+00 -2.689992171834922452e+00 -2.965877591338518471e+00 -3.222451013620546423e+00 -3.432062399566052857e+00 -3.937275311116009480e+00 -4.265533421738526343e+00 -4.467954797758665997e+00 -4.999493945030965669e+00 -5.360924942357570444e+00 -5.360924942357570444e+00 -5.706801412571620880e+00 -6.017899295281554650e+00 -6.091690570973799623e+00 -6.225387355663270839e+00 -6.492238443162211325e+00 -6.538282943704074590e+00 -6.799296535794611351e+00 -6.902197372476671866e+00 -6.947578009570500868e+00 -7.135101059485240427e+00 -7.301534659646737424e+00 -7.301534659646737424e+00 -7.437528273534931955e+00 -7.574852554448196607e+00 -7.574852554448196607e+00 -7.686192501177075087e+00 -7.885481886562757836e+00 -7.937959284391828518e+00 -7.949821855061678377e+00 -8.035994459361287312e+00 -8.057226452638293068e+00 -8.121827131932313648e+00 -8.209699287552325586e+00 -8.185587360229517273e+00 -8.267286602586327859e+00 -8.334220545672719638e+00 -8.334220545672719638e+00 -8.422246020910831632e+00 -8.510271496148941850e+00 -8.494865762194187653e+00 -8.585008376361951576e+00 -8.670963391629648243e+00 -8.615502632136671224e+00 -8.716206423692346661e+00 -8.788399115168267883e+00 -8.805882696453002367e+00 -8.857346828505356484e+00 -8.939533400128624407e+00 -8.939533400128624407e+00 -9.027819959010516371e+00 -9.092466910239997091e+00 -9.109152146460832711e+00 -9.186560631202048910e+00 -9.276712601267249170e+00 -9.282682622651920568e+00 -9.350428663019396680e+00 -9.423568566270649427e+00 -9.402869102021261583e+00 -9.527214674146815554e+00 -9.637386611595241348e+00 -9.637386611595241348e+00 -9.717998726992968628e+00 -9.841299942394625688e+00 -9.841299942394625688e+00 -9.922048446048474801e+00 -1.000365494136359246e+01 -1.003213683006522317e+01 -1.010561581417595356e+01
1.065417481905408970e+00 1.095896743364025205e+00 1.114235279059556660e+00 1.154423241915036646e+00 1.175813034661329803e+00 1.183782739614314794e+00 1.217149144216187473e+00 1.250515548818060374e+00 1.250515548818060374e+00 1.297117674307597834e+00 1.351217320680352607e+00 1.351217320680352607e+00 1.387327172983612522e+00 1.411868901576976754e+00 1.404629370273363875e+00 1.420225571758965355e+00 1.369504963079024140e+00 1.270098417003091118e+00 1.075315086930477504e+00 9.521806950597037078e-01 8.299579137041247501e-01 5.521661348997314311e-01 3.544655147966605524e-01 3.544655147966605524e-01 1.710998372267164835e-01 -3.045356532201897171e-01 -5.734758566450101069e-01 -1.034049543235468605e+00 -1.820142733788724154e+00 -1.902494080920170472e+00 -2.408240256146561897e+00 -2.797948685307307226e+00 -2.912691323162724721e+00 -3.036314764416462975e+00 -3.142703759823225251e+00 -3.142703759823225251e+00 -3.230342450242688290e+00 -3.168662729938270139e+00 -3.228008240165980425e+00 -3.137360588474841450e+00 -3.109753788100564353e+00 -3.134529851607334994e+00 -3.020125224722344015e+00 -2.911598535906152474e+00 -2.938559946183215921e+00 -2.880216978778517678e+00 -2.820328103454967206e+00 -2.820328103454967206e+00 -2.895480451694993462e+00 -3.157478585899091250e+00 -3.157478585899091250e+00 -3.489751714641406988e+00 -4.050144935837823645e+00 -4.265533421738526343e+00 -4.587201078589756342e+00 -5.121595677836491056e+00 -5.235883945508900794e+00 -5.594166708543021116e+00 -5.819120946544870776e+00 -5.917507288913942176e+00 -6.166847726373323013e+00 -6.392448752791612065e+00 -6.392448752791612065e+00 -6.646534481537433869e+00 -6.880174619365355682e+00 -6.902197372476671866e+00 -7.038156045531065885e+00 -7.210531027185096420e+00 -7.217004488636161952e+00 -7.408631768524330141e+00 -7.575063898894404346e+00 -7.553613595718730700e+00 -7.667961930032618056e+00 -7.834542361147853740e+00 -7.834542361147853740e+00 -7.972398054783063515e+00 -8.018860224077505094e+00 -8.035994459361287312e+00 -8.097574693846997462e+00 -8.200684701566760992e+00 -8.209699287552325586e+00 -8.276708536871055344e+00 -8.367829713512591638e+00 -8.358407779227867707e+00 -8.431234325767741566e+00 -8.528248105862759942e+00 -8.519259801005850008e+00 -8.608183477157016483e+00 -8.675150990529715500e+00 -8.675150990529715500e+00 -8.734847163147447802e+00 -8.826158069881644863e+00 -8.788399115168267883e+00 -8.921074356591370602e+00 -8.946935980150126255e+00 -8.977694034967763415e+00 -9.034744825017448022e+00 -9.132905085368328457e+00 -9.201877740122791138e+00 -9.219511428971879141e+00 -9.294118295954163500e+00 -9.383878998105210201e+00 -9.383790708530002078e+00 -9.453968254290160189e+00 -9.501476654358986806e+00 -9.501476654358986806e+00 -9.624384807564201338e+00 -9.727775412111578035e+00 -9.736302950682759416e+00 -9.812318118021462254e+00 -9.922613679832863909e+00 -9.931388159724203746e+00 -9.996645814951165221e+00 -1.006670014601459862e+01 -1.010323538679847921e+01 -1.016019317073573447e+01
1.093031366171615559e+00 1.093031366171615559e+00 1.120228022646777122e+00 1.175646519357236519e+00 1.175813034661329803e+00 1.198347023036326675e+00 1.217730188486679799e+00 1.234122868652370197e+00 1.279171544897056867e+00 1.306240498732015309e+00 1.320856892868568000e+00 1.371892995363173329e+00 1.425899682486736708e+00 1.425899682486736708e+00 1.435695869731626662e+00 1.420690411472901094e+00 1.369504963079024140e+00 1.256764565381090382e+00 1.041572946301368763e+00 9.521806950597037078e-01 6.110669593115762854e-01 5.815809666816114110e-01 4.873208348134632772e-01 3.377651103372473207e-01 2.060490997515520561e-01 -2.533760999987085677e-02 -8.054954359431319988e-01 -1.489752662418431628e+00 -1.489752662418431628e+00 -2.227561582149274244e+00 -2.697409894716939149e+00 -2.797948685307307226e+00 -2.984505300824179752e+00 -3.114118781695732530e+00 -3.127280504773218173e+00 -3.258538710292819385e+00 -3.230855794697488292e+00 -3.213254810443103793e+00 -3.091685592788067538e+00 -3.050278934239973427e+00 -3.050278934239973427e+00 -2.996369658411949466e+00 -2.897292032314743526e+00 -2.911598535906152474e+00 -2.905831544339306127e+00 -2.953679599809261536e+00 -2.886760898267440201e+00 -2.842103124726500063e+00 -2.768630381833768972e+00 -3.065645992189799607e+00 -3.301229545994938785e+00 -3.810828065198779591e+00 -3.810828065198779591e+00 -4.352387358090497038e+00 -4.915621069730795156e+00 -5.121595677836491056e+00 -5.389215141332662107e+00 -5.720734604175800264e+00 -5.819120946544870776e+00 -6.021143921814999800e+00 -6.275374907751691822e+00 -6.328980475257891314e+00 -6.600489980995570605e+00 -6.754786019370793149e+00 -6.809825312962466626e+00 -6.994228922520480118e+00 -7.166603904174510653e+00 -7.295051762817955421e+00 -7.317471315233289531e+00 -7.510595209230837455e+00 -7.631500787743702219e+00 -7.631500787743702219e+00 -7.739112728869471880e+00 -7.903105878326261546e+00 -7.924979735174211726e+00 -8.006912732366112451e+00 -8.108449228346909621e+00 -8.116994168904415830e+00 -8.202382810238635358e+00 -8.292459366749145744e+00 -8.290957154680484109e+00 -8.378865441259259583e+00 -8.458950890154129709e+00 -8.458950890154129709e+00 -8.537236410719671653e+00 -8.625261885957781871e+00 -8.616273581100870160e+00 -8.713287361195892089e+00 -8.788468705492542554e+00 -8.775856422232763521e+00 -8.860362729461881415e+00 -8.936109716070944842e+00 -8.899373831644693311e+00 -8.990101176494285085e+00 -9.090282267209605749e+00 -9.090282267209605749e+00 -9.144002162436091652e+00 -9.248788677504741429e+00 -9.248788677504741429e+00 -9.318837897534287151e+00 -9.390163573607026137e+00 -9.383878998105210201e+00 -9.485131620479080539e+00 -9.557507845560927251e+00 -9.526674732376440247e+00 -9.628319383905790119e+00 -9.721554940981588899e+00 -9.726945803708900939e+00 -9.828589463995649922e+00 -9.892902751941006656e+00 -9.892902751941006656e+00 -1.001008112520666771e+01 -1.006687269623598446e+01 -1.006670014601459862e+01 -1.017433394353173348e+01 -1.022318522924297568e+01
1.097980985928644682e+00 1.121574563782232303e+00 1.152564318612061767e+00 1.150940798306002710e+00 1.184996667966094375e+00 1.195126946388432865e+00 1.195126946388432865e+00 1.239145325428358868e+00 1.292989322157067633e+00 1.306240498732015309e+00 1.339545338065843749e+00 1.363723269723743581e+00 1.397444835445231126e+00 1.437499766265113665e+00 1.453202394927821883e+00 1.441953301084212935e+00 1.328968277093307782e+00 1.137953774515741978e+00 1.137953774515741978e+00 8.714117170540358615e-01 5.414095108908743015e-01 5.815809666816114110e-01 6.469312220735361496e-01 3.278548111431867085e-01 2.060490997515520561e-01 -5.512912977148661797e-01 -1.058954339231133135e+00 -1.303928419608739731e+00 -2.124553420080269373e+00 -2.660342796624351358e+00 -2.660342796624351358e+00 -2.919174220124841401e+00 -3.127806688658164358e+00 -3.114118781695732530e+00 -3.229036098698242707e+00 -3.292806797309630884e+00 -3.223085886571253056e+00 -3.223085886571253056e+00 -3.080903980281081367e+00 -2.924196574230849777e+00 -2.946798307188657873e+00 -2.879386007028381655e+00 -2.828755052717931928e+00 -2.852923145765847046e+00 -2.929805865693127398e+00 -2.968283447053839730e+00 -2.989015965057803648e+00 -2.869264189616676841e+00 -2.713059518574348683e+00 -2.713059518574348683e+00 -3.278639785867705214e+00 -3.901546898747432213e+00 -4.118527120196401548e+00 -4.475936596782242205e+00 -5.057772631964286170e+00 -5.221327025520702492e+00 -5.618964560924663232e+00 -5.849721891273093277e+00 -5.938230974002255635e+00 -6.226384767495094508e+00 -6.458997687668961873e+00 -6.458997687668961873e+00 -6.709510493797528952e+00 -6.894968834744763519e+00 -6.938850813131441697e+00 -7.113056923588646718e+00 -7.278293163866203841e+00 -7.295051762817955421e+00 -7.442314316871105895e+00 -7.582202310675343782e+00 -7.592043833901076511e+00 -7.720882157725013961e+00 -7.823601574607465636e+00 -7.869285265473815016e+00 -7.997435936430245640e+00 -8.073028684424704338e+00 -8.073028684424704338e+00 -8.204132056550351493e+00 -8.308045651960870970e+00 -8.292459366749145744e+00 -8.397287368692161635e+00 -8.495222062444362621e+00 -8.468372824438857194e+00 -8.546224715576581588e+00 -8.643238495671599964e+00 -8.634250190814690029e+00 -8.722275666052802023e+00 -8.811643806287607461e+00 -8.811643806287607461e+00 -8.880749452835880575e+00 -8.979957855596259364e+00 -8.936109716070944842e+00 -9.010348548121108081e+00 -9.101549384739554327e+00 -9.057645641896984401e+00 -9.155010809670377725e+00 -9.253259499854735282e+00 -9.236559362217178659e+00 -9.319680423223449139e+00 -9.410748136277888420e+00 -9.410748136277888420e+00 -9.491045394943173008e+00 -9.545876989868979479e+00 -9.557507845560927251e+00 -9.629780898482234619e+00 -9.726141839810814815e+00 -9.721554940981588899e+00 -9.821900652743773108e+00 -9.932411801101576287e+00 -9.906637509049959434e+00 -9.994084793607520112e+00 -1.008877409068913167e+01 -1.007490193022860403e+01 -1.014252542695492387e+01 -1.022113836684014565e+01 -1.022113836684014565e+01
1.090025215504215605e+00 1.139435631565666185e+00 1.152564318612061767e+00 1.173143200240396311e+00 1.190129739820374288e+00 1.217606913638156207e+00 1.230639512478672426e+00 1.275707033897114817e+00 1.288520839637084636e+00 1.329132766427067347e+00 1.365767664475372456e+00 1.360752787871582159e+00 1.400085611973117761e+00 1.448145233822431210e+00 1.419547378155535888e+00 1.419547378155535888e+00 1.283723420001372517e+00 1.066837946073082355e+00 9.860674999818533903e-01 8.029963653151541703e-01 4.585891624366221220e-01 4.585639975988074490e-01 4.945459477903792478e-01 3.187698874654695258e-01 1.767295992445108710e-01 -7.925255321681117238e-01 -1.555526242081313848e+00 -1.555526242081313848e+00 -2.263180418786499892e+00 -2.694711935778198786e+00 -2.816541455287618678e+00 -2.927138393125699345e+00 -3.187858994532318579e+00 -3.211766560363486178e+00 -3.307928259048685149e+00 -3.355117036776154027e+00 -3.307244166772249194e+00 -3.207458598985609477e+00 -3.030962754051636843e+00 -3.030962754051636843e+00 -2.862470803307195055e+00 -2.835044425855587136e+00 -2.828755052717931928e+00 -2.810431291202851511e+00 -2.928625012108422521e+00 -2.968283447053839730e+00 -3.040779001209675148e+00 -2.942072809251541798e+00 -2.778260144748317284e+00 -2.949309314696901829e+00 -3.378052656513916396e+00 -3.671683042857734058e+00 -4.260976404705488108e+00 -4.864155590093677262e+00 -4.864155590093677262e+00 -5.324957500107182717e+00 -5.736098363179029214e+00 -5.849721891273093277e+00 -6.041205442739650877e+00 -6.312729451906434974e+00 -6.365867626815079561e+00 -6.614746933692694952e+00 -6.772436562462084808e+00 -6.836489160544950039e+00 -7.050326925374189813e+00 -7.194897271176268205e+00 -7.194897271176268205e+00 -7.373445535551180541e+00 -7.517157866699701430e+00 -7.582202310675343782e+00 -7.686014097965448322e+00 -7.823570167652135865e+00 -7.823601574607465636e+00 -7.947781329300332764e+00 -8.042269035095678475e+00 -8.070426012911031677e+00 -8.200862160030949255e+00 -8.316434973652045315e+00 -8.316434973652045315e+00 -8.407336622392463710e+00 -8.489264019496197022e+00 -8.495222062444362621e+00 -8.583094218064372782e+00 -8.652226800528509898e+00 -8.643238495671599964e+00 -8.740252275766621892e+00 -8.828154908116038868e+00 -8.819289446147822176e+00 -8.904790776654083473e+00 -8.996635337652918452e+00 -8.965250012149168057e+00 -9.046061362260241268e+00 -9.151308050102423763e+00 -9.151308050102423763e+00 -9.168355303643842547e+00 -9.263481810208251233e+00 -9.253259499854735282e+00 -9.340213639066034190e+00 -9.439426442381474658e+00 -9.429940715779473237e+00 -9.486208851259890551e+00 -9.598148425821532825e+00 -9.586786190737480950e+00 -9.661047436831690760e+00 -9.698691759034437254e+00 -9.698691759034437254e+00 -9.842024050677942171e+00 -9.908553013144249633e+00 -9.932411801101576287e+00 -1.000161953934821391e+01 -1.007509118188917441e+01 -1.008877409068913167e+01 -1.013709957752080371e+01 -1.021185453439503732e+01 -1.024543250026498775e+01 -1.028617728775021689e+01
1.125103458038858362e+00 1.149295901095133132e+00 1.176734127965970655e+00 1.195553645656378894e+00 1.201081277115602752e+00 1.201081277115602752e+00 1.245587845271638683e+00 1.296123539824219906e+00 1.288520839637084636e+00 1.334351240005138495e+00 1.377774947381654957e+00 1.360752787871582159e+00 1.406153812094917521e+00 1.450841175616670142e+00 1.460863908609806527e+00 1.329055096841933903e+00 1.150596173652039367e+00 1.150596173652039367e+00 9.274009159007161607e-01 6.182032083884666518e-01 4.585891624366221220e-01 3.130989691884870640e-01 4.501204166515687111e-01 3.187698874654695258e-01 8.353103473413383759e-03 -9.708541808323138955e-01 -1.262786172717646593e+00 -1.985916019490734596e+00 -2.408894320509991527e+00 -2.512130680762120427e+00 -2.850626353544163827e+00 -3.096074100792435502e+00 -3.096074100792435502e+00 -3.295652422524982583e+00 -3.405714529927611700e+00 -3.355117036776154027e+00 -3.410378485417858485e+00 -3.212831380850080798e+00 -3.107537606628199001e+00 -2.936467968740773316e+00 -2.892031376609391913e+00 -2.844795220260051494e+00 -2.811987189037707502e+00 -2.893583177372172077e+00 -2.893583177372172077e+00 -3.036772317416934541e+00 -3.006537638371463039e+00 -2.942072809251541798e+00 -2.797163508251171216e+00 -3.055153285434902166e+00 -3.378052656513916396e+00 -4.015101496343540965e+00 -4.387258909746144298e+00 -4.613985263241496604e+00 -5.155314911285563184e+00 -5.618679344564879052e+00 -5.618679344564879052e+00 -5.929568148091687974e+00 -6.221360421199952029e+00 -6.221360421199952029e+00 -6.496151176821424400e+00 -6.684088883703585893e+00 -6.772436562462084808e+00 -6.884668545901826420e+00 -7.087034892194735924e+00 -7.140458814133864962e+00 -7.361521889508409799e+00 -7.429067768666625327e+00 -7.474450459160372873e+00 -7.644871783630982520e+00 -7.807836063011121652e+00 -7.807836063011121652e+00 -7.897515893164948508e+00 -8.002370097832773865e+00 -8.042269035095678475e+00 -8.105131080444243352e+00 -8.251068335591012826e+00 -8.257766483332996899e+00 -8.378086602765593582e+00 -8.455951411923900096e+00 -8.465539619793933213e+00 -8.531529745908549955e+00 -8.655217760169422903e+00 -8.655217760169422903e+00 -8.720362191755421932e+00 -8.807370846136063136e+00 -8.828154908116038868e+00 -8.894379500516704340e+00 -8.977398225995671055e+00 -8.996635337652918452e+00 -9.061542329898811587e+00 -9.095229811559494948e+00 -9.115825188470566331e+00 -9.170087868443285828e+00 -9.238966373318621805e+00 -9.265639028602425498e+00 -9.335326529847375099e+00 -9.440329260621100005e+00 -9.440329260621100005e+00 -9.514948621591900135e+00 -9.572165167748007519e+00 -9.598148425821532825e+00 -9.664553560768997187e+00 -9.743959543303851945e+00 -9.732887064588023662e+00 -9.823964295715835959e+00 -9.928948977419238986e+00 -9.916333763170715798e+00 -1.003395295351833205e+01 -1.009824393506529994e+01 -1.012246020013477832e+01 -1.013281228025459946e+01 -1.019432658644836032e+01 -1.024773082104575828e+01 -1.024773082104575828e+01 -1.031779272518319068e+01
1.115293113483903031e+00 1.149295901095133132e+00 1.151798684661583749e+00 1.181417185402708014e+00 1.190152692605245477e+00 1.226064703974396597e+00 1.249122688901862066e+00 1.270413307429246963e+00 1.288051021086713321e+00 1.360346260203677549e+00 1.360346260203677549e+00 1.389844943783897335e+00 1.433285613405364423e+00 1.450841175616670142e+00 1.356823323379102941e+00 1.274826408338028738e+00 1.206978740196951172e+00 1.018873262465905816e+00 8.300054218994370459e-01 7.342696705117076617e-01 3.813008949857989438e-01 3.769546655598045581e-01 3.769546655598045581e-01 2.423957653634823128e-01 -6.162825283659389974e-01 -9.708541808323138955e-01 -1.375887092570224013e+00 -2.085441623304544301e+00 -2.408894320509991527e+00 -2.706753940326351415e+00 -2.823705556206596690e+00 -2.935552690000931886e+00 -3.160256822326334092e+00 -3.248261942214000886e+00 -3.334829492378847071e+00 -3.401313875826824873e+00 -3.317891847043380693e+00 -3.317891847043380693e+00 -3.142015061406191023e+00 -2.970996299096587023e+00 -2.892031376609391913e+00 -2.854084460632141607e+00 -2.897265066242010967e+00 -2.862344182721207275e+00 -3.028306754518086397e+00 -3.131941481388549775e+00 -3.107930243254055203e+00 -2.957578852471437258e+00 -2.833480921385219453e+00 -2.833480921385219453e+00 -3.448378647949126297e+00 -4.167569569648544636e+00 -4.387258909746144298e+00 -4.780470053550178733e+00 -5.280312632679082796e+00 -5.446108287110769552e+00 -5.816837528211545205e+00 -6.002442508025390921e+00 -6.131775906716919522e+00 -6.377049000360155873e+00 -6.603789744769706260e+00 -6.603789744769706260e+00 -6.835270810691436161e+00 -7.002736360817185535e+00 -7.087034892194735924e+00 -7.221524979316964021e+00 -7.406050932800724240e+00 -7.429067768666625327e+00 -7.578027371329804751e+00 -7.677139437506101061e+00 -7.756542390820952981e+00 -7.903733569601360642e+00 -7.947582081562914347e+00 -7.974976089697845438e+00 -8.077737072309313149e+00 -8.184929326721583465e+00 -8.184929326721583465e+00 -8.298419597636961242e+00 -8.422952698083033596e+00 -8.513712751118983846e+00 -8.513712751118983846e+00 -8.576344389334977336e+00 -8.698992853437614414e+00 -8.699578129775446200e+00 -8.765802722176111672e+00 -8.852811376556751100e+00 -8.873595438536728608e+00 -8.960604092917368035e+00 -9.011898247378081095e+00 -9.039912419770057994e+00 -9.100365866767379686e+00 -9.149652533639542895e+00 -9.149652533639542895e+00 -9.209018374666950280e+00 -9.302377290667704912e+00 -9.323177473022727924e+00 -9.378711242705632500e+00 -9.476910796538774662e+00 -9.479545564255767331e+00 -9.571974710635883454e+00 -9.603298017193036884e+00 -9.638511124267251873e+00 -9.696493623642494342e+00 -9.780711534204129975e+00 -9.780711534204129975e+00 -9.875870627321223338e+00 -9.947036058189514307e+00 -9.947036058189514307e+00 -9.995623140609627200e+00 -1.008752358503729418e+01 -1.012246020013477832e+01 -1.014667646520425848e+01 -1.021217035040974608e+01 -1.022771973485574826e+01 -1.028236377505556831e+01 -1.031612674921688466e+01
1.087567140148377298e+00 1.127602510256134893e+00 1.157327403684505818e+00 1.181417185402708014e+00 1.186785946513184697e+00 1.226363563207319318e+00 1.249122688901862066e+00 1.294741473501754614e+00 1.310033871920402770e+00 1.334627422876832892e+00 1.367975250807412113e+00 1.379132844266622415e+00 1.401323078737990890e+00 1.363872606538134136e+00 1.262953574034872961e+00 1.262953574034872961e+00 1.161981340274390151e+00 9.452465502490801086e-01 8.300054218994370459e-01 6.686503816634727926e-01 3.636445359547101353e-01 2.600783668972422302e-01 2.419501671766947082e-01 1.783907761766827527e-01 -1.275445596323568909e-01 -1.079731815889095614e+00 -1.812901294533180607e+00 -1.812901294533180607e+00 -2.444616492984135192e+00 -2.692165336252658747e+00 -2.823705556206596690e+00 -2.940865468632532398e+00 -3.161694392049155145e+00 -3.248261942214000886e+00 -3.322364139192053756e+00 -3.331416883570545107e+00 -3.394981589394421295e+00 -3.250956565234980999e+00 -3.103470144531669472e+00 -3.103470144531669472e+00 -2.930566265057911846e+00 -2.934670368918300021e+00 -2.897265066242010967e+00 -3.026648706302657921e+00 -3.137345440009897235e+00 -3.131941481388549775e+00 -3.057063249067985211e+00 -2.897825084588172118e+00 -3.029325562712381181e+00 -3.141278984293788490e+00 -3.580630563468180760e+00 -4.312286960776470224e+00 -4.519942441837196512e+00 -5.101226274292788077e+00 -5.399558391126934254e+00 -5.545415497915756831e+00 -5.915506402343740255e+00 -6.222116347866402997e+00 -6.222116347866402997e+00 -6.476155294026618492e+00 -6.703231182026764934e+00 -6.762329711568324520e+00 -6.895798144591529066e+00 -7.077896819161733077e+00 -7.181179537957864234e+00 -7.345674931986972744e+00 -7.490450604286957415e+00 -7.536666569272998828e+00 -7.658573850528568983e+00 -7.804416233387260426e+00 -7.804416233387260426e+00 -7.920188073427984143e+00 -8.022949056039450966e+00 -8.050343064174382945e+00 -8.125710038650918676e+00 -8.240265714807886610e+00 -8.272130751633344659e+00 -8.399591384549347950e+00 -8.468633045433378470e+00 -8.494213215398735528e+00 -8.570556970334962443e+00 -8.621159032761404717e+00 -8.671928230362423662e+00 -8.738849695656817573e+00 -8.832027314576777144e+00 -8.832027314576777144e+00 -8.919035968957416571e+00 -9.006332759740313776e+00 -9.011898247378081095e+00 -9.087237585769239345e+00 -9.139189403635949560e+00 -9.127404175252275209e+00 -9.233679655053840918e+00 -9.250139664619293711e+00 -9.264555911383894227e+00 -9.359915735088009114e+00 -9.428394226997472316e+00 -9.428394226997472316e+00 -9.506295584919964625e+00 -9.611659498220536335e+00 -9.603298017193036884e+00 -9.669643973712281237e+00 -9.728478136392313402e+00 -9.771534506413066978e+00 -9.806219118939534241e+00 -9.895123549917439476e+00 -9.955822574368157873e+00 -9.980629483757917697e+00 -1.007291772890795478e+01 -1.007291772890795478e+01 -1.013632438508443556e+01 -1.018327210550399187e+01 -1.021217035040974608e+01 -1.024438327482148026e+01 -1.030090399858868189e+01 -1.031612674921688466e+01
1.118943580231709367e+00 1.141622815279724756e+00 1.151160225090525513e+00 1.183376869949341437e+00 1.216855597380947174e+00 1.216855597380947174e+00 1.259426111327728304e+00 1.301996625274509212e+00 1.310033871920402770e+00 1.338833892365541400e+00 1.373383378538651112e+00 1.379132844266622415e+00 1.413210127952550854e+00 1.363784145411649718e+00 1.313971871427654703e+00 1.201036741938399377e+00 1.022412019943811368e+00 8.965277444825827668e-01 7.910342518068450568e-01 5.042766294708822539e-01 3.727485888448271445e-01 2.102907719143243537e-01 1.832775202617011878e-01 -3.479849734906698133e-01 -3.479849734906698133e-01 -1.279382207557196116e+00 -2.053283734415447981e+00 -2.251815969390195793e+00 -2.596465672159753435e+00 -2.796987059533533326e+00 -2.833898241750620883e+00 -3.074485918655897265e+00 -3.269096428428059475e+00 -3.238647642450032560e+00 -3.319359799902589891e+00 -3.417317317770649954e+00 -3.417317317770649954e+00 -3.322041495900591279e+00 -3.165994274363096661e+00 -3.064925227657149254e+00 -2.999582553310678801e+00 -3.047336921416673672e+00 -3.048721423394816110e+00 -3.125036521117698918e+00 -3.169428670411284621e+00 -3.119839551230574770e+00 -2.957360305667839029e+00 -2.876343137287730833e+00 -2.876343137287730833e+00 -3.242407519001371252e+00 -3.977775980194456551e+00 -4.312286960776470224e+00 -4.692821577148188261e+00 -5.223808465694784076e+00 -5.399558391126934254e+00 -5.802254971852777388e+00 -6.034308217884953862e+00 -6.130839065564495094e+00 -6.391235450112032979e+00 -6.518154867746423164e+00 -6.645274396272249362e+00 -6.840927523067424687e+00 -7.017296733054669389e+00 -7.017296733054669389e+00 -7.228968708295811396e+00 -7.404920855200538554e+00 -7.490450604286957415e+00 -7.588734993858317956e+00 -7.721194315781501061e+00 -7.751092772732905978e+00 -7.892794065293053940e+00 -7.968161039769591447e+00 -7.995555047904521651e+00 -8.098316030515990249e+00 -8.201077013127456183e+00 -8.201077013127456183e+00 -8.311909476580872536e+00 -8.440244498853312294e+00 -8.468633045433378470e+00 -8.532475018873572736e+00 -8.602135678881110081e+00 -8.621159032761404717e+00 -8.742413929364273528e+00 -8.776971754823708949e+00 -8.811243252596801412e+00 -8.898251906977442616e+00 -8.985260561358083820e+00 -8.985260561358083820e+00 -9.045860887210498191e+00 -9.103571200851320100e+00 -9.139189403635949560e+00 -9.166949832497234496e+00 -9.267507000222819258e+00 -9.250139664619293711e+00 -9.309045846794662182e+00 -9.396653997153290305e+00 -9.422095955563889902e+00 -9.505439654576974817e+00 -9.542355406851481092e+00 -9.585322189477578192e+00 -9.634430866638064472e+00 -9.728373223362396516e+00 -9.728373223362396516e+00 -9.804193395582499804e+00 -9.838618551244191934e+00 -9.895123549917439476e+00 -9.976164107782016899e+00 -9.996873480413356106e+00 -1.003474295649091452e+01 -1.010319815893878470e+01 -1.015018857003409281e+01 -1.016054065015391394e+01 -1.023205119803278329e+01 -1.027838384292980223e+01 -1.027838384292980223e+01 -1.033971940234630438e+01
1.132635772342009517e+00 1.164123017113082748e+00 1.164123017113082748e+00 1.199962970887514579e+00 1.224090376042874295e+00 1.244485937940683629e+00 1.272116278500420083e+00 1.301833091140490950e+00 1.314970169659775756e+00 1.367633912810680030e+00 1.397136120883404997e+00 1.404726726467706355e+00 1.420691494668536281e+00 1.309356986301750236e+00 1.309356986301750236e+00 1.191812123867470596e+00 9.928251997515011862e-01 8.965277444825827668e-01 7.157605941926268311e-01 3.967875809219778560e-01 3.727485888448271445e-01 2.250117289238882656e-01 7.335337517577815436e-02 -1.471543932085204662e-03 -9.770926572998637205e-01 -1.754699367895563134e+00 -1.754699367895563134e+00 -2.483660182914802395e+00 -2.765475517776268433e+00 -2.796987059533533326e+00 -3.000663554221722595e+00 -3.249304501880974971e+00 -3.269096428428059475e+00 -3.432677423849665121e+00 -3.543700465402471078e+00 -3.480508891586560516e+00 -3.438426281859030098e+00 -3.374032501021683395e+00 -3.255304288896094356e+00 -3.093115064893230404e+00 -3.043285512599549492e+00 -3.043285512599549492e+00 -3.092794920834188499e+00 -3.151414597928794414e+00 -3.169428670411284621e+00 -3.168452276267777812e+00 -2.949368300605645921e+00 -2.806543566948340729e+00 -3.005341087558600854e+00 -3.412534215856575681e+00 -3.711896558504945709e+00 -4.457651445567985427e+00 -5.019606117122483724e+00 -5.019606117122483724e+00 -5.510540758275134010e+00 -5.926335107270141123e+00 -6.034308217884953862e+00 -6.222694786778109055e+00 -6.446405033553610942e+00 -6.518154867746423164e+00 -6.755295803797937815e+00 -6.904618064430379398e+00 -6.956696646947604812e+00 -7.153057277506279732e+00 -7.341828324708449038e+00 -7.341828324708449038e+00 -7.549696527500524112e+00 -7.707258690828139081e+00 -7.707258690828139081e+00 -7.780258988757297267e+00 -7.936820085902748012e+00 -7.968161039769591447e+00 -8.043528014246128066e+00 -8.146288996857595777e+00 -8.173683004992525980e+00 -8.292529074621601382e+00 -8.368278353957364857e+00 -8.388947330787807743e+00 -8.514313392783725121e+00 -8.610059013769086889e+00 -8.610059013769086889e+00 -8.665973676187832098e+00 -8.780966110577303141e+00 -8.776971754823708949e+00 -8.856683783017491152e+00 -8.943692437398130579e+00 -8.964476499378108088e+00 -9.042289136343413247e+00 -9.089726629410110448e+00 -9.115372212937334240e+00 -9.178012940504515882e+00 -9.260093159805915519e+00 -9.260093159805915519e+00 -9.291254898970571219e+00 -9.375853814798265518e+00 -9.396653997153290305e+00 -9.465480668422145527e+00 -9.533968512615174973e+00 -9.542355406851481092e+00 -9.651344285805190992e+00 -9.670899501212508298e+00 -9.700776823157308826e+00 -9.764297781733171533e+00 -9.831111913474989805e+00 -9.831111913474989805e+00 -9.914376472513652061e+00 -9.992635075490376551e+00 -9.992635075490376551e+00 -1.004713687747703155e+01 -1.011375647446157799e+01 -1.015018857003409281e+01 -1.017440483510357296e+01 -1.024715032342650289e+01 -1.026458079466191542e+01 -1.031960797877847646e+01 -1.035975013869052574e+01
1.128540954644452032e+00 1.155854789425612594e+00 1.185935955378182971e+00 1.212757151827294599e+00 1.212757151827294599e+00 1.254799773770025606e+00 1.286902826272803280e+00 1.286902826272803280e+00 1.331776383657309326e+00 1.378881374025620499e+00 1.397136120883404997e+00 1.396243942891494783e+00 1.407097856034049910e+00 1.395633004742759864e+00 1.264143906663196981e+00 1.131740415903834673e+00 1.063745652477294357e+00 8.348806427589654522e-01 4.865743166540165698e-01 4.865743166540165698e-01 1.293348453073280557e-01 -1.267221620440847074e-01 7.335337517577815436e-02 -2.692135077834579837e-01 -1.185961079372314764e+00 -1.432116682611182856e+00 -2.206610555868222967e+00 -2.444759231255565268e+00 -2.654482552726875610e+00 -2.930132756472823452e+00 -3.217417991738612315e+00 -3.217417991738612315e+00 -3.494512038039640167e+00 -3.566821672396230269e+00 -3.543700465402471078e+00 -3.649485793310491388e+00 -3.498780194258735321e+00 -3.374032501021683395e+00 -3.186647576475782007e+00 -3.119425723359274816e+00 -3.082409426788062401e+00 -3.081806358633663923e+00 -3.133400525446303764e+00 -3.133400525446303764e+00 -3.199155529028308464e+00 -3.107223657860588961e+00 -3.107223657860588961e+00 -2.893745837233995921e+00 -3.076845552913568760e+00 -3.412534215856575681e+00 -3.907314831633780461e+00 -4.666847910332521110e+00 -4.868920890422826275e+00 -5.346390657096780963e+00 -5.625448302152137536e+00 -5.781667667318872716e+00 -6.124147977621073657e+00 -6.376011608049147128e+00 -6.376011608049147128e+00 -6.599721854824649014e+00 -6.843950436987280561e+00 -6.904618064430379398e+00 -7.011147294575125422e+00 -7.228217735850826386e+00 -7.287796407682181510e+00 -7.464166778414105252e+00 -7.574536270054822218e+00 -7.644964697247083052e+00 -7.733019426993422485e+00 -7.899027024427373256e+00 -7.899027024427373256e+00 -8.026758534496375219e+00 -8.118894988722665573e+00 -8.146288996857595777e+00 -8.221655971334133284e+00 -8.333864756515513506e+00 -8.368278353957364857e+00 -8.480897613157276638e+00 -8.559993740134069995e+00 -8.581466406996396401e+00 -8.640014241795526573e+00 -8.710788319614259478e+00 -8.764088934850438051e+00 -8.827391998091151493e+00 -8.922908375418154847e+00 -8.922908375418154847e+00 -9.009917029798796051e+00 -9.086385485488118974e+00 -9.140230519612554616e+00 -9.140230519612554616e+00 -9.216836477373085756e+00 -9.308071876557756141e+00 -9.301334345391797598e+00 -9.332368404350333435e+00 -9.412548312582874388e+00 -9.433392259218567943e+00 -9.503837785625346868e+00 -9.562497370653375128e+00 -9.579143430641178014e+00 -9.686776238495399483e+00 -9.731909672602338190e+00 -9.731909672602338190e+00 -9.800724313528188958e+00 -9.858089701652948733e+00 -9.866144850839869918e+00 -9.933629395109864646e+00 -1.001920131830954830e+01 -1.002652140854446472e+01 -1.009162717660832875e+01 -1.013379609923179459e+01 -1.016405275498375005e+01 -1.021600389242334295e+01 -1.028573616633293675e+01 -1.028573616633293675e+01 -1.033831195896827282e+01 -1.039283145577513956e+01
1.128540954644452032e+00 1.145137663393863692e+00 1.186203730020396696e+00 1.205150403245074608e+00 1.236807732037936480e+00 1.264922713923476438e+00 1.274705618040019139e+00 1.310836767053498608e+00 1.360519980328195544e+00 1.360519980328195544e+00 1.386518575903458173e+00 1.395351764899584568e+00 1.407097856034049910e+00 1.361575471897434442e+00 1.180508642354522131e+00 1.131740415903834673e+00 9.255234691045191031e-01 7.583695714973144320e-01 6.172699105481056492e-01 4.516784990709125092e-01 4.279568585085827270e-01 1.569760918620093926e-01 -2.119458642809393667e-02 -1.134816828401024491e+00 -1.134816828401024491e+00 -1.588720480668089685e+00 -2.166241998751071041e+00 -2.444759231255565268e+00 -2.716901008205379497e+00 -3.029715899600871509e+00 -3.116308958161766896e+00 -3.350355381125064369e+00 -3.378178935104618308e+00 -3.497999617267522954e+00 -3.498664034935280664e+00 -3.500967847930780863e+00 -3.500967847930780863e+00 -3.353204896952676428e+00 -3.165554292290673644e+00 -3.119425723359274816e+00 -3.039390263644277557e+00 -3.065752445828692441e+00 -3.097353748759785752e+00 -3.189881315472391954e+00 -3.170121101219895099e+00 -3.180184055549979849e+00 -3.038331913409920482e+00 -2.775931814763085814e+00 -2.775931814763085814e+00 -3.624328454039655867e+00 -4.432028755271595344e+00 -4.666847910332521110e+00 -5.072268204869840424e+00 -5.506645381981305931e+00 -5.625448302152137536e+00 -5.879567985891989146e+00 -6.199958876183794487e+00 -6.462636774732743561e+00 -6.529328429320185201e+00 -6.683215392525735155e+00 -6.913663982350606751e+00 -6.967522313053876815e+00 -7.179764115078356213e+00 -7.285699990651723468e+00 -7.347572318800644098e+00 -7.531562308519923477e+00 -7.707291003502189319e+00 -7.707291003502189319e+00 -7.775354855554242661e+00 -7.938169417591783628e+00 -7.979955000440212665e+00 -8.062959841000791883e+00 -8.191618189480681878e+00 -8.194261963199203080e+00 -8.297022945810670791e+00 -8.372389920287208298e+00 -8.415877640335148513e+00 -8.521550727461240982e+00 -8.637197279609003076e+00 -8.637197279609003076e+00 -8.686351780363006370e+00 -8.810518061714294191e+00 -8.819518291790329201e+00 -8.886597483778349016e+00 -8.968348905838846363e+00 -8.989132967818822095e+00 -9.078323305203117144e+00 -9.112430887387848344e+00 -9.136564566207008298e+00 -9.187070168802074832e+00 -9.246041146987149517e+00 -9.246041146987149517e+00 -9.335161690560774161e+00 -9.409788235919716470e+00 -9.409788235919716470e+00 -9.468491765602779608e+00 -9.548466764875545465e+00 -9.562497370653375128e+00 -9.617851834858615945e+00 -9.720626444262441268e+00 -9.722307890115665430e+00 -9.792373368280976820e+00 -9.837032760130922426e+00 -9.863533052617679431e+00 -9.900516179450406185e+00 -1.000470294017855188e+01 -1.000470294017855188e+01 -1.004656016699723509e+01 -1.010141494572069298e+01 -1.013379609923179459e+01 -1.018286888841592130e+01 -1.023757462443814248e+01 -1.026419991059968950e+01 -1.030903686481384796e+01 -1.036784171197108151e+01 -1.037404954855494488e+01
1.125087789628902879e+00 1.166153856255435439e+00 1.166153856255435439e+00 1.207219922881968444e+00 1.247950565194349659e+00 1.264922713923476438e+00 1.287985378412052517e+00 1.328193136691841358e+00 1.345403301577629662e+00 1.376793208915421562e+00 1.379860037609936363e+00 1.387348706663132702e+00 1.402812336038953500e+00 1.257404781549043893e+00 1.257404781549043893e+00 1.068656362503512813e+00 8.780472638926600792e-01 7.583695714973144320e-01 7.148202902331709518e-01 5.513391934674238826e-01 4.279568585085827270e-01 5.667430069515166924e-02 -2.073126874101843264e-01 -5.254323314796678357e-01 -1.317345114172626008e+00 -1.942101407329321461e+00 -2.250142400141681875e+00 -2.489628288269976064e+00 -2.929358788637796529e+00 -3.087726110572175386e+00 -3.087726110572175386e+00 -3.232329380104374650e+00 -3.364292291196974816e+00 -3.364292291196974816e+00 -3.331990820164863365e+00 -3.331682385271176994e+00 -3.388624041083259097e+00 -3.248331479498225427e+00 -3.143236394473975182e+00 -3.090920459341171878e+00 -3.043400141488104005e+00 -3.037220363864408412e+00 -3.074469298911561843e+00 -3.133293445236819075e+00 -3.142930576759962236e+00 -3.142930576759962236e+00 -3.079833480119927636e+00 -3.019087318716662249e+00 -3.244338419751324309e+00 -3.676649382854993764e+00 -4.418591030167245748e+00 -4.773809080710478270e+00 -5.373802366249734952e+00 -5.621707702952007502e+00 -5.750637844421998324e+00 -6.073667558410807743e+00 -6.393425235111128480e+00 -6.393425235111128480e+00 -6.602244432114519057e+00 -6.779732412677009989e+00 -6.913663982350606751e+00 -7.053806940699809402e+00 -7.218815198037202840e+00 -7.285699990651723468e+00 -7.453336497250322878e+00 -7.557916841728487434e+00 -7.647706355644867671e+00 -7.728115293790366991e+00 -7.817690284115064614e+00 -7.864929845878940284e+00 -8.024329070479447878e+00 -8.166554510322075799e+00 -8.166554510322075799e+00 -8.252263758374304814e+00 -8.344995912152278095e+00 -8.372389920287208298e+00 -8.466586421046754296e+00 -8.560631382292147151e+00 -8.605674087484414869e+00 -8.714464897067529137e+00 -8.732689318930484390e+00 -8.756888866324093357e+00 -8.858070473003358813e+00 -8.929376852456469393e+00 -8.929376852456469393e+00 -9.034573498239510059e+00 -9.107308993441922240e+00 -9.112430887387848344e+00 -9.183402503003904371e+00 -9.233867263181851470e+00 -9.255660014241653855e+00 -9.353181902712943696e+00 -9.368989035729752501e+00 -9.373481909730095651e+00 -9.469133317129866612e+00 -9.543635083326208246e+00 -9.543635083326208246e+00 -9.595112201517745021e+00 -9.690882541306093501e+00 -9.720626444262441268e+00 -9.757249259650130568e+00 -9.824418461064054142e+00 -9.837032760130922426e+00 -9.885372924298099662e+00 -9.934944757539195592e+00 -9.957125001310743073e+00 -1.004776256562463743e+01 -1.005940312097277811e+01 -1.008722222058528573e+01 -1.015141042680747496e+01 -1.020213320500288745e+01 -1.020213320500288745e+01 -1.028124949777287434e+01 -1.032436337575586904e+01 -1.036784171197108151e+01 -1.038834895841936401e+01
1.127748781566352498e+00 1.170028777829380751e+00 1.188089777021081872e+00 1.228900158145313615e+00 1.253542387440071515e+00 1.259454777890224086e+00 1.303198801689617214e+00 1.324391948806642461e+00 1.342061947111097053e+00 1.367926417216438262e+00 1.386677370418889943e+00 1.386677370418889943e+00 1.376582434846869596e+00 1.220985076581278861e+00 1.144893353615752396e+00 1.036785347055440898e+00 8.041401715166442976e-01 7.221544312859795589e-01 5.592660589908085012e-01 3.728776602666361573e-01 3.925860507760026152e-01 1.777441384077593778e-02 -7.264549083396177886e-01 -7.264549083396177886e-01 -1.421699513587521224e+00 -2.059003201247394887e+00 -2.250142400141681875e+00 -2.567887617802930400e+00 -3.001691748005316907e+00 -3.046631894889315628e+00 -3.182041372088205922e+00 -3.294621953682328463e+00 -3.327779842855394410e+00 -3.307871132341051457e+00 -3.275022418224133425e+00 -3.275022418224133425e+00 -3.236587857536992630e+00 -3.200115356559242841e+00 -3.143236394473975182e+00 -3.078912389826336415e+00 -3.046697868997863434e+00 -3.037220363864408412e+00 -3.093571459653831290e+00 -3.126841360009199100e+00 -3.149922555443253724e+00 -3.191592078482295314e+00 -3.130780492165144757e+00 -3.149105921593074342e+00 -3.376261430458316060e+00 -4.125485845070494761e+00 -4.125485845070494761e+00 -4.874710259682673907e+00 -5.491148758118995943e+00 -5.621707702952007502e+00 -5.810855904294001562e+00 -6.131341784684282814e+00 -6.267767130929628117e+00 -6.521273471703302960e+00 -6.659675317255585369e+00 -6.740646277666801467e+00 -6.955190843891722707e+00 -7.167305330563962684e+00 -7.167305330563962684e+00 -7.315327782358302500e+00 -7.495110518972291302e+00 -7.557916841728487434e+00 -7.657913294457028286e+00 -7.770450722351188944e+00 -7.817690284115064614e+00 -7.964965112935516345e+00 -8.078907263768670077e+00 -8.127011937916130080e+00 -8.229954623598320751e+00 -8.317601904017347891e+00 -8.317601904017347891e+00 -8.420362886628815602e+00 -8.539165258059838948e+00 -8.560631382292147151e+00 -8.651354434834761520e+00 -8.776686002849512391e+00 -8.732689318930484390e+00 -8.803334952030581917e+00 -8.896622654216384873e+00 -8.925149664991376852e+00 -9.013789436259534327e+00 -9.078174015003398267e+00 -9.103345575857517247e+00 -9.152988872460259273e+00 -9.236814575626528523e+00 -9.236814575626528523e+00 -9.294483551110221953e+00 -9.386521872986801185e+00 -9.368989035729752501e+00 -9.414595415109857868e+00 -9.515539572141168634e+00 -9.502542596438534162e+00 -9.593703542485577884e+00 -9.635926624262690865e+00 -9.663739729722575333e+00 -9.754476650029481277e+00 -9.794175371492393367e+00 -9.794175371492393367e+00 -9.869334852479159537e+00 -9.912656146943252367e+00 -9.934944757539195592e+00 -9.989930843159196883e+00 -1.007471639810471764e+01 -1.005940312097277811e+01 -1.013433064842852716e+01 -1.018518854048342881e+01 -1.019414597882864371e+01 -1.025707926251362068e+01 -1.032852410916737540e+01 -1.032852410916737540e+01 -1.037928415352298472e+01 -1.041875105394610479e+01
1.167754671922649035e+00 1.167754671922649035e+00 1.194056691895517552e+00 1.225075036388401317e+00 1.253542387440071515e+00 1.279592012423040437e+00 1.305353465709140570e+00 1.324391948806642461e+00 1.355878451624783043e+00 1.355452146618692844e+00 1.374743750025392286e+00 1.394571011892158818e+00 1.292696219596816132e+00 1.292696219596816132e+00 1.116286929145445361e+00 9.219844323661803287e-01 8.041401715166442976e-01 6.426900114205511549e-01 3.531692697572699213e-01 3.728776602666361573e-01 3.795568452845646812e-01 -5.656097527585632855e-03 -2.849587214866152185e-01 -1.078847011763692798e+00 -1.554456505268419164e+00 -1.888281436399061652e+00 -2.402678093256588099e+00 -2.902419122962635711e+00 -2.902419122962635711e+00 -3.112959597448481830e+00 -3.261464064509262961e+00 -3.294621953682328463e+00 -3.251724793417989812e+00 -3.293805947051524186e+00 -3.280269143162965584e+00 -3.241834582475824789e+00 -3.212768623981750782e+00 -3.214167532464438093e+00 -3.106757601322643669e+00 -2.999062940693820067e+00 -2.999062940693820067e+00 -3.027186791214216743e+00 -3.051297308689811416e+00 -3.126841360009199100e+00 -3.081055555546594604e+00 -2.885662477807370951e+00 -3.130780492165144757e+00 -3.157885076846896233e+00 -3.617410374908881732e+00 -3.875722138656942928e+00 -4.624946553269120741e+00 -5.312126161346904851e+00 -5.312126161346904851e+00 -5.672155367199242626e+00 -5.992677376004087009e+00 -5.992677376004087009e+00 -6.296454999001708686e+00 -6.574083770964273654e+00 -6.659675317255585369e+00 -6.798077162807866003e+00 -6.996717705432837775e+00 -7.095333802240924470e+00 -7.243593519566120520e+00 -7.362616946806989304e+00 -7.418239570579238773e+00 -7.592885621592357914e+00 -7.771141362851839318e+00 -7.771141362851839318e+00 -7.863754926827576597e+00 -7.996840264764458972e+00 -8.078907263768670077e+00 -8.149631116531519837e+00 -8.275864193198323449e+00 -8.323263238894879734e+00 -8.392968878493885398e+00 -8.468335852970422906e+00 -8.511412333728392454e+00 -8.597480469183427232e+00 -8.736217142726733442e+00 -8.736217142726733442e+00 -8.779026857497962411e+00 -8.894953475099825368e+00 -8.896622654216384873e+00 -8.963701846204404688e+00 -9.059229966680222290e+00 -9.078174015003398267e+00 -9.147921535355543199e+00 -9.193546857532670202e+00 -9.230135015224805173e+00 -9.283481052895620422e+00 -9.325132461477064538e+00 -9.325132461477064538e+00 -9.398141671686166987e+00 -9.443520283857635533e+00 -9.443520283857635533e+00 -9.536593427274286938e+00 -9.635788609320560028e+00 -9.635926624262690865e+00 -9.709627624586536498e+00 -9.788326855796523063e+00 -9.830639721620009652e+00 -9.856463553847133241e+00 -9.893716273323981625e+00 -9.942232790604379034e+00 -9.970364560532265941e+00 -1.004923735737387247e+01 -1.009705008183796338e+01 -1.008219591013796901e+01 -1.014601992594111834e+01 -1.020991711952364334e+01 -1.020991711952364334e+01 -1.027547650319085548e+01 -1.034991808058459384e+01 -1.033968988669789013e+01 -1.039368874775531104e+01 -1.043255587458973999e+01
1.142483960233857232e+00 1.177448620977268767e+00 1.197798462938268305e+00 1.208709227772474026e+00 1.246473239838617353e+00 1.285969907800686318e+00 1.285969907800686318e+00 1.335574294081228297e+00 1.353924785692694588e+00 1.355452146618692844e+00 1.382256924362803119e+00 1.362840614581017018e+00 1.342641740102298087e+00 1.199310766217800861e+00 1.096188260698421235e+00 1.000178532794369524e+00 7.674652617829089696e-01 4.330484790236317494e-01 4.330484790236317494e-01 4.242825615795677296e-01 3.472052658001572034e-01 -5.656097527585632855e-03 -4.138025918790709801e-01 -1.268149034501495409e+00 -1.554456505268419164e+00 -2.262711346688226932e+00 -2.636417089256132940e+00 -2.758685792168315665e+00 -3.077259338513285591e+00 -3.227679518145652793e+00 -3.227679518145652793e+00 -3.203633013755365688e+00 -3.258295538036033445e+00 -3.258295538036033445e+00 -3.282557625046737648e+00 -3.200064946253504683e+00 -3.212768623981750782e+00 -3.187933943143504312e+00 -3.068898443954529043e+00 -3.043841039881004740e+00 -3.004860804944629926e+00 -3.009205310574226466e+00 -3.000895768652885209e+00 -3.031823982248360583e+00 -3.037084826615681354e+00 -3.037084826615681354e+00 -2.673975515065970310e+00 -3.331516377367032433e+00 -3.617410374908881732e+00 -4.147558340021650913e+00 -4.874643555054196220e+00 -5.107143053450394987e+00 -5.619077971476902356e+00 -5.800864315763438306e+00 -5.866716583855842160e+00 -6.170224512847357623e+00 -6.502910013659397137e+00 -6.502910013659397137e+00 -6.722671508056588863e+00 -6.930122663321930609e+00 -6.996717705432837775e+00 -7.126437451531773881e+00 -7.322314860396354597e+00 -7.362616946806989304e+00 -7.538650179318717726e+00 -7.632863642346199740e+00 -7.699429822453454975e+00 -7.866539861639971321e+00 -7.946726630105685807e+00 -8.067247110149214251e+00 -8.107673423090872689e+00 -8.274564067077594842e+00 -8.330925506203554320e+00 -8.338250182233107211e+00 -8.440784948427893397e+00 -8.558672802128290513e+00 -8.558672802128290513e+00 -8.641650931855750173e+00 -8.776768583719279704e+00 -8.838907108631493870e+00 -8.825364396065442207e+00 -8.936437414675683755e+00 -8.935174835429414486e+00 -9.016698292144996074e+00 -9.099471873622418272e+00 -9.119094661649244316e+00 -9.200726046854843077e+00 -9.276414810065297445e+00 -9.276414810065297445e+00 -9.331547802189440688e+00 -9.364678118722022049e+00 -9.419861843260658674e+00 -9.431810193255753205e+00 -9.492368868809402116e+00 -9.534628403427680254e+00 -9.597868990606801987e+00 -9.677873676155543947e+00 -9.676741047007638485e+00 -9.761256109191771557e+00 -9.827131998719060846e+00 -9.827131998719060846e+00 -9.888508646630210563e+00 -9.953789485950956362e+00 -9.953789485950956362e+00 -1.000295086576732473e+01 -1.007115688639940032e+01 -1.009705008183796338e+01 -1.011274872440103501e+01 -1.017708302383922891e+01 -1.018974149894541981e+01 -1.022986157490220194e+01 -1.028989830451666165e+01 -1.031534867211924400e+01 -1.035070783677693562e+01 -1.041694777814820227e+01 -1.041694777814820227e+01
1.142444341632686822e+00 1.187434730448612363e+00 1.197798462938268305e+00 1.233388424913404169e+00 1.244186729172468642e+00 1.266893457800846834e+00 1.307748244947512184e+00 1.337466954320204238e+00 1.360959788982963881e+00 1.363314889156745480e+00 1.382244699237429764e+00 1.382244699237429764e+00 1.321886697366340790e+00 1.163928509905544306e+00 1.096188260698421235e+00 9.645623721837031095e-01 7.000571687575793955e-01 5.660763654890188512e-01 3.987808130519043259e-01 4.906132859163653825e-01 4.388895225248432008e-01 -1.741761554413662205e-04 -8.945534729618470626e-01 -8.945534729618470626e-01 -1.758320583934417591e+00 -2.409188467528261768e+00 -2.636417089256132940e+00 -2.847436670008828496e+00 -3.096153145038053278e+00 -3.165036274158807394e+00 -3.257954174010104786e+00 -3.272151617763153997e+00 -3.242325578136325159e+00 -3.292390740366765378e+00 -3.220887174886783555e+00 -3.220887174886783555e+00 -3.181509268099526722e+00 -3.115509289280768535e+00 -3.022708961477961420e+00 -3.022708961477961420e+00 -2.933313211971673162e+00 -2.925530732150285473e+00 -2.925530732150285473e+00 -2.971664727775342296e+00 -3.010923163583512974e+00 -2.994168437890885492e+00 -3.052387816538488341e+00 -3.625033638873394359e+00 -3.948230609591106166e+00 -4.635106390912005381e+00 -5.051070231343240735e+00 -5.210490786129392760e+00 -5.713384568467601454e+00 -5.991769080001172476e+00 -5.991769080001172476e+00 -6.308438367203720532e+00 -6.585149480258836618e+00 -6.630922528849488629e+00 -6.767365902863607730e+00 -6.971779657924167317e+00 -7.067705872034029113e+00 -7.241740996337165726e+00 -7.356059321515834526e+00 -7.470659542298249356e+00 -7.590925759963609742e+00 -7.687980174001448397e+00 -7.687980174001448397e+00 -7.872605407180997439e+00 -7.992895743904728789e+00 -8.067247110149214251e+00 -8.150731838296325193e+00 -8.258185913253431210e+00 -8.330925506203554320e+00 -8.463639424310311909e+00 -8.516840658814302856e+00 -8.579766008014459544e+00 -8.619785479687326557e+00 -8.734466774939280143e+00 -8.734466774939280143e+00 -8.889265749552539120e+00 -8.890326230909975536e+00 -8.890326230909975536e+00 -8.976304872549695446e+00 -9.068355530775352946e+00 -9.099471873622418272e+00 -9.136163805418879846e+00 -9.251407565804875333e+00 -9.229917670412481456e+00 -9.351580012320043878e+00 -9.361609565665755639e+00 -9.355416955100524845e+00 -9.453201813534516162e+00 -9.496822425869380524e+00 -9.496822425869380524e+00 -9.566416704728858633e+00 -9.629828695149630136e+00 -9.677873676155543947e+00 -9.717555469752582553e+00 -9.796442893134610586e+00 -9.822177061563564848e+00 -9.869664374412089103e+00 -9.920553739413289662e+00 -9.918097694168809042e+00 -9.971620225040309649e+00 -1.004885205590240815e+01 -1.004885205590240815e+01 -1.011644138219934952e+01 -1.015738945198825149e+01 -1.017708302383922891e+01 -1.020720675083175877e+01 -1.024490925291522636e+01 -1.028989830451666165e+01 -1.036664999076671201e+01 -1.036236046455410076e+01 -1.039718812180526974e+01 -1.047836405732262577e+01
1.164389422579216626e+00 1.164389422579216626e+00 1.201312320487534224e+00 1.231175482590161518e+00 1.244186729172468642e+00 1.275763150666666457e+00 1.308137790092586572e+00 1.369762308556589536e+00 1.365535899417874566e+00 1.363056620567756783e+00 1.382255395993152725e+00 1.358674956094796604e+00 1.228284392710766060e+00 1.143555947081964064e+00 1.063240181970134257e+00 8.151969328787864733e-01 4.872810177591323511e-01 4.872810177591323511e-01 5.567421933120711985e-01 4.394542672336349542e-01 4.394542672336349542e-01 -1.355673352897655559e-01 -1.027368663404260696e+00 -1.399351000678057622e+00 -1.886007242739959011e+00 -2.515305500479121825e+00 -2.685137254074307034e+00 -3.017127051728204279e+00 -3.151822458260133075e+00 -3.216191100070140862e+00 -3.315563982380214103e+00 -3.306532473567025399e+00 -3.306532473567025399e+00 -3.267686822423271131e+00 -3.195325124786852378e+00 -3.197415397336284215e+00 -3.173243339370917404e+00 -3.088657485886387999e+00 -3.046011673437704737e+00 -2.961741668546702400e+00 -2.877177877120930649e+00 -2.898583652992186899e+00 -2.911574012688910695e+00 -2.945273236464060584e+00 -2.945273236464060584e+00 -3.020459192223480027e+00 -3.300268292217913846e+00 -3.625033638873394359e+00 -4.174616095683276740e+00 -4.812186696910796257e+00 -5.051070231343240735e+00 -5.516918246789826341e+00 -5.805925257552280172e+00 -5.915483374590881915e+00 -6.180430675761453330e+00 -6.365492585036300888e+00 -6.479782761027319538e+00 -6.751467906668075614e+00 -6.914193702357730231e+00 -6.914193702357730231e+00 -7.123754451105146934e+00 -7.311654803378531575e+00 -7.356059321515834526e+00 -7.486516848706936678e+00 -7.558968000698252254e+00 -7.623474087349848993e+00 -7.782228662385450413e+00 -7.900168434710377774e+00 -7.976022096185189092e+00 -8.098100630710870718e+00 -8.264235958851672947e+00 -8.264235958851672947e+00 -8.343417400375725990e+00 -8.445698687493301549e+00 -8.516840658814302856e+00 -8.589042441506986592e+00 -8.643134955626070592e+00 -8.682833197957382509e+00 -8.773121943930810573e+00 -8.883600066855219524e+00 -8.876688007518755086e+00 -8.964014291948730673e+00 -9.064119305162009255e+00 -9.064119305162009255e+00 -9.116024084776864100e+00 -9.194144676454651943e+00 -9.251407565804875333e+00 -9.257115080779730221e+00 -9.366337467034163922e+00 -9.361609565665755639e+00 -9.380219784970240227e+00 -9.471453983524503073e+00 -9.470979089942288098e+00 -9.535965309169577964e+00 -9.591992459702321838e+00 -9.601577196785703094e+00 -9.725742219803981570e+00 -9.783393263874309298e+00 -9.783393263874309298e+00 -9.852118722763673730e+00 -9.925934615268641181e+00 -9.920553739413289662e+00 -9.938516533531652541e+00 -9.996141571458855068e+00 -1.002993738143599067e+01 -1.009068836138404279e+01 -1.012705882005541014e+01 -1.013758201346011312e+01 -1.019444497183087783e+01 -1.022660756481363542e+01 -1.022660756481363542e+01 -1.029482629952828887e+01 -1.037589810567401649e+01 -1.036236046455410076e+01 -1.039995493179150721e+01 -1.051443121310692774e+01
1.164435696162528178e+00 1.182944846545088469e+00 1.202606367669518228e+00 1.234796916872068273e+00 1.262883735862156520e+00 1.285906756521921768e+00 1.321381469741196968e+00 1.323937423052240492e+00 1.369064771150682924e+00 1.394026155109776344e+00 1.394026155109776344e+00 1.366134967255604238e+00 1.196474320618533760e+00 1.143555947081964064e+00 1.034232918411021940e+00 7.770677913722574548e-01 6.328279403842219653e-01 2.440723178374051283e-01 4.903059817639573437e-01 5.501350609293235161e-01 2.039861941866973061e-01 -8.839481152366108763e-01 -8.839481152366108763e-01 -1.531098506067960274e+00 -2.243981945147369927e+00 -2.515305500479121825e+00 -2.781974553372106307e+00 -3.076514954611033748e+00 -3.151822458260133075e+00 -3.240472073159423871e+00 -3.324286108458874622e+00 -3.322755167896332740e+00 -3.287335036928752618e+00 -3.256134121336110354e+00 -3.235171465878138530e+00 -3.188646800898843114e+00 -3.134746915423143321e+00 -3.134746915423143321e+00 -3.018388888084419630e+00 -2.875712898400398121e+00 -2.877177877120930649e+00 -2.854510693364384455e+00 -2.809803040042753608e+00 -2.884412398329891936e+00 -2.906647030730606929e+00 -2.757583766307949880e+00 -3.009001183207729913e+00 -3.909878050447602948e+00 -4.629631757243044099e+00 -4.629631757243044099e+00 -5.219146678926469107e+00 -5.673762544372626948e+00 -5.805925257552280172e+00 -6.008900672201837878e+00 -6.260581304522775170e+00 -6.365492585036300888e+00 -6.655330952445551063e+00 -6.795830079855451622e+00 -6.826799548664519435e+00 -7.037317794969954576e+00 -7.247212148688523925e+00 -7.247212148688523925e+00 -7.415621246337486205e+00 -7.538108517570908162e+00 -7.558968000698252254e+00 -7.653216489082253382e+00 -7.811971064117854802e+00 -7.900168434710377774e+00 -7.986935486366126824e+00 -8.128835607454227841e+00 -8.186265634172276151e+00 -8.310978494745357992e+00 -8.363916919763747515e+00 -8.423793128776411621e+00 -8.535231204337097921e+00 -8.616244951475643177e+00 -8.616244951475643177e+00 -8.709781595723388392e+00 -8.807261380727517519e+00 -8.883600066855219524e+00 -8.875904604855252344e+00 -8.987616454690886769e+00 -9.001816346622224074e+00 -9.095884364134846578e+00 -9.143552918136357732e+00 -9.162059555846539638e+00 -9.245578281574147184e+00 -9.322814210981499983e+00 -9.322814210981499983e+00 -9.371426690954876904e+00 -9.425399206386966711e+00 -9.471453983524503073e+00 -9.490638646875416029e+00 -9.543565624256329372e+00 -9.591992459702321838e+00 -9.672263993783502656e+00 -9.740183118858418254e+00 -9.744961651981236983e+00 -9.816899282412055783e+00 -9.873120903621476430e+00 -9.873120903621476430e+00 -9.932822451758646309e+00 -1.000503486238459416e+01 -1.000503486238459416e+01 -1.003900416835196374e+01 -1.009708048852656326e+01 -1.012705882005541014e+01 -1.015665616809961591e+01 -1.020169325592788923e+01 -1.022254392349308816e+01 -1.026138004528872294e+01 -1.029924338018942187e+01 -1.037806300456624697e+01 -1.037632875280637101e+01 -1.041410969247911922e+01 -1.050695781689300112e+01
1.153479920500720013e+00 1.184097217286958381e+00 1.220070118154227501e+00 1.234796916872068273e+00 1.246932769736243563e+00 1.308411190631637577e+00 1.321381469741196968e+00 1.336518926963802922e+00 1.373869880181628478e+00 1.380765470306664078e+00 1.390729232771572565e+00 1.355849160002730036e+00 1.279581956409150845e+00 1.105910465863396031e+00 8.866352099224005245e-01 8.866352099224005245e-01 5.673933227923542155e-01 4.887925093225608530e-01 4.903059817639573437e-01 4.946439598025674789e-01 3.330075210076727243e-02 -3.650810669173565337e-01 -1.257747797207024121e+00 -1.692604979562534862e+00 -1.984143223353014518e+00 -2.596656812859467145e+00 -3.016102965433706373e+00 -3.016102965433706373e+00 -3.198349285682676957e+00 -3.253767832619688605e+00 -3.324286108458874622e+00 -3.312735036824022039e+00 -3.270016051185989259e+00 -3.256134121336110354e+00 -3.170595174219888346e+00 -3.109557554567875748e+00 -3.099897250880444766e+00 -3.013799764290061134e+00 -2.939495631878679127e+00 -2.939495631878679127e+00 -2.856404976071377444e+00 -2.792731665297764732e+00 -2.792731665297764732e+00 -2.749915947045730835e+00 -2.561340968389075989e+00 -2.757583766307949880e+00 -3.337274806861601384e+00 -4.115599523375923496e+00 -4.474241261349349408e+00 -5.078811027757923036e+00 -5.350295444917877674e+00 -5.528843938859946405e+00 -5.874826071174602760e+00 -6.187480899155032965e+00 -6.187480899155032965e+00 -6.423453388222790217e+00 -6.675276408090497604e+00 -6.795830079855451622e+00 -6.858547733673407087e+00 -7.057924563224845294e+00 -7.153819215326573833e+00 -7.353049960343946978e+00 -7.433030581888067978e+00 -7.531666627395983582e+00 -7.619756900770206620e+00 -7.747464977466256286e+00 -7.747464977466256286e+00 -7.931452237071258793e+00 -8.049972689336224008e+00 -8.128835607454227841e+00 -8.220575597637887810e+00 -8.362238658200237040e+00 -8.363916919763747515e+00 -8.453791502128924051e+00 -8.551520012263729598e+00 -8.598318874999511863e+00 -8.677849922963865481e+00 -8.740476276073795958e+00 -8.767073253457400739e+00 -8.842828969233707426e+00 -8.938818800070908566e+00 -9.011218617433044642e+00 -9.027327820694752702e+00 -9.116315223843404425e+00 -9.183390642735748344e+00 -9.183390642735748344e+00 -9.245437394716725876e+00 -9.331168911534213350e+00 -9.355154199813803473e+00 -9.381243816243998168e+00 -9.449471384272072783e+00 -9.478010489082723922e+00 -9.540820792294505637e+00 -9.555373784882561949e+00 -9.613929667683041913e+00 -9.688523350587832539e+00 -9.767379029995112205e+00 -9.767379029995112205e+00 -9.826581593217841970e+00 -9.876654318525734055e+00 -9.922741646469782850e+00 -9.935745406457323625e+00 -1.002029194455951178e+01 -1.002302940658257135e+01 -1.007604926136597001e+01 -1.010657777400358626e+01 -1.013050685255437244e+01 -1.015473784425159209e+01 -1.020752468454143624e+01 -1.020752468454143624e+01 -1.027639333603156935e+01 -1.032367959801628032e+01 -1.037806300456624697e+01 -1.038416832504597487e+01 -1.042058096636642084e+01 -1.050695781689300112e+01
1.163547216480580682e+00 1.186199449530078720e+00 1.203758738411388585e+00 1.235310839045332454e+00 1.272544684718255992e+00 1.272544684718255992e+00 1.334248841324165769e+00 1.377974433466570003e+00 1.373869880181628478e+00 1.402239070145867572e+00 1.393931926497012252e+00 1.355849160002730036e+00 1.164813620084292456e+00 1.073803261673307308e+00 9.849300007119980993e-01 7.208130290552977604e-01 5.270932015874114640e-01 3.689625566695069470e-01 6.299692303473479749e-01 3.196151563984947486e-01 3.196151563984947486e-01 -6.001789653584703732e-01 -1.394385808425065765e+00 -1.692604979562534862e+00 -2.108718031715113739e+00 -2.700886498153346693e+00 -2.885244250095551521e+00 -3.146726565408791032e+00 -3.273322773483178239e+00 -3.261182351653477696e+00 -3.255881065391605933e+00 -3.271118472155275736e+00 -3.271118472155275736e+00 -3.182617838317822301e+00 -3.109044275098493237e+00 -3.109557554567875748e+00 -3.073021182950141927e+00 -2.961259341709919113e+00 -2.940215693382219886e+00 -2.856096141580979353e+00 -2.763617514223551286e+00 -2.779443873459448433e+00 -2.750723732824749135e+00 -2.602489254029002108e+00 -2.602489254029002108e+00 -3.111367616359107746e+00 -3.856254302188652616e+00 -4.115599523375923496e+00 -4.617408733727506487e+00 -5.164891492880643753e+00 -5.620349619038151445e+00 -5.741565747923585761e+00 -5.950364716547579036e+00 -6.243487182580416572e+00 -6.355547601286363424e+00 -6.467984702740118941e+00 -6.714170264952529443e+00 -6.809299635252851424e+00 -7.033088771144313078e+00 -7.099121649261206812e+00 -7.178617971098661954e+00 -7.313564556063086641e+00 -7.517539570407118177e+00 -7.517539570407118177e+00 -7.668958631486651356e+00 -7.784064779003333712e+00 -7.841713465850259190e+00 -7.935961954234262095e+00 -8.077274414423602167e+00 -8.158069508136627235e+00 -8.306045791629976804e+00 -8.384438015188905524e+00 -8.391745554404906215e+00 -8.481174266841664533e+00 -8.607595308492037134e+00 -8.607595308492037134e+00 -8.712162133409462328e+00 -8.789283492911970086e+00 -8.844596708250639594e+00 -8.863766111048011709e+00 -8.948332215280004220e+00 -9.011218617433044642e+00 -9.078615362366768693e+00 -9.138314744557167302e+00 -9.171081751495853140e+00 -9.221997474453131005e+00 -9.305184410542130635e+00 -9.305184410542130635e+00 -9.363598719354847333e+00 -9.436651092276761688e+00 -9.436651092276761688e+00 -9.502485233284676980e+00 -9.559879896596578774e+00 -9.555373784882561949e+00 -9.615693309882946238e+00 -9.698824798800348645e+00 -9.754904074598393038e+00 -9.803482787470377602e+00 -9.836263904023631710e+00 -9.868368988600302316e+00 -9.908627845244687649e+00 -9.970206224822046437e+00 -9.970206224822046437e+00 -1.003798891345982902e+01 -1.008243583290198231e+01 -1.010657777400358626e+01 -1.013614899645540390e+01 -1.017842850400747778e+01 -1.020894154002490239e+01 -1.025665493121424632e+01 -1.027838352473681738e+01 -1.030954484770620638e+01 -1.037615237728242334e+01 -1.041187820247805007e+01 -1.041187820247805007e+01 -1.049800271262981255e+01
1.170203608757134139e+00 1.186199449530078720e+00 1.202154428159190935e+00 1.229202657826722778e+00 1.251859420824652513e+00 1.314185922825363173e+00 1.321448616254818909e+00 1.334824071739236784e+00 1.346397391571637403e+00 1.409425305761278890e+00 1.409425305761278890e+00 1.326415096044130992e+00 1.152435171104967404e+00 1.073803261673307308e+00 9.568627160749469951e-01 6.704973002177598840e-01 5.270932015874114640e-01 5.038380351247451205e-01 5.108035532864532158e-01 1.438915241991796379e-01 -1.275213121972455510e-01 -1.118153567044448460e+00 -1.571413532034872773e+00 -1.848268370702889740e+00 -2.476551604857549549e+00 -2.981928084413019597e+00 -2.981928084413019597e+00 -3.212920173564881132e+00 -3.329317931521541318e+00 -3.329317931521541318e+00 -3.277411885288249671e+00 -3.175230830602455256e+00 -3.127966869176646458e+00 -3.102331070079254793e+00 -3.018021409385969633e+00 -3.095862889376169935e+00 -2.993658982655035494e+00 -2.893060147240052338e+00 -2.864303992818545641e+00 -2.782410817863235408e+00 -2.708100952387149540e+00 -2.708100952387149540e+00 -2.648956256496644901e+00 -2.573560799326378490e+00 -2.817765728977759121e+00 -3.359721992200706442e+00 -4.075377843601379446e+00 -4.358160340633100205e+00 -4.955494464010642197e+00 -5.277211598684264260e+00 -5.454493737894100747e+00 -5.819296251876153292e+00 -6.153241119925619174e+00 -6.153241119925619174e+00 -6.406424782237862381e+00 -6.643506017574227762e+00 -6.714170264952529443e+00 -6.834866734865411075e+00 -7.002106970427896648e+00 -7.099121649261206812e+00 -7.257864680468730789e+00 -7.388477542240051044e+00 -7.418022966581213851e+00 -7.622286740889175682e+00 -7.708649159374274973e+00 -7.744758311188563837e+00 -7.872856647806508512e+00 -8.052986364244807405e+00 -8.052986364244807405e+00 -8.187303408819028405e+00 -8.323862485443839887e+00 -8.384438015188905524e+00 -8.419574189046064916e+00 -8.510130588104519944e+00 -8.567220014624311375e+00 -8.664933394368301123e+00 -8.740543421787801748e+00 -8.773567493528874550e+00 -8.849681295055562558e+00 -8.928704700097544134e+00 -8.928704700097544134e+00 -9.034800888232833671e+00 -9.090389322639598646e+00 -9.138314744557167302e+00 -9.198610584855346772e+00 -9.228878587993177618e+00 -9.261712995586757202e+00 -9.351271210883755458e+00 -9.381977997404906233e+00 -9.394018253830314080e+00 -9.473543562157178854e+00 -9.529957760741671891e+00 -9.529957760741671891e+00 -9.583110126518334937e+00 -9.663678357082400083e+00 -9.698824798800348645e+00 -9.769625030338364269e+00 -9.813527549268410866e+00 -9.836263904023631710e+00 -9.890638718565446297e+00 -9.923857004293237694e+00 -9.943725979386794478e+00 -1.002923524141619183e+01 -1.004668659888519144e+01 -1.007535087103612170e+01 -1.011741684343227377e+01 -1.017252086964063196e+01 -1.017252086964063196e+01 -1.021618982412191556e+01 -1.025916566034530319e+01 -1.027838352473681738e+01 -1.033117928210761249e+01 -1.037243964896793358e+01 -1.040195541891801945e+01 -1.043304494002113181e+01 -1.048904760836662575e+01
