2.052346726217288975e+00 2.064122175717312047e+00 2.021264267677591153e+00 2.049550718536732319e+00 2.070281108141371007e+00 2.377522222598187795e+00 2.860704483129586695e+00 2.860704483129586695e+00 3.427800894181416869e+00 3.839854112926613716e+00 4.161948490913720100e+00 4.200636230719108077e+00 4.490150946989414749e+00 4.650585543271091638e+00 4.666772333495651459e+00 4.661597222961924913e+00 4.765694951317091643e+00 4.598966962051880714e+00 4.473072852173244129e+00 4.473072852173244129e+00 4.492265324910071911e+00 4.099536467344150559e+00 4.099536467344150559e+00 3.769975773388674511e+00 3.612304427850416833e+00 3.436605917568417823e+00 3.398927716754732486e+00 3.270908718242428126e+00 3.350394381734322025e+00 3.326042647701916266e+00 3.332004900191670504e+00 3.351060688077498906e+00 3.287484280943335779e+00 2.977782364819442584e+00 2.932915232318807686e+00 2.573358446866827354e+00 2.114254103545275765e+00 1.639883156503858075e+00 1.639883156503858075e+00 1.197421440296115414e+00 8.134579697519831454e-01 5.668848615160503313e-01 4.460370583735537853e-01 1.298325571380127830e-01 -2.103486445895834389e-02 -2.587806848696949102e-01 -4.505056025493726635e-01 -8.376203273013549389e-01 -1.327101088627697045e+00 -1.860118926569494402e+00 -1.860118926569494402e+00 -2.310987091925794434e+00 -2.569238944760708243e+00 -2.731151328507418263e+00 -2.912895894314676770e+00 -3.127283929236019500e+00 -3.251601628472363448e+00 -3.339290120191110045e+00 -3.479880431285419906e+00 -3.569406933321782383e+00 -3.679577378416192701e+00 -3.678787743146485933e+00 -3.669301126218275311e+00 -3.594355224193583442e+00 -3.450630390051383944e+00 -3.450630390051383944e+00 -3.228070663927957273e+00 -2.978950940402839365e+00 -2.877350111077385808e+00 -2.862836851280881056e+00 -3.096616926849259599e+00 -3.388947433012104327e+00 -3.889534118173887833e+00 -4.001722516505949123e+00 -4.353466811037995932e+00 -4.816993204504329995e+00 -5.194417011587553645e+00 -5.194417011587553645e+00 -5.536280236633677632e+00 -5.881628528946384549e+00 -6.172682992208982533e+00 -6.327306887099188870e+00 -6.687490587388854379e+00 -6.947901362769418832e+00 -7.203197197242719341e+00 -7.241237850978328616e+00 -7.475402377616065408e+00 -7.603835694906283749e+00 -7.697480486471173222e+00 -7.697480486471173222e+00 -7.847448986798676529e+00 -7.908342381122112741e+00 -8.070098010715009096e+00 -7.995597584910142608e+00 -8.018262750352857182e+00 -8.081293508836331796e+00 -8.130643373818569941e+00 -8.253479857451106128e+00 -8.300209381130773778e+00 -8.399091156283123638e+00 -8.417249990242542168e+00 -8.520989510888462348e+00 -8.633300380977384947e+00 -8.693359626739212587e+00 -8.693359626739212587e+00 -8.772645368424216272e+00 -8.878262224307478689e+00 -8.956856003092799057e+00 -8.932358827932459278e+00 -9.104225140278876083e+00 -9.129042742084582329e+00 -9.253975624904931863e+00 -9.291493600314428392e+00 -9.412760475184358100e+00 -9.517058430775591660e+00 -9.644762919003357027e+00
1.951060799314241923e+00 1.987675205053110794e+00 2.042713165460535940e+00 2.081810748364236741e+00 2.081810748364236741e+00 2.144278273124530898e+00 2.609748867579173570e+00 2.994308068843895665e+00 3.095649095050760025e+00 3.492207060481141045e+00 3.880381346112687702e+00 4.226806569164290650e+00 4.246014593270279747e+00 4.395179959797426150e+00 4.535953807728439813e+00 4.748961707882944694e+00 4.748961707882944694e+00 4.634968792765116419e+00 4.566148439761824385e+00 4.516813304234561954e+00 4.542480434227654129e+00 4.273901826495430711e+00 4.093359245378005440e+00 3.758670317446306974e+00 3.800191359961438753e+00 3.608059036627018656e+00 3.410284599661147720e+00 3.359719380236608099e+00 3.359719380236608099e+00 3.368220594042025784e+00 3.305545608278025238e+00 3.351060688077498906e+00 3.335154662380165558e+00 3.190742263135106338e+00 2.932915232318807686e+00 2.854888360702213745e+00 2.345339895364682903e+00 2.012399595879338143e+00 1.520836136064920741e+00 1.426043146697677511e+00 1.067670873400607290e+00 7.119530117902449495e-01 3.578948759276955882e-01 3.578948759276955882e-01 8.242666186773002501e-02 -1.225564964091349490e-01 -4.505056025493726635e-01 -5.999605846576433477e-01 -1.084343730209430756e+00 -1.451225745894376917e+00 -2.162666018022346925e+00 -2.264025285686001254e+00 -2.481065047916549915e+00 -2.717380010020072234e+00 -3.041940205287146703e+00 -3.041940205287146703e+00 -3.245998257060287884e+00 -3.363451104195508634e+00 -3.479880431285419906e+00 -3.487146228789427482e+00 -3.609725193191834602e+00 -3.678787743146485933e+00 -3.624824262098119476e+00 -3.640612964979850652e+00 -3.569048101428216935e+00 -3.407619130230046256e+00 -3.145458574176419830e+00 -3.145458574176419830e+00 -2.905304958729636233e+00 -2.921665648191872133e+00 -2.921665648191872133e+00 -3.217786232158307502e+00 -3.712912316085702713e+00 -4.001722516505949123e+00 -4.136965789852719233e+00 -4.570875482492967379e+00 -4.891059193496556823e+00 -5.263497909164733812e+00 -5.362150440406869834e+00 -5.658765553080877808e+00 -6.042053419450491347e+00 -6.466157860948497316e+00 -6.466157860948497316e+00 -6.850642134171129882e+00 -7.062422762140999843e+00 -7.241237850978328616e+00 -7.271369471747625823e+00 -7.395183673904547561e+00 -7.540886042657713340e+00 -7.669594469328155917e+00 -7.645484993467055901e+00 -7.750650277847433323e+00 -7.849509115221598776e+00 -7.927207228185483068e+00 -7.927207228185483068e+00 -8.023107749429449598e+00 -8.145944233061985784e+00 -8.253479857451106128e+00 -8.211686693428477568e+00 -8.295178578336333430e+00 -8.417249990242542168e+00 -8.532542440847471710e+00 -8.541042017380579665e+00 -8.594334889034733749e+00 -8.701601734493834783e+00 -8.715227304316217172e+00 -8.798253952067179640e+00 -8.914853686251722920e+00 -9.062501907921781452e+00 -9.062501907921781452e+00 -9.095365149955972228e+00 -9.192137214590518468e+00 -9.291493600314428392e+00 -9.363390912625972007e+00 -9.445543199265140188e+00 -9.529171564092333568e+00
1.951060799314241923e+00 1.962382835521760960e+00 2.058164508510018198e+00 2.072047976168052585e+00 2.097868944207565534e+00 2.225189666314451031e+00 2.225189666314451031e+00 2.674824085359673642e+00 3.115705853056707220e+00 3.115705853056707220e+00 3.547971852962437556e+00 3.974503594912683013e+00 4.246014593270279747e+00 4.168375836197821371e+00 4.409798979114904149e+00 4.567754117356307653e+00 4.715756984185862422e+00 4.695341980657233627e+00 4.612014545296407420e+00 4.567553957179087298e+00 4.362238572996702146e+00 4.362238572996702146e+00 4.392902613834769099e+00 3.965183539358911435e+00 3.800191359961438753e+00 3.810364087004162847e+00 3.604621164832103375e+00 3.424644020542664258e+00 3.418699811355731200e+00 3.427732905115817630e+00 3.319508057799083200e+00 3.354284153889915299e+00 3.306601897243237609e+00 3.306601897243237609e+00 3.200148934674218903e+00 2.737829982098594517e+00 2.345339895364682903e+00 2.232830864728859499e+00 1.750183026191632241e+00 1.426043146697677511e+00 9.580917312551211484e-01 8.571197655064818344e-01 6.121691829654873906e-01 2.494013971538741881e-01 1.562719183749817775e-01 1.506326159352527200e-02 -2.750400836936382487e-01 -7.487586533224643848e-01 -7.487586533224643848e-01 -1.227750826310353593e+00 -1.973657215372893514e+00 -2.264025285686001254e+00 -2.447999048041781034e+00 -2.731931539228308115e+00 -2.941902594843655017e+00 -3.191482602153597359e+00 -3.235510693674704452e+00 -3.369217509612530304e+00 -3.446536799830434816e+00 -3.525716001056837801e+00 -3.525716001056837801e+00 -3.620882469504388190e+00 -3.645639722933530891e+00 -3.640612964979850652e+00 -3.633266668044261571e+00 -3.511673018126219681e+00 -3.350409603093472466e+00 -3.067197502528752562e+00 -2.928638354327563587e+00 -2.864511712306414104e+00 -2.966332670620618117e+00 -3.357468653921513280e+00 -3.357468653921513280e+00 -3.785267867693697497e+00 -4.213874967080134759e+00 -4.570875482492967379e+00 -4.680440229066427094e+00 -5.072250874160094014e+00 -5.362150440406869834e+00 -5.746120100180966084e+00 -5.911423846692001938e+00 -6.173486819116327240e+00 -6.575053422919562962e+00 -6.743225272224796285e+00 -6.898737256330781165e+00 -7.062550100654801710e+00 -7.222490596396577978e+00 -7.222490596396577978e+00 -7.353148872328942431e+00 -7.433026321330705066e+00 -7.645484993467055901e+00 -7.526900050396085895e+00 -7.661722497894961847e+00 -7.816818132583116530e+00 -7.915572125040329254e+00 -7.930872984283745097e+00 -8.038408608672867217e+00 -8.161245092305401627e+00 -8.271276042751027902e+00 -8.239486108930231367e+00 -8.363990219878790100e+00 -8.473781642355175947e+00 -8.518794555223916376e+00 -8.518794555223916376e+00 -8.656264526808682191e+00 -8.755776919561736094e+00 -8.821787598381312989e+00 -8.863875880726524770e+00 -9.005678404591124675e+00 -9.033052986024062037e+00 -9.128315805733624444e+00 -9.130298804276105074e+00 -9.231978448450828267e+00 -9.367930516521820294e+00 -9.450664586174928772e+00 -9.450664586174928772e+00
1.849355675203095739e+00 1.936570677087186443e+00 2.058164508510018198e+00 2.094545233799372408e+00 2.041824133354438242e+00 2.083997247844093348e+00 2.290264884094951547e+00 2.355449426687150627e+00 2.763299246487542771e+00 3.141726759456333173e+00 3.609822341730416273e+00 3.609822341730416273e+00 3.980681381133323260e+00 4.182206083448877010e+00 4.409798979114904149e+00 4.480373947445643878e+00 4.638248536986282922e+00 4.695341980657233627e+00 4.658534306964902783e+00 4.677252432317007269e+00 4.588440526811553788e+00 4.437065305367465129e+00 4.602005486232146225e+00 4.324010153750349694e+00 3.988078292072460229e+00 3.848823139054861731e+00 3.848823139054861731e+00 3.583806596448606996e+00 3.492396457017042710e+00 3.427732905115817630e+00 3.326056257382037806e+00 3.307955682291191746e+00 3.361461954718446332e+00 3.400466611953266494e+00 3.379118921373884810e+00 3.145333982910107906e+00 2.604856642067917338e+00 2.087440205138314298e+00 2.087440205138314298e+00 1.651584706616880727e+00 1.108082992310554626e+00 8.571197655064818344e-01 7.618811846568914747e-01 4.094636881545086204e-01 1.562719183749817775e-01 -7.930425652257702684e-02 -7.241524132136627212e-02 -4.022262223602971476e-01 -8.576904863500978138e-01 -1.464377717702501691e+00 -1.464377717702501691e+00 -2.217063479446208074e+00 -2.597007494762586521e+00 -2.731931539228308115e+00 -2.958389432476392411e+00 -3.152395458201778577e+00 -3.235510693674704452e+00 -3.356445136456227551e+00 -3.463760005534954445e+00 -3.460125983651110460e+00 -3.558690499199550494e+00 -3.603066864147169035e+00 -3.608642514879461416e+00 -3.645624465444931683e+00 -3.582305649178754159e+00 -3.582305649178754159e+00 -3.380658452987709062e+00 -3.056853846565877220e+00 -2.812706811445998767e+00 -2.812706811445998767e+00 -2.832953831015938562e+00 -3.162616861018804126e+00 -3.516970720601628297e+00 -3.544879371748212105e+00 -3.969201280735790593e+00 -4.341152820866194695e+00 -4.770363779276869387e+00 -4.890473264024825184e+00 -5.189702746423067836e+00 -5.587126623482758347e+00 -6.031159876244451823e+00 -6.031159876244451823e+00 -6.438043067316260526e+00 -6.692381492542908816e+00 -6.907539092510686096e+00 -6.859242969040598936e+00 -7.021610695385231971e+00 -7.212768806486749895e+00 -7.298500537853130687e+00 -7.241493284213383674e+00 -7.433530281680249097e+00 -7.536914059149285805e+00 -7.501770161074976073e+00 -7.664192543680402814e+00 -7.807354626700169220e+00 -7.946173843527162717e+00 -7.946173843527162717e+00 -8.069010327159698903e+00 -8.171670402750365270e+00 -8.239486108930231367e+00 -8.277060164210714888e+00 -8.414035775630456016e+00 -8.471028795494552455e+00 -8.586743139119988655e+00 -8.598697519291022218e+00 -8.663197776684507190e+00 -8.767045804380099838e+00 -8.825654759835291685e+00 -8.825654759835291685e+00 -8.977387863523910383e+00 -9.068430287104053633e+00 -9.130298804276105074e+00 -9.172463296587226367e+00 -9.304983579920946823e+00 -9.373431229586948632e+00 -9.475322828709467515e+00
1.612035483842186423e+00 1.824532254877213377e+00 2.026850791231608717e+00 2.017902711057362186e+00 2.017902711057362186e+00 2.046560931374465930e+00 2.082042059096304243e+00 2.355449426687150627e+00 2.410515700773577130e+00 2.776884284394268931e+00 3.175816832106143295e+00 3.602301702851478993e+00 3.548700415119265372e+00 3.904296772322775944e+00 4.279777194304152488e+00 4.525389678844716101e+00 4.525389678844716101e+00 4.684725334052870060e+00 4.769204427122719636e+00 4.677252432317007269e+00 4.646215195525984498e+00 4.554120988072419607e+00 4.602005486232146225e+00 4.227174707224072847e+00 4.258024345801128874e+00 4.039702802095260559e+00 3.863486607707265819e+00 3.606187838421431646e+00 3.606187838421431646e+00 3.520548092457325584e+00 3.297098146551953768e+00 3.297098146551953768e+00 3.350457372528699018e+00 3.433646268279729075e+00 3.379118921373884810e+00 3.257278867137137546e+00 2.856779952518922361e+00 2.324232578378074177e+00 1.967172010132109294e+00 1.833262427355985436e+00 1.306476368394799081e+00 9.994780467664929891e-01 6.685338774190473510e-01 5.762110573528154145e-01 3.232970463113898907e-01 9.623314065813512452e-02 -2.087116564731672508e-01 -2.087116564731672508e-01 -6.192506321975601580e-01 -1.322441837754754879e+00 -1.835109785301608287e+00 -2.038982115908992032e+00 -2.516355517549379250e+00 -2.752886307382884201e+00 -3.052056629711064950e+00 -3.224058768809214826e+00 -3.237652675048134920e+00 -3.451895406722059967e+00 -3.535971537810722598e+00 -3.535971537810722598e+00 -3.616695304113777709e+00 -3.630706464744308803e+00 -3.661921215979474731e+00 -3.639049505064354761e+00 -3.540921737145516168e+00 -3.460981893694385469e+00 -3.182902586093851571e+00 -2.963507819656019393e+00 -2.810471397409717742e+00 -2.729279993622474976e+00 -2.692331253269358626e+00 -2.898098660037812024e+00 -3.282489985440984803e+00 -3.671884746190856585e+00 -3.671884746190856585e+00 -4.116107295490418316e+00 -4.564472326556320070e+00 -4.890473264024825184e+00 -5.015668294034375307e+00 -5.419529090185000619e+00 -5.726648877656207226e+00 -6.130008278609367700e+00 -6.186055685953261829e+00 -6.423002652299153681e+00 -6.667789811889878848e+00 -6.858001220535069997e+00 -6.858001220535069997e+00 -7.025624299600171874e+00 -7.104955708188899877e+00 -7.241493284213383674e+00 -7.257453589094160051e+00 -7.355627139588959196e+00 -7.501770161074976073e+00 -7.672659746221242472e+00 -7.669925771139853410e+00 -7.836439744881090519e+00 -7.961474702770580336e+00 -8.034641318023885148e+00 -8.034641318023885148e+00 -8.171939051287493427e+00 -8.269289647122937126e+00 -8.414035775630456016e+00 -8.374049835561821808e+00 -8.523600292147433422e+00 -8.598697519291022218e+00 -8.611680236108743003e+00 -8.722309125830694398e+00 -8.803767871555322699e+00 -8.945103516130174626e+00 -8.942096007412809300e+00 -9.015218743389860734e+00 -9.068460393961689903e+00 -9.239816519325383837e+00 -9.239816519325383837e+00 -9.310484292986075161e+00 -9.408394903368161977e+00
1.612035483842186423e+00 1.782971823244465348e+00 1.809724163376202899e+00 1.954486031329197404e+00 2.049114600194740010e+00 2.086591577905536177e+00 2.114971118991067378e+00 2.062130156307356188e+00 2.418167191286833884e+00 2.441565908809322227e+00 2.744013240644996188e+00 3.098883565486187486e+00 3.569425189860365499e+00 3.569425189860365499e+00 3.967668309505220758e+00 4.280793989057153581e+00 4.575515359379464186e+00 4.620319124540182898e+00 4.788633648906499118e+00 4.717424422216241808e+00 4.623547635920593812e+00 4.645565509948383465e+00 4.625931844650637892e+00 4.605900221548496987e+00 4.310300542123544076e+00 4.310300542123544076e+00 4.016348431472791525e+00 3.786391647188629861e+00 3.636431583996990735e+00 3.654881110598696470e+00 3.390566619613456290e+00 3.328587330860004911e+00 3.351723497164248222e+00 3.397985576541281194e+00 3.368778860030233524e+00 3.142748690788034427e+00 2.718186753404593148e+00 2.718186753404593148e+00 2.162266257880913312e+00 1.685376897911023963e+00 1.306476368394799081e+00 1.150189193269158583e+00 8.093728582886849932e-01 5.762110573528154145e-01 4.903624461837535753e-01 2.622487931361691671e-01 5.740516934590404047e-02 -3.571717654619551152e-01 -5.334677395632995145e-01 -8.467583854589413317e-01 -1.512696042662955431e+00 -2.268314015884464574e+00 -2.268314015884464574e+00 -2.712290382770981889e+00 -3.088111053812790718e+00 -3.224058768809214826e+00 -3.335602966598651964e+00 -3.549409909019993314e+00 -3.572894985075998342e+00 -3.649261718658156184e+00 -3.697894822234570444e+00 -3.661045229780843346e+00 -3.658148499098714534e+00 -3.591342513140250325e+00 -3.591342513140250325e+00 -3.421898335585240147e+00 -3.135529701016974258e+00 -2.963507819656019393e+00 -2.692949071297345398e+00 -2.573976386833809915e+00 -2.692331253269358626e+00 -2.966526774863138538e+00 -3.059271567863250940e+00 -3.317669545281862309e+00 -3.737880539619395925e+00 -4.238301950403325691e+00 -4.238301950403325691e+00 -4.687560203547376680e+00 -5.166288385794813642e+00 -5.166288385794813642e+00 -5.540189027609097039e+00 -5.886151865816539264e+00 -6.186055685953261829e+00 -6.172062218023662616e+00 -6.428040531269069824e+00 -6.609116751409237267e+00 -6.825156169801294581e+00 -6.820262858317929222e+00 -6.965663491496409065e+00 -7.105216801089872192e+00 -7.244025342258949784e+00 -7.244025342258949784e+00 -7.370907850720815446e+00 -7.527409514371455224e+00 -7.669925771139853410e+00 -7.706079232362168518e+00 -7.856577819965022691e+00 -7.976775562013996179e+00 -8.072064762749704414e+00 -8.102664189229072278e+00 -8.228320341458932319e+00 -8.352294052680081293e+00 -8.382634089755175211e+00 -8.382634089755175211e+00 -8.537997273214536165e+00 -8.677713770864000864e+00 -8.722309125830694398e+00 -8.750837996497510929e+00 -8.894665879227950711e+00 -8.942096007412809300e+00 -9.008267820513776059e+00 -9.004640881283124898e+00 -9.107935272437952534e+00 -9.242036643320073352e+00 -9.321251420236533747e+00 -9.321251420236533747e+00
3.830751034679154565e-01 1.501175800733766774e+00 1.814475542270159059e+00 1.814475542270159059e+00 2.034707522796159296e+00 2.122608764565170336e+00 2.114971118991067378e+00 2.036907585825397327e+00 2.138336227410644774e+00 2.441565908809322227e+00 2.662666339689250261e+00 2.647102542360076249e+00 3.138182015474051845e+00 3.602296730350903697e+00 3.998516446443939998e+00 3.998516446443939998e+00 4.282853770868061183e+00 4.711584983679774297e+00 4.711584983679774297e+00 4.802054564471612608e+00 4.723951563130115439e+00 4.645565509948383465e+00 4.716642673041485878e+00 4.776879566222999252e+00 4.739479766409977479e+00 4.264111689885258016e+00 4.238506414876387574e+00 3.984515801838187876e+00 3.791400811285445815e+00 3.620452830322976823e+00 3.620452830322976823e+00 3.352650028243009839e+00 3.322471218370950830e+00 3.397985576541281194e+00 3.355785966265208309e+00 3.302775085747939876e+00 3.106688755626970888e+00 2.562582013398738923e+00 2.349691111451120307e+00 2.001367010943246871e+00 1.518537757860318527e+00 1.049183937151878521e+00 1.049183937151878521e+00 7.186256907595494070e-01 4.599169562646028275e-01 2.622487931361691671e-01 6.126268690248577731e-02 -1.140072898258724932e-01 -5.334677395632995145e-01 -1.045945465285842202e+00 -1.204720007272366056e+00 -1.755588180296215661e+00 -2.436121791134784331e+00 -2.881246912528877768e+00 -2.881246912528877768e+00 -3.273931479845432424e+00 -3.531309682404161876e+00 -3.531309682404161876e+00 -3.685101280580138638e+00 -3.719797858006978153e+00 -3.697894822234570444e+00 -3.725746462191811936e+00 -3.665534333777653586e+00 -3.628750364250572513e+00 -3.532006981568020176e+00 -3.394667784266957256e+00 -3.283385687629965410e+00 -2.870161792746161566e+00 -2.532618560230922355e+00 -2.532618560230922355e+00 -2.559274250700561470e+00 -2.768807880840369329e+00 -3.059271567863250940e+00 -3.102598224023372708e+00 -3.500100425856339292e+00 -3.884008201041917463e+00 -4.359359105812476542e+00 -4.481515000916190594e+00 -4.837515395885931824e+00 -5.248320935011888011e+00 -5.611235587885428977e+00 -5.611235587885428977e+00 -5.921107146011170386e+00 -6.115558839804606350e+00 -6.428040531269069824e+00 -6.389968387378902825e+00 -6.628701644217358080e+00 -6.820262858317929222e+00 -6.949153900031576292e+00 -6.910452438973398337e+00 -7.077532068599357018e+00 -7.262374343386920117e+00 -7.193517827040594170e+00 -7.327904989509106848e+00 -7.535919611702817988e+00 -7.699636062232261047e+00 -7.699636062232261047e+00 -7.849635536012451453e+00 -7.972459122749042670e+00 -8.102664189229072278e+00 -8.069827358092704017e+00 -8.284576172128259586e+00 -8.292704798793236520e+00 -8.460438254601550412e+00 -8.477297027138048335e+00 -8.560162695532980592e+00 -8.680029896023407687e+00 -8.723757956096063637e+00 -8.723757956096063637e+00 -8.852599314485447124e+00 -8.947924592318472037e+00 -9.035951928322576876e+00 -9.035951928322576876e+00 -9.179089706719198105e+00 -9.253038069450330028e+00 -9.343271008689034929e+00
2.223290774592429631e-01 6.025722914418669696e-01 1.697851470375638883e+00 1.916447022060805416e+00 2.018418501851451996e+00 2.112487692937035089e+00 2.102779688873464892e+00 2.047052204405454656e+00 2.047052204405454656e+00 2.081700222192967242e+00 2.281614436954044312e+00 2.647102542360076249e+00 2.758212119190427636e+00 3.223038981246785895e+00 3.637974255823490211e+00 3.996928870286427848e+00 4.117259998552450284e+00 4.457205222289884361e+00 4.772058156272001028e+00 4.815475480036726985e+00 4.815475480036726985e+00 4.740358159287715090e+00 4.785744488852595069e+00 4.776879566222999252e+00 4.757590431412575427e+00 4.688325497013982712e+00 4.238506414876387574e+00 3.980651474610738649e+00 3.960166136251081603e+00 3.798338752454763156e+00 3.543398981321781882e+00 3.453057620407085970e+00 3.344009152806777241e+00 3.343613039744849580e+00 3.398533907436953161e+00 3.398533907436953161e+00 3.329954993104176975e+00 2.797772349797790437e+00 2.349691111451120307e+00 2.172586092754547948e+00 1.713236485627131156e+00 1.371768955166320580e+00 9.516058898312609315e-01 8.682629391579859135e-01 6.574278460561162607e-01 2.500004519068909636e-01 9.527305512183968650e-02 9.527305512183968650e-02 -3.089363477339365227e-01 -6.786974980354077980e-01 -1.204720007272366056e+00 -1.380550721312107765e+00 -2.338776207441426447e+00 -2.650171793019539201e+00 -3.124276729660238505e+00 -3.323804190881650023e+00 -3.409578127909149714e+00 -3.668217750197114935e+00 -3.759996338312024289e+00 -3.759996338312024289e+00 -3.779538951890449194e+00 -3.701674060867780724e+00 -3.665534333777653586e+00 -3.599337438957244562e+00 -3.458436314605154216e+00 -3.394667784266957256e+00 -3.238466697744781353e+00 -2.776468708206537350e+00 -2.593628220587589794e+00 -2.419178835410285888e+00 -2.358281940439158397e+00 -2.573972376635031090e+00 -2.851804083106767695e+00 -3.163848855882963385e+00 -3.163848855882963385e+00 -3.649175269785497111e+00 -4.154245885068630351e+00 -4.481515000916190594e+00 -4.658509250658050327e+00 -5.077112779838776291e+00 -5.409885910970976042e+00 -5.651934986544593364e+00 -5.668064952709308102e+00 -5.823810994824876630e+00 -6.195463835094908056e+00 -6.376987156520585565e+00 -6.436643917234188272e+00 -6.632744636543194794e+00 -6.750534518033645348e+00 -6.860177027545900863e+00 -6.860177027545900863e+00 -7.096630967575647375e+00 -7.199482144973178066e+00 -7.413835692719840331e+00 -7.421483535771593587e+00 -7.622673964285169745e+00 -7.749593785677944879e+00 -7.866988815936388768e+00 -7.900326842242497705e+00 -8.025924447469995116e+00 -8.160311715469113381e+00 -8.239996140534524116e+00 -8.239996140534524116e+00 -8.406432121329949325e+00 -8.477575850813895642e+00 -8.477575850813895642e+00 -8.594157062355979093e+00 -8.612838449024765808e+00 -8.841417635773650474e+00 -8.760164737522504907e+00 -8.886145241617573021e+00 -8.939003711953759534e+00 -9.110642057053196297e+00 -9.116142770118324634e+00 -9.184590419784328219e+00 -9.276904233669469590e+00
1.077046780115133995e-01 6.025722914418669696e-01 1.464063634515998746e+00 1.942745672313531236e+00 2.018418501851451996e+00 2.081392626895060882e+00 2.038790984378951343e+00 2.069088722329814445e+00 2.008668815181067657e+00 2.005513001558210107e+00 2.041861624336120506e+00 2.319673485006458868e+00 2.739417575216178680e+00 2.739417575216178680e+00 3.269268982971770043e+00 3.773983993173306573e+00 4.117259998552450284e+00 4.252879899719268053e+00 4.589988199747636166e+00 4.746291942167843558e+00 4.825497814621144244e+00 4.825773464416389658e+00 4.771980727617673779e+00 4.739004082906899562e+00 4.770356274988222012e+00 4.770356274988222012e+00 4.616633924316467130e+00 4.146872824453052608e+00 3.960166136251081603e+00 3.942586819468707038e+00 3.710517475244264229e+00 3.453057620407085970e+00 3.302606638025372909e+00 3.327720080756946253e+00 3.361063986911240864e+00 3.462801480707845769e+00 3.212398972840991185e+00 3.212398972840991185e+00 2.534812167978217623e+00 2.018173097726478904e+00 1.713236485627131156e+00 1.575567693230264465e+00 1.105997164514930686e+00 8.682629391579859135e-01 7.409116173020690033e-01 3.427666118333441148e-01 1.501020049981481863e-01 -2.378186833630461725e-02 -1.728780530843402885e-01 -5.551990595063878153e-01 -8.151165850762850384e-01 -1.662911223518925397e+00 -1.971520029088717152e+00 -2.568446492167759665e+00 -3.106519066847083899e+00 -3.422520389520145034e+00 -3.422520389520145034e+00 -3.678634361355123339e+00 -3.847195063901943435e+00 -3.845042668721140977e+00 -3.853668077100958822e+00 -3.752659229977886923e+00 -3.686646292443762185e+00 -3.567844333693805936e+00 -3.498644887166669548e+00 -3.375294570662825233e+00 -3.024583540716274666e+00 -2.506693226970780231e+00 -2.506693226970780231e+00 -2.335006498996781588e+00 -2.458362927323819225e+00 -2.599508107474092000e+00 -2.708252399625839413e+00 -3.002769433053315229e+00 -3.296325395078489429e+00 -3.807288682035730787e+00 -3.954553927040217687e+00 -4.282397908779235429e+00 -4.776516661425022292e+00 -4.832116332000745196e+00 -5.164632950102758358e+00 -5.437764779483999611e+00 -5.696473503588501686e+00 -5.696473503588501686e+00 -5.995695382612605151e+00 -6.193733382601529946e+00 -6.436643917234188272e+00 -6.473732144024242352e+00 -6.589384591453855577e+00 -6.774943953035958089e+00 -6.921553881388583740e+00 -6.937916443129247490e+00 -7.121084165393437360e+00 -7.303693341889961665e+00 -7.465429777758858521e+00 -7.465429777758858521e+00 -7.656795048643504131e+00 -7.794914930769072825e+00 -7.900326842242497705e+00 -7.949907381414526242e+00 -8.073842934115649683e+00 -8.201412643449319972e+00 -8.309026293878787328e+00 -8.307086555583872212e+00 -8.400749153008042924e+00 -8.491686574744077731e+00 -8.583267447149424356e+00 -8.583267447149424356e+00 -8.726696239986136305e+00 -8.828166125561706323e+00 -8.886145241617573021e+00 -8.878668216792812373e+00 -9.047686713286822169e+00 -9.116142770118324634e+00 -9.190091132849458333e+00 -9.228354916904811134e+00
2.737808630491267992e-01 7.920158916341520916e-01 1.789681723472522412e+00 1.789681723472522412e+00 1.900385684891627402e+00 1.990338284124061108e+00 2.038790984378951343e+00 1.920363713895140823e+00 1.890065771163385033e+00 2.005513001558210107e+00 2.138446806655292853e+00 2.201350283525175477e+00 2.468834995088881712e+00 2.817412311261273228e+00 3.389824312094207759e+00 3.389824312094207759e+00 3.877691709734904180e+00 4.322817614094197403e+00 4.414986658051526902e+00 4.633806865350918791e+00 4.871963111567013449e+00 4.844010291879309094e+00 4.844010291879309094e+00 4.903138887745490671e+00 4.842438349353242799e+00 4.869089845275288653e+00 4.621728694193643960e+00 4.231980719539274460e+00 4.092169142417515282e+00 3.880264152690984236e+00 3.865889699706744231e+00 3.620582268052821018e+00 3.344337741280142495e+00 3.322654339252619771e+00 3.322654339252619771e+00 3.307756091391655939e+00 3.264069198351575718e+00 2.994372339351412116e+00 2.794726728045769271e+00 2.273955121593918882e+00 1.922701120824241716e+00 1.439436314801568528e+00 1.291433481735826172e+00 1.006994172336694415e+00 6.404970162639976872e-01 2.721709313679500641e-01 2.721709313679500641e-01 1.131860887280616984e-01 -1.736245817664365809e-01 -5.551990595063878153e-01 -6.807128211866835255e-01 -1.283481454719034964e+00 -1.971520029088717152e+00 -2.186971397221300961e+00 -2.895068282719206465e+00 -3.203411421975986606e+00 -3.527243431525812323e+00 -3.666883231500057683e+00 -3.812196596136556259e+00 -3.897845106184160358e+00 -3.871144280263109305e+00 -3.871144280263109305e+00 -3.770160012654660608e+00 -3.601890655320005408e+00 -3.498644887166669548e+00 -3.373220057202457323e+00 -2.937440875581090793e+00 -2.660477352304560839e+00 -2.274267941096336898e+00 -2.247549335941504189e+00 -2.290004553964978928e+00 -2.470912546790665409e+00 -2.762945838196569248e+00 -2.762945838196569248e+00 -3.148692305702348371e+00 -3.638657071603517590e+00 -3.954553927040217687e+00 -4.071178886162738486e+00 -4.494857403826192588e+00 -4.832116332000745196e+00 -5.175434799506763106e+00 -5.243367456327554521e+00 -5.456488928534063199e+00 -5.737906431818744046e+00 -6.019723488781330012e+00 -6.019723488781330012e+00 -6.281628111484137023e+00 -6.431028455789522980e+00 -6.589384591453855577e+00 -6.617147303282042259e+00 -6.773108183036870678e+00 -6.937916443129247490e+00 -6.999551357524842032e+00 -7.171700185716121112e+00 -7.329622438790439176e+00 -7.510568891119901558e+00 -7.559943209533081188e+00 -7.664794278979812248e+00 -7.837310609118771865e+00 -7.930430815055379945e+00 -7.930430815055379945e+00 -8.095894148381816535e+00 -8.213423958159699723e+00 -8.307086555583872212e+00 -8.284673992210375815e+00 -8.367128328074169730e+00 -8.486919193731552014e+00 -8.615376394880991384e+00 -8.601407773150825165e+00 -8.687703414873592322e+00 -8.816417696815042504e+00 -8.904176928608993791e+00 -8.904176928608993791e+00 -9.011251047134436476e+00 -9.191325014495483003e+00 -9.228354916904811134e+00
2.506021062415516587e-01 9.131302512086296730e-01 1.657984962680204344e+00 1.777057245318970580e+00 1.731893900533587161e+00 1.782329833087006543e+00 1.843841435129514483e+00 1.815964942188076581e+00 1.760731121086446693e+00 1.876178351481271767e+00 2.009247661115004302e+00 2.214201389766687456e+00 2.214201389766687456e+00 2.540666689811712509e+00 3.088116002078189037e+00 3.514521826761391132e+00 3.607896301871687417e+00 4.114939000720496232e+00 4.414986658051526902e+00 4.740318882924503541e+00 4.902526882597944891e+00 4.886701356485575687e+00 4.975712693588986824e+00 4.920684417447465542e+00 4.920684417447465542e+00 4.776646856500057048e+00 4.439971598949986387e+00 4.231980719539274460e+00 4.211861136969195840e+00 3.975772305994680345e+00 3.865889699706744231e+00 3.812948870856449179e+00 3.401528522981134728e+00 3.337232831256459420e+00 3.232499247249074337e+00 3.143505879619865606e+00 3.345152441201732607e+00 3.202357783178971129e+00 2.660020276518679339e+00 2.660020276518679339e+00 2.152759676723961846e+00 1.650669313629673507e+00 1.291433481735826172e+00 1.132476877802152782e+00 8.231024879645078007e-01 5.389665476001488376e-01 2.479933118237294121e-01 2.501540457924280036e-01 1.265776299710626440e-01 -3.229187700733982536e-01 -8.282140634329354656e-01 -8.282140634329354656e-01 -1.534566013730440215e+00 -2.419479739672697693e+00 -2.895068282719206465e+00 -3.022726621190293450e+00 -3.463388368825736752e+00 -3.666883231500057683e+00 -3.914190786078010298e+00 -3.941179773465057767e+00 -3.925559871507714238e+00 -3.830354026101854270e+00 -3.711231263326714824e+00 -3.711231263326714824e+00 -3.509249494626818677e+00 -3.182279021134961638e+00 -3.182279021134961638e+00 -2.549165164898972602e+00 -2.144529272262957420e+00 -2.247549335941504189e+00 -2.219791540104567140e+00 -2.355624401552500302e+00 -2.572759818691106037e+00 -2.881846893448999580e+00 -3.011500472592085309e+00 -3.313604213094551554e+00 -3.756440780523238043e+00 -4.180034582787995667e+00 -4.180034582787995667e+00 -4.563066123202296431e+00 -4.937669550697499687e+00 -5.243367456327554521e+00 -5.244124816015371060e+00 -5.554395499236528977e+00 -5.805259665424415516e+00 -6.046262587028749635e+00 -6.126087276600797438e+00 -6.308907568061778548e+00 -6.442190194960662808e+00 -6.638116778479334457e+00 -6.638116778479334457e+00 -6.807497170258917762e+00 -7.000081849632887376e+00 -7.171700185716121112e+00 -7.210276117506366766e+00 -7.418844289530782454e+00 -7.559943209533081188e+00 -7.722841045601756882e+00 -7.774294375995046025e+00 -7.872140711009620873e+00 -7.996397355227755632e+00 -8.119761360735530786e+00 -8.119761360735530786e+00 -8.191011394786205102e+00 -8.240515865680606566e+00 -8.240515865680606566e+00 -8.376744315365773019e+00 -8.524067120615095305e+00 -8.601407773150825165e+00 -8.605829198033815075e+00 -8.746991559006431771e+00 -8.820762495721247376e+00 -8.978216533515482212e+00 -8.929693421780804385e+00 -9.044371730402403387e+00 -9.228867768039798136e+00
8.429941236427634932e-02 1.240582617605353377e+00 1.240582617605353377e+00 1.644010296405852056e+00 1.668153166812515797e+00 1.668153166812515797e+00 1.431960078314698848e+00 1.598285803149670503e+00 1.760731121086446693e+00 1.692769453274836078e+00 1.886435242551356639e+00 2.032038457136757792e+00 2.199962163116266467e+00 2.257788415398181314e+00 2.616613474547211826e+00 3.219073284852649763e+00 3.729534856907336771e+00 3.729534856907336771e+00 4.243628233306045772e+00 4.685708723247498320e+00 4.902526882597944891e+00 4.947629248554759940e+00 5.078451766022721081e+00 5.071230520797363361e+00 4.912146783455523469e+00 4.834606217632145153e+00 4.625423741188118498e+00 4.318801186777863066e+00 4.092118602969360808e+00 4.092118602969360808e+00 3.992104418223926032e+00 3.645643937799503131e+00 3.401528522981134728e+00 3.347296721664493990e+00 3.092353671372030988e+00 3.143505879619865606e+00 3.313435303167308277e+00 3.326686103976787212e+00 3.039470233077931738e+00 2.518649780819441908e+00 2.338879597630986407e+00 1.966996866728940807e+00 1.467331602986693406e+00 1.056829700300620845e+00 1.056829700300620845e+00 7.261262785933508823e-01 3.434961948015547994e-01 2.501540457924280036e-01 4.172912780818301415e-01 -8.879516929978795159e-02 -4.711334771279303002e-01 -8.933512195710289205e-01 -1.144643482576469973e+00 -1.817608463623668902e+00 -2.680992392769613542e+00 -3.234166274508685213e+00 -3.234166274508685213e+00 -3.671281303295726772e+00 -3.937802699111252913e+00 -3.941179773465057767e+00 -3.998977682965249691e+00 -3.900047759855638674e+00 -3.837232465984068863e+00 -3.639688145560805221e+00 -3.596193743635594853e+00 -3.381720451819483220e+00 -2.850298210445906477e+00 -2.250469694196925108e+00 -2.250469694196925108e+00 -2.072363189132017780e+00 -2.190346837788253342e+00 -2.355624401552500302e+00 -2.434887635507749781e+00 -2.765289928970107169e+00 -3.011500472592085309e+00 -3.437878757341465974e+00 -3.545462182418620323e+00 -3.864321604517555020e+00 -4.217075411412539943e+00 -4.296499493380999901e+00 -4.659625413178811293e+00 -4.975069827100448983e+00 -5.330199898414985427e+00 -5.330199898414985427e+00 -5.625104743922442196e+00 -5.891300646092787474e+00 -6.126087276600797438e+00 -6.136296595127526565e+00 -6.291512955030670540e+00 -6.470852522398704565e+00 -6.603789587768672753e+00 -6.694175581992896085e+00 -6.885021956556272471e+00 -7.039707029542280559e+00 -7.274407470861496527e+00 -7.310952047113495667e+00 -7.472345281272969153e+00 -7.650767160434440939e+00 -7.794374040604715503e+00 -7.794374040604715503e+00 -7.932436165887187585e+00 -8.003686199937861900e+00 -8.097348797362032613e+00 -8.074936233988537992e+00 -8.124333356803134620e+00 -8.242570081404263505e+00 -8.385175384877788574e+00 -8.418105793469148779e+00 -8.511476677925793766e+00 -8.685875606845714358e+00 -8.766175763763090600e+00 -8.766175763763090600e+00 -8.911066962439402772e+00 -9.033895905221765332e+00 -9.033895905221765332e+00 -9.228564187524494145e+00
-1.141781634179799831e-01 1.219866142694509270e-01 7.799262296094866542e-01 6.278507669950840475e-02 6.395628416938164973e-01 1.045398820082419772e-01 -7.686405889273495440e-01 -7.686405889273495440e-01 -2.308714398080994323e-01 1.763985525706453616e+00 1.886435242551356639e+00 1.914806865714498318e+00 2.051273566047634223e+00 2.257788415398181314e+00 2.782891670717848598e+00 2.932515783296266942e+00 3.340914249303126748e+00 3.905904441096503366e+00 4.040272522002346101e+00 4.424374709204563771e+00 4.933090653628876332e+00 5.006461562996705972e+00 5.006461562996705972e+00 5.199817130640208340e+00 4.990026238518919577e+00 4.834606217632145153e+00 4.706959636029299787e+00 4.480990173417833233e+00 4.322467812814081434e+00 4.069470156077649392e+00 4.092524954102719548e+00 3.987320514700455121e+00 3.493854550146131110e+00 3.297522234568798449e+00 3.297522234568798449e+00 3.073623827016110255e+00 3.338902161821200920e+00 3.326686103976787212e+00 3.226474437666540851e+00 2.746264055742794863e+00 2.338879597630986407e+00 1.838115570799466081e+00 1.701887067314880264e+00 1.313127743656845814e+00 9.997161046980784782e-01 5.523987415580466909e-01 5.523987415580466909e-01 4.409878134673668737e-01 3.029459657694875130e-01 -8.879516929978795159e-02 -2.219292319208103770e-01 -6.539721333717127827e-01 -1.144643482576469973e+00 -1.451386760432872958e+00 -2.263241128422685211e+00 -2.833953377693411380e+00 -3.363607900907108039e+00 -3.476277927435492465e+00 -3.782557867606632485e+00 -3.921358207593535816e+00 -3.962116663269287464e+00 -3.888655706714504223e+00 -3.902538984811942946e+00 -3.715843098325110283e+00 -3.418179875592385120e+00 -3.418179875592385120e+00 -2.763155545310722605e+00 -2.108254343841701406e+00 -2.027941131837212918e+00 -1.952526231583057603e+00 -2.128603435447515402e+00 -2.256434846797489957e+00 -2.539084062577303680e+00 -2.619612363763254681e+00 -2.845755723407678683e+00 -3.265309611793111966e+00 -3.651326168076722389e+00 -3.651326168076722389e+00 -3.987953366242627418e+00 -4.417123638909949079e+00 -4.701596153061675665e+00 -4.774320776981011427e+00 -5.133696671215175478e+00 -5.357783932936640348e+00 -5.692186564526793724e+00 -5.675133418608045766e+00 -5.948290727537702161e+00 -6.106301032252205552e+00 -6.311481213394413814e+00 -6.311481213394413814e+00 -6.477378670850136189e+00 -6.742499686413651716e+00 -6.742499686413651716e+00 -6.913516164999999880e+00 -7.151552057051390854e+00 -7.310952047113495667e+00 -7.340264580245060344e+00 -7.499411748475090178e+00 -7.669197793539108687e+00 -7.755304613717999729e+00 -7.739622221547225678e+00 -7.915127594915714049e+00 -7.981273636564367280e+00 -8.052523670615041596e+00 -8.052523670615041596e+00 -8.132459345083894675e+00 -8.273652635370094544e+00 -8.418105793469148779e+00 -8.436418327709036546e+00 -8.614730347487718376e+00 -8.677565421197822815e+00 -8.802527655106601401e+00 -8.843917391363321556e+00 -8.878844714469426691e+00 -9.122565394346008105e+00 -9.308369412896757567e+00
2.038731908695741446e-01 4.428598048437745738e-02 -5.383705402982219557e-02 6.278507669950840475e-02 -6.774661896946256867e-01 -9.635329205949867415e-01 -6.845736992601343385e-01 -8.521367485792057384e-01 -6.175382461396551337e-01 2.343008470758046746e-01 1.673614806940122657e+00 1.838305510450238822e+00 1.838305510450238822e+00 2.081041589132343717e+00 2.530408512234004093e+00 2.932515783296266942e+00 3.034406024959100723e+00 3.623669722682566707e+00 4.040272522002346101e+00 4.586343735423040968e+00 4.835744660109127402e+00 4.938659780817714839e+00 5.070724900720272821e+00 5.155559804273186941e+00 5.155559804273186941e+00 4.972870298300559710e+00 4.692424153912156726e+00 4.480990173417833233e+00 4.529085274930549687e+00 4.234392767966414617e+00 4.106312251009115677e+00 4.106312251009115677e+00 3.725418148292445331e+00 3.432175426519262107e+00 3.181490042683317032e+00 3.207375332549849745e+00 3.325274366943865356e+00 3.347376129995430105e+00 3.144067623130131217e+00 3.008677133889632760e+00 2.590192561010398187e+00 2.054516864844556423e+00 1.569001413720315430e+00 1.569001413720315430e+00 1.181927993703455693e+00 7.567581740283721992e-01 5.676061723943014448e-01 6.558670164991811102e-01 3.648419467616700329e-01 1.589571218428569854e-01 -3.230892136742892218e-01 -4.304750986213612962e-01 -7.937554445029753047e-01 -1.649929745781256285e+00 -2.511476595603210349e+00 -2.511476595603210349e+00 -3.079944227440968518e+00 -3.563780888194568508e+00 -3.807024235796985234e+00 -3.778340255366304135e+00 -3.827428200216751453e+00 -3.888655706714504223e+00 -3.810030388701293624e+00 -3.699427047523660583e+00 -3.587361415742905901e+00 -3.123952520276832789e+00 -2.758025084029041452e+00 -2.379546542853224533e+00 -1.955929366149561588e+00 -2.004946926676585583e+00 -2.004946926676585583e+00 -2.199891128260724749e+00 -2.406367993372363401e+00 -2.619612363763254681e+00 -2.687886865000359116e+00 -3.050372628528789321e+00 -3.337910324424199882e+00 -3.707630739726664792e+00 -3.794723241498759947e+00 -4.104113669833808764e+00 -4.462677456703906032e+00 -4.840135994419416221e+00 -4.840135994419416221e+00 -5.185026120461341037e+00 -5.501300746902964889e+00 -5.675133418608045766e+00 -5.756261325476451418e+00 -5.928236665965386010e+00 -6.123681147350275467e+00 -6.319146392750556451e+00 -6.370882528994549432e+00 -6.539071490006516996e+00 -6.765595724038576009e+00 -6.973792243730745355e+00 -6.973792243730745355e+00 -7.166483199132530402e+00 -7.353223835802017661e+00 -7.499411748475090178e+00 -7.522834784027330635e+00 -7.585869901323856190e+00 -7.739622221547225678e+00 -7.745011453003206370e+00 -7.845421991176733556e+00 -7.958861073190871771e+00 -8.030111107241546975e+00 -8.041665342319237908e+00 -8.171485821594107080e+00 -8.307157693424342071e+00 -8.423966151725924334e+00 -8.423966151725924334e+00 -8.606644978276811742e+00 -8.750894230307407540e+00 -8.843917391363321556e+00 -8.860428414977121747e+00 -9.094352967529067300e+00 -9.212046083619814141e+00
1.386663305692002746e-02 -2.028867682349465573e-01 -5.461872266697136435e-01 -8.590727091848889829e-01 -1.220443952135886523e+00 -1.322123000083043065e+00 -1.126539773972631719e+00 -9.379304507570825900e-01 -5.316081469991177366e-01 -5.316081469991177366e-01 5.959123204387404282e-01 1.712985663838419104e+00 1.866469406813444865e+00 1.978368625831672611e+00 2.238181814125817404e+00 2.636293919542459285e+00 3.176946974644978550e+00 3.368111925294497322e+00 3.805547009003818371e+00 4.435712744458600199e+00 4.871880808817701691e+00 4.871880808817701691e+00 4.995860016642239110e+00 5.144512445974131154e+00 5.087218009463191137e+00 5.067571438387809657e+00 4.912821824108331903e+00 4.741920201107055810e+00 4.482038019454384958e+00 4.407339291604953857e+00 4.206918981921100809e+00 4.064766851204623777e+00 3.618890084349342118e+00 3.618890084349342118e+00 3.330214200078582820e+00 3.265460146473663006e+00 3.325274366943865356e+00 3.339866964407542937e+00 3.300006998383964607e+00 3.008677133889632760e+00 2.858925912284828730e+00 2.314214992845106789e+00 1.941217755631466924e+00 1.449969347967081656e+00 1.364139882708832241e+00 1.060648161301589898e+00 7.618593956427259783e-01 5.707267716804829139e-01 5.707267716804829139e-01 2.208531028350395331e-01 -5.222477873680260452e-02 -4.304750986213612962e-01 -5.341322415520756151e-01 -1.276875419687743651e+00 -1.890186802329172799e+00 -2.635445597666218998e+00 -2.788055521730890884e+00 -3.233045821188873958e+00 -3.636554962110115419e+00 -3.746723358529393533e+00 -3.746723358529393533e+00 -3.794777402229489560e+00 -3.813523071995473579e+00 -3.699427047523660583e+00 -3.580588496018786593e+00 -3.106132974216730069e+00 -2.758025084029041452e+00 -2.091099346758062083e+00 -1.974389145010350344e+00 -1.948407378877660800e+00 -2.095873110235451087e+00 -2.285160488995267247e+00 -2.285160488995267247e+00 -2.518404881319042943e+00 -2.777794379552446458e+00 -3.050372628528789321e+00 -3.118265095901498363e+00 -3.497927543408463791e+00 -3.794723241498759947e+00 -3.899780775836497959e+00 -4.254681565884277816e+00 -4.558496821914355124e+00 -4.936372166766387792e+00 -5.015931847792708176e+00 -5.261559422183082368e+00 -5.475510467194664166e+00 -5.739973817635318554e+00 -5.739973817635318554e+00 -5.959468713048750921e+00 -6.172848910541077316e+00 -6.370882528994549432e+00 -6.425639444462962757e+00 -6.645477211080994095e+00 -6.790566338908327282e+00 -7.018277385933006762e+00 -7.022310762686286623e+00 -7.202394018660595698e+00 -7.343728143307806100e+00 -7.473488171201709385e+00 -7.473488171201709385e+00 -7.524718804700542663e+00 -7.700077622216368489e+00 -7.845421991176733556e+00 -7.815763389001038952e+00 -7.914035946443878977e+00 -8.041665342319237908e+00 -8.232927074374170928e+00 -8.217226598199310672e+00 -8.360696676409810735e+00 -8.543585088129720617e+00 -8.642767567847434051e+00 -8.642767567847434051e+00 -8.776767820287242117e+00 -9.012944254860489224e+00 -9.012944254860489224e+00 -9.199304172608213648e+00
-5.728633835304520333e-03 -2.948548324349558603e-01 -5.461872266697136435e-01 -9.971230053136088678e-01 -1.361508002570506637e+00 -1.322123000083043065e+00 -9.987265159898868205e-01 -1.223394142952062058e+00 -1.158857204075182556e+00 -6.435094698810488456e-01 2.857115916212624174e-01 2.857115916212624174e-01 1.803493868060376926e+00 2.040392948261215089e+00 2.238181814125817404e+00 2.321687226052863817e+00 2.887939875806804224e+00 3.368111925294497322e+00 3.606295739591511396e+00 4.286121722925521738e+00 4.661553496813683140e+00 4.948272430855598536e+00 4.927011562825056146e+00 5.072957873943663820e+00 5.097629786569337185e+00 5.122309712614979027e+00 5.122309712614979027e+00 5.002349772620187096e+00 4.704428422670163812e+00 4.407339291604953857e+00 4.359040740933927793e+00 4.203077247646245240e+00 3.952118951568842853e+00 3.582532944034329425e+00 3.478938357473848164e+00 3.319954433124841842e+00 3.314100556878161630e+00 3.360894776742862966e+00 3.360894776742862966e+00 3.249767153356749816e+00 2.718003875482897236e+00 2.314214992845106789e+00 2.170873716412347498e+00 1.696480179431083313e+00 1.364139882708832241e+00 9.650470565938363832e-01 9.580219698352367974e-01 7.661793545852202403e-01 4.265997867348377826e-01 1.172502796757927540e-01 1.172502796757927540e-01 -2.045739253002303581e-01 -7.308991503008217538e-01 -7.308991503008217538e-01 -1.517132476235660388e+00 -2.334977840872742405e+00 -2.788055521730890884e+00 -2.966582913253885678e+00 -3.424274609495127741e+00 -3.630655863795779759e+00 -3.703163570612965305e+00 -3.804464092143859055e+00 -3.818643082819063839e+00 -3.706822508088031043e+00 -3.409651466544329157e+00 -3.409651466544329157e+00 -2.735726025943693962e+00 -2.078770923714845953e+00 -1.974389145010350344e+00 -1.936779806011885485e+00 -2.061308406685494976e+00 -2.163371418157423065e+00 -2.338218507583740280e+00 -2.416976783085531544e+00 -2.574327557286643309e+00 -2.835886267846892572e+00 -3.226744500945189387e+00 -3.226744500945189387e+00 -3.605639373500357792e+00 -3.963934085363668203e+00 -4.254681565884277816e+00 -4.346229682581634890e+00 -4.744780820021275325e+00 -5.015931847792708176e+00 -5.310414929279136054e+00 -5.275887515781283454e+00 -5.564044958530178775e+00 -5.750172299678567356e+00 -5.788550652914689287e+00 -5.962636844992817764e+00 -6.217768087006190214e+00 -6.419702776895983121e+00 -6.419702776895983121e+00 -6.670434869248511589e+00 -6.881028025732892850e+00 -7.022310762686286623e+00 -7.062262108309596442e+00 -7.172916466748958442e+00 -7.376471774515552582e+00 -7.454484791374691000e+00 -7.390326886978744625e+00 -7.531202099880624168e+00 -7.655401274744199291e+00 -7.846619823563919738e+00 -7.849962061075367536e+00 -7.948442186753132077e+00 -8.110239828750028579e+00 -8.302610450524422703e+00 -8.302610450524422703e+00 -8.466695050374051235e+00 -8.574264934688745399e+00 -8.699707692807137960e+00 -8.716889527679358096e+00 -8.955756623282153939e+00 -9.077373066080166808e+00 -9.321296129860732194e+00
8.929062966484543895e-02 -1.003665203178397275e-01 -6.526127821732100598e-01 -1.216252259063305141e+00 -1.216252259063305141e+00 -1.442599929534968073e+00 -1.174058329437649206e+00 -1.223394142952062058e+00 -1.594793125468072281e+00 -1.763411030310964467e+00 -1.117904189782178426e+00 4.665574695216657686e-01 1.608936960830349649e+00 1.894509573834577854e+00 2.056023862087496212e+00 2.449032898050448992e+00 2.449032898050448992e+00 3.134681274285854968e+00 3.903174464575643654e+00 4.286121722925521738e+00 4.493405327778827285e+00 4.901456558538209940e+00 4.927011562825056146e+00 5.097844021821940963e+00 5.099172918119795561e+00 5.143572596600721525e+00 5.132994433501867348e+00 5.138720232738227089e+00 4.967120257212851442e+00 4.625804359240855312e+00 4.337943862704435105e+00 4.337943862704435105e+00 4.129753950824225583e+00 3.722810656272886654e+00 3.478938357473848164e+00 3.462547376014559752e+00 3.318193669320057992e+00 3.331976945948002644e+00 3.391678518247667640e+00 3.392045486267699417e+00 3.126537572202223725e+00 2.564899112977625961e+00 2.045905440113151563e+00 2.045905440113151563e+00 1.567067195559235682e+00 1.169901090582527559e+00 9.580219698352367974e-01 8.793056249126918189e-01 5.123512628579723893e-01 2.773539382189389446e-01 2.672690534453638356e-01 1.003939996034486359e-02 -2.875962186138852905e-01 -9.102841409396503769e-01 -1.761788065121128621e+00 -1.761788065121128621e+00 -2.530150878430384775e+00 -3.100097496946149889e+00 -3.424274609495127741e+00 -3.448809649919407416e+00 -3.646276899534831362e+00 -3.804464092143859055e+00 -3.795067425995997112e+00 -3.727001839882202461e+00 -3.593629081577317308e+00 -3.120916683326752761e+00 -2.789826291317402784e+00 -2.369303913641217729e+00 -1.977917697279851783e+00 -2.021300208296928247e+00 -2.021300208296928247e+00 -2.121004065007884520e+00 -2.258136920876882225e+00 -2.440488106988243366e+00 -2.440488106988243366e+00 -2.716149613881349012e+00 -3.014689723562244517e+00 -3.291208422252161370e+00 -3.411184966123917306e+00 -3.797629925368140924e+00 -4.093152845397975526e+00 -4.461675407578670871e+00 -4.533135937269334725e+00 -4.801411124755688320e+00 -5.129186715385404938e+00 -5.342961040274106566e+00 -5.342961040274106566e+00 -5.561945842535608975e+00 -5.789634389711025619e+00 -5.993542382488998399e+00 -6.065923638883786495e+00 -6.286354637558595471e+00 -6.507505714972834809e+00 -6.720719962302377226e+00 -6.744674627382446275e+00 -6.869655984942123261e+00 -7.055675180381506095e+00 -7.191963162060461379e+00 -7.191963162060461379e+00 -7.315133318344188673e+00 -7.415391423924539538e+00 -7.415391423924539538e+00 -7.565675129669410914e+00 -7.745663939481334026e+00 -7.849962061075367536e+00 -7.859890930546463039e+00 -8.005798630211957700e+00 -8.191265539738779466e+00 -8.281256486356959101e+00 -8.351257396857450388e+00 -8.429514017457558239e+00 -8.629047855251624100e+00 -8.799511359052226922e+00 -8.799511359052226922e+00 -9.076958782717278851e+00 -9.351396437075900181e+00
8.929062966484543895e-02 -3.523052160835817292e-01 -4.847976897561085963e-01 -8.488067979808076036e-01 -1.308938911112584869e+00 -1.336776705304268731e+00 -1.295099170861945037e+00 -1.450978337926944306e+00 -1.826284721621822094e+00 -1.826284721621822094e+00 -1.757147929809125042e+00 -9.042241119205256528e-01 1.608936960830349649e+00 1.723865080757082335e+00 1.990169237312883421e+00 2.155770496851652673e+00 2.737311348970910885e+00 2.992438611767366030e+00 3.442017862063981859e+00 4.145055743351051092e+00 4.741759437740099337e+00 4.741759437740099337e+00 4.857228237062257925e+00 5.059708661191278267e+00 5.099172918119795561e+00 5.067685733118231006e+00 5.161768920841983466e+00 5.138720232738227089e+00 4.862692591372655748e+00 4.835390069407690561e+00 4.554731894337297859e+00 4.256794043580484299e+00 3.895333297369958814e+00 3.895333297369958814e+00 3.648472852599729865e+00 3.459161402297366461e+00 3.318193669320057992e+00 3.334296343992136258e+00 3.383191553889811853e+00 3.296507839257001748e+00 3.296507839257001748e+00 2.779372919902477701e+00 2.281869217120886528e+00 1.928698215686998063e+00 1.795719909743986875e+00 1.363686713984038068e+00 1.111554731416832142e+00 7.615430505612206247e-01 7.271617503113984027e-01 4.522915443989058426e-01 3.087712530957277268e-01 -6.654587628964754586e-02 -6.654587628964754586e-02 -5.640398651187429335e-01 -1.366143532652737358e+00 -1.940908199811371970e+00 -2.174970792199764524e+00 -2.773159645452821120e+00 -3.186780272814583981e+00 -3.460536224079117762e+00 -3.498819700235168639e+00 -3.674770285616271170e+00 -3.733252254778890222e+00 -3.602541509627838590e+00 -3.602541509627838590e+00 -3.191533944401395040e+00 -2.477142043563438367e+00 -2.154178512951220092e+00 -2.054272097587829027e+00 -2.019618034239925475e+00 -2.062578067531901205e+00 -2.173823837130019587e+00 -2.185205349739661962e+00 -2.309214652336996298e+00 -2.486571050052170939e+00 -2.516670419396262570e+00 -2.746841820470373285e+00 -3.106984771786547750e+00 -3.541803881934125986e+00 -3.541803881934125986e+00 -3.900496798760046513e+00 -4.218893449375807236e+00 -4.533135937269334725e+00 -4.565389323377090136e+00 -4.897647108335565491e+00 -5.127978041438716161e+00 -5.352451895622465372e+00 -5.361015556427560114e+00 -5.579162052083271206e+00 -5.839628680101205838e+00 -6.070708893983306709e+00 -6.070708893983306709e+00 -6.356107304135212743e+00 -6.576443526953847041e+00 -6.744674627382446275e+00 -6.713737899756907268e+00 -6.876008214429387699e+00 -7.019299843926215310e+00 -7.148398871250948972e+00 -7.132395019960211968e+00 -7.260766231518653413e+00 -7.441190678404247194e+00 -7.612584395708890561e+00 -7.612584395708890561e+00 -7.749082638798695299e+00 -7.905040460483091280e+00 -8.005798630211957700e+00 -8.081703394926508466e+00 -8.225177109782686458e+00 -8.351257396857450388e+00 -8.510332666031166227e+00 -8.556879521953636214e+00 -8.656961229655252055e+00 -8.865733992658199725e+00 -9.090943712460175519e+00 -9.225416662995533201e+00
1.505901715370747129e-01 -2.120899623873560291e-01 -4.847976897561085963e-01 -6.082296886680643722e-01 -1.224678789044884919e+00 -1.336776705304268731e+00 -1.344626307952668798e+00 -1.546587305233482201e+00 -1.935724296423561697e+00 -2.003375577986709288e+00 -1.804197930493368407e+00 -1.835911181555300420e+00 -6.859910368134336522e-01 1.830683041182805448e+00 1.920775142624129739e+00 2.104851521655030311e+00 2.595158609367916203e+00 3.307304528372266628e+00 3.307304528372266628e+00 4.003442915010524850e+00 4.665544391381242662e+00 4.844111097459547821e+00 4.784061662201843035e+00 4.981987909917478419e+00 5.101068787790232761e+00 5.073208349385371463e+00 5.177013736918205211e+00 5.102600051104300150e+00 4.908056303044149971e+00 4.777065675586520399e+00 4.777065675586520399e+00 4.331090176796163149e+00 3.962372159354293988e+00 3.814634455815449687e+00 3.808212709655645956e+00 3.681075966062018701e+00 3.386714640307717517e+00 3.344244078121415775e+00 3.342893185821599555e+00 3.396760090653339059e+00 3.196785310401831559e+00 2.612235559866011414e+00 2.612235559866011414e+00 2.158484879691151548e+00 1.707117054409589718e+00 1.363686713984038068e+00 1.269071539772969492e+00 9.337930485848153772e-01 7.271617503113984027e-01 4.035055165775690567e-01 3.282354591051501180e-01 1.604513827481284516e-01 -1.294926074759482626e-01 -3.318491487623624892e-01 -7.521693165852978424e-01 -1.570935458147709074e+00 -2.314361181700963943e+00 -2.314361181700963943e+00 -2.902694163415225237e+00 -3.288072671222046495e+00 -3.498819700235168639e+00 -3.487195106072951578e+00 -3.618044840623845460e+00 -3.668072788997024603e+00 -3.471074477608802944e+00 -3.241293927328974256e+00 -2.881290717750324415e+00 -2.257865319972291118e+00 -2.034544707285114384e+00 -2.034544707285114384e+00 -2.057954517708060482e+00 -2.145627629555066918e+00 -2.185205349739661962e+00 -2.211342005722120252e+00 -2.383116902507368184e+00 -2.516670419396262570e+00 -2.823384807013087361e+00 -2.925834273739921443e+00 -3.217049099723981787e+00 -3.631568631624237042e+00 -3.947036012413156936e+00 -3.947036012413156936e+00 -4.317989399828399577e+00 -4.646791971892483275e+00 -4.897647108335565491e+00 -4.905006066965805545e+00 -5.154276465304097776e+00 -5.361015556427560114e+00 -5.417312799475736185e+00 -5.715442745816343262e+00 -5.905714094079790755e+00 -6.155905519354130107e+00 -6.228073130394860435e+00 -6.420321428629542915e+00 -6.593848907016304217e+00 -6.732538906768865239e+00 -6.732538906768865239e+00 -6.863991276002439967e+00 -6.986871958245598258e+00 -7.132395019960211968e+00 -7.163048123883632101e+00 -7.296158609646455240e+00 -7.488292729134260917e+00 -7.633988086502070836e+00 -7.655391777295250222e+00 -7.772054092402703063e+00 -7.932267003909731606e+00 -8.126455472137898539e+00 -8.126455472137898539e+00 -8.228258336411165885e+00 -8.436782488514715794e+00 -8.556879521953636214e+00 -8.619830048031737135e+00 -8.936328706827719515e+00 -9.090943712460175519e+00 -9.390491428747012037e+00
1.625440110774568347e-01 -1.638478859797340981e-01 -3.599362263878570500e-01 -9.264059243747280181e-01 -1.261945623168272634e+00 -1.314822366763615857e+00 -1.544006057039635005e+00 -1.779523325189476646e+00 -1.779523325189476646e+00 -1.984475065464238241e+00 -1.997945419524497224e+00 -1.835911181555300420e+00 -1.864704698085052348e+00 1.744414247369741489e+00 1.920775142624129739e+00 2.223821506976725537e+00 2.457932525830640813e+00 2.849307976400130560e+00 3.606861424758277312e+00 4.261633153911686733e+00 4.261633153911686733e+00 4.824059367944023791e+00 4.835875030278389275e+00 4.981987909917478419e+00 5.091797865851598104e+00 5.029976387153154427e+00 5.177013736918205211e+00 5.089057860478352069e+00 4.990747344932746188e+00 4.896178323542862643e+00 4.676463300509072774e+00 4.400964951946416015e+00 4.150998301903054966e+00 3.900249023848624041e+00 3.732600045490494622e+00 3.732600045490494622e+00 3.489487346139648505e+00 3.359068857546117393e+00 3.342893185821599555e+00 3.358258996882679259e+00 3.299595248147223714e+00 2.997758980335037293e+00 2.501150393021155161e+00 2.384178727999357594e+00 2.035326162841543773e+00 1.608240578707743618e+00 1.192733909012346327e+00 1.192733909012346327e+00 8.987953545929177057e-01 5.868463330234606756e-01 3.282354591051501180e-01 2.865117666583491540e-01 3.208225486196442100e-02 -3.318491487623624892e-01 -1.079682155005844413e+00 -1.311132680796404770e+00 -1.815088303777543155e+00 -2.464781733455310153e+00 -3.001334271924455344e+00 -3.001334271924455344e+00 -3.316751069224961768e+00 -3.489023006458940035e+00 -3.489023006458940035e+00 -3.597707289718637291e+00 -3.442457664989362787e+00 -3.241293927328974256e+00 -3.005885886684374508e+00 -2.445302113292670665e+00 -2.151819288413736153e+00 -2.039702336824595008e+00 -2.030603343079846468e+00 -2.047864793289423169e+00 -2.120625362152427584e+00 -2.259720386234653322e+00 -2.259720386234653322e+00 -2.446841364362358551e+00 -2.708370175761849907e+00 -2.925834273739921443e+00 -3.046683086391906325e+00 -3.430354682773168129e+00 -3.706870870968438592e+00 -4.035182792766097037e+00 -4.119404116288137629e+00 -4.326940822856832014e+00 -4.682126257366568289e+00 -4.954018042858769455e+00 -4.954018042858769455e+00 -5.185670896799272178e+00 -5.482089700528425702e+00 -5.715442745816343262e+00 -5.775036012089628912e+00 -6.056339541471642107e+00 -6.228073130394860435e+00 -6.449362775462018860e+00 -6.462303391878839065e+00 -6.581356027061801228e+00 -6.736381160123126932e+00 -6.862242361466357465e+00 -6.862242361466357465e+00 -6.965137025525018899e+00 -7.176086657832118298e+00 -7.176086657832118298e+00 -7.322045588823769435e+00 -7.525810217883293518e+00 -7.655391777295250222e+00 -7.659460517210900932e+00 -7.799277474425156065e+00 -7.970796665077783061e+00 -8.133216119382892018e+00 -8.149969811030240763e+00 -8.262436314456959252e+00 -8.497659538574559690e+00 -8.783157915026180262e+00 -8.915485499676261583e+00 -9.082171793828216266e+00 -9.417267127657570569e+00
4.652373133474349554e-02 4.652373133474349554e-02 -2.739276173764436662e-01 -7.794137596341741414e-01 -1.261945623168272634e+00 -1.349878827124859182e+00 -1.703694087070790175e+00 -1.664368438645245085e+00 -1.878557905000711958e+00 -1.957075771666884956e+00 -1.973365579379224855e+00 -1.981458399487549427e+00 -2.746750497674339542e-01 -2.746750497674339542e-01 1.877497354078937031e+00 2.174056532071707348e+00 2.457932525830640813e+00 2.721980948992982707e+00 3.502448297083726736e+00 3.906490146729770352e+00 4.600841111857689292e+00 4.827532221925715739e+00 4.825246997749612632e+00 4.956791103860937575e+00 5.024700301792300650e+00 5.024700301792300650e+00 5.189709915863152112e+00 5.119994328652063942e+00 4.990747344932746188e+00 4.897110478257766353e+00 4.741122317959216126e+00 4.400964951946416015e+00 4.064644140585523147e+00 3.974692957074807076e+00 3.826116082898185944e+00 3.707188733786156654e+00 3.435466372402422586e+00 3.435466372402422586e+00 3.326601399589332431e+00 3.341736269768026180e+00 3.341736269768026180e+00 3.198289393196208863e+00 2.729163765573723310e+00 2.384178727999357594e+00 2.267585144448624579e+00 1.843254395561354064e+00 1.527503905200112033e+00 1.132556709171923304e+00 1.069662276960313907e+00 8.357897440496619978e-01 5.313590699197421330e-01 2.014154432924292193e-01 2.014154432924292193e-01 -1.035647088180565445e-01 -8.654134121998288132e-01 -1.311132680796404770e+00 -1.462262790173847637e+00 -2.187637292842922854e+00 -2.608627166333516989e+00 -3.005816980762228585e+00 -3.031799656394197573e+00 -3.274457170478022316e+00 -3.470761973399292266e+00 -3.538448310321271606e+00 -3.538448310321271606e+00 -3.296602473768960095e+00 -2.795648918772230651e+00 -2.445302113292670665e+00 -2.328935702100629168e+00 -2.075946169553732013e+00 -2.030603343079846468e+00 -2.050271075673975041e+00 -2.047779038061569246e+00 -2.153198077178130720e+00 -2.288225670178349880e+00 -2.362781986204072648e+00 -2.529993646704260524e+00 -2.788930507453601049e+00 -3.117557217775333012e+00 -3.117557217775333012e+00 -3.496782181864137140e+00 -3.851313630677474453e+00 -4.041219534602499941e+00 -4.041219534602499941e+00 -4.480697038005055255e+00 -4.772794009469707888e+00 -4.978996791930006438e+00 -5.042661024282373283e+00 -5.353479928522738795e+00 -5.586721147923462638e+00 -5.842520752783488369e+00 -5.911094841948567158e+00 -6.088715085251894976e+00 -6.314674870254604500e+00 -6.495395658113455539e+00 -6.495395658113455539e+00 -6.577408078267342972e+00 -6.723893440362152418e+00 -6.851399977130920860e+00 -6.837567216325949992e+00 -7.031177411714782721e+00 -7.177209854749543538e+00 -7.423827448772112092e+00 -7.388601873159804434e+00 -7.525356772359502955e+00 -7.664022447180730779e+00 -7.933068225716208843e+00 -7.933068225716208843e+00 -8.089998466206120398e+00 -8.203909960603359863e+00 -8.203909960603359863e+00 -8.476308257400635426e+00 -8.762314707874722330e+00 -8.915485499676261583e+00 -9.056834134349744048e+00 -9.394416231345775969e+00
2.040195096526975782e-01 2.779920340587005607e-03 -2.762124838935409166e-01 -2.762124838935409166e-01 -1.128408110091171146e+00 -1.512942012829284755e+00 -1.703694087070790175e+00 -1.799716670596364754e+00 -1.940680457689656135e+00 -1.957075771666884956e+00 -1.952622686357017745e+00 -1.980954498898189087e+00 -1.965518068743820734e+00 1.621490560924922608e+00 1.825661308969549701e+00 2.016672858898705289e+00 2.336528773539048309e+00 3.039729239203092348e+00 3.039729239203092348e+00 3.835013957476127722e+00 4.540531422951125329e+00 4.827532221925715739e+00 4.846596496844907342e+00 4.968547507166412913e+00 5.062446731520186205e+00 5.047744208127889820e+00 5.211941959670469693e+00 5.100842934678810892e+00 5.066302644755671380e+00 4.907282109884580912e+00 4.907282109884580912e+00 4.470997607621066017e+00 4.166396175787444811e+00 3.974692957074807076e+00 3.857000617165133427e+00 3.682369881364658148e+00 3.560842417895162981e+00 3.399330063559252935e+00 3.345841323518347288e+00 3.311261751190378799e+00 3.337576823457454545e+00 3.095625790164539204e+00 3.095625790164539204e+00 2.570470213273321924e+00 2.101002757231456464e+00 1.843254395561354064e+00 1.719988802889573787e+00 1.365883532213672868e+00 1.069662276960313907e+00 1.033196435417017112e+00 7.144398974487646825e-01 3.353744017923340204e-01 2.557702111653745169e-01 1.655541460421084410e-01 -3.601433459267523451e-01 -8.256290278745624933e-01 -1.667176586587863607e+00 -1.823308343083120731e+00 -2.283209023544420457e+00 -2.715039642898041894e+00 -3.041873326044384207e+00 -3.041873326044384207e+00 -3.251535770687363325e+00 -3.390042653901674363e+00 -3.381334717723933903e+00 -3.275484810481155584e+00 -2.953341966977515831e+00 -2.624766630441417892e+00 -2.258461026033893315e+00 -2.203016476440328830e+00 -2.082554892430917182e+00 -2.011288042163167145e+00 -2.093244497025759987e+00 -2.093244497025759987e+00 -2.224877646717057456e+00 -2.431057221928958789e+00 -2.646437463529704992e+00 -2.648489963701048389e+00 -2.985068594669574527e+00 -3.204460813689442134e+00 -3.586483369024817236e+00 -3.658499617566322026e+00 -3.892105677840175915e+00 -4.211502393089003426e+00 -4.538942057173888323e+00 -4.538942057173888323e+00 -4.830051225878524868e+00 -5.137991300795494709e+00 -5.137991300795494709e+00 -5.439136583841607475e+00 -5.712369740910714810e+00 -5.911094841948567158e+00 -5.962736499495449038e+00 -6.155367137767232322e+00 -6.318168172687568251e+00 -6.440067220763710409e+00 -6.456418615300997921e+00 -6.603696085642178915e+00 -6.714923532319362565e+00 -6.899156164367065358e+00 -6.899156164367065358e+00 -7.053142662095544857e+00 -7.273314902191094333e+00 -7.388601873159804434e+00 -7.398424015856311264e+00 -7.546272447726344978e+00 -7.762419373853201243e+00 -7.942081931037144216e+00 -8.018010536024261725e+00 -8.085672437956558767e+00 -8.261237645712382616e+00 -8.628203668803744009e+00 -8.628203668803744009e+00 -8.894642292524805427e+00 -9.215890458801331064e+00 -9.394416231345775969e+00
1.805273076029128843e-01 -7.645079608733243437e-02 -1.676972154948052629e-01 -8.608902510603110292e-01 -1.013812572861415573e+00 -1.331431306329318387e+00 -1.779197813470577927e+00 -1.913346346968618938e+00 -1.913346346968618938e+00 -1.920864235229125638e+00 -1.857746271054919740e+00 -1.980954498898189087e+00 -6.897304039317122548e-01 1.685113892661279200e+00 1.825661308969549701e+00 2.063712556139886800e+00 2.316691898525985671e+00 2.667739244021089640e+00 3.415859899990446369e+00 4.178595918866320424e+00 4.543872071471529495e+00 4.842552397228514494e+00 4.979540829039918570e+00 5.127415396182255058e+00 5.127415396182255058e+00 5.158980312547339686e+00 5.223922246687922488e+00 5.223922246687922488e+00 5.112967588652259643e+00 4.950294794648723240e+00 4.792060746412539096e+00 4.588597426855287154e+00 4.267891850200197901e+00 4.078427660402073052e+00 3.827433767572047785e+00 3.786758422642814814e+00 3.641785891368638062e+00 3.477401722004711981e+00 3.326401825971042392e+00 3.326401825971042392e+00 3.297417433543792242e+00 3.177359041618382562e+00 2.925842860367920295e+00 2.755227305784809122e+00 2.294995273159343263e+00 2.006443663954235568e+00 1.676518126137085840e+00 1.592425358069368801e+00 1.290448519593430099e+00 9.538410632952463164e-01 6.181520369436372953e-01 6.181520369436372953e-01 3.827645853344904259e-01 -2.451455439991298557e-02 -3.601433459267523451e-01 -4.850627219516202571e-01 -1.274912335479363001e+00 -1.823308343083120731e+00 -2.368247923223299356e+00 -2.456112685729118894e+00 -2.764487212421439466e+00 -3.033649822612181080e+00 -3.010042021688883462e+00 -3.259212932468139812e+00 -3.306787990238627906e+00 -3.211995448513038198e+00 -3.211995448513038198e+00 -2.800608756841512559e+00 -2.434678724282004048e+00 -2.203016476440328830e+00 -2.163238690436025013e+00 -1.993854621547763717e+00 -2.012832830482977453e+00 -2.137558368245125351e+00 -2.121537200948129254e+00 -2.256875021126218961e+00 -2.524400641732944983e+00 -2.764813221305732149e+00 -2.764813221305732149e+00 -3.062033557469925782e+00 -3.392541197602470859e+00 -3.658499617566322026e+00 -3.689566250202219955e+00 -4.012271329976810463e+00 -4.301822016101452206e+00 -4.609940874361395657e+00 -4.681105659827041521e+00 -4.911220562640888687e+00 -5.236704694396303594e+00 -5.493161041246507281e+00 -5.493161041246507281e+00 -5.770624293098927993e+00 -6.002526026350204269e+00 -6.155367137767232322e+00 -6.178681353386937580e+00 -6.320614852979766773e+00 -6.456418615300997921e+00 -6.455014119322541433e+00 -6.598024820681665403e+00 -6.709997407126879310e+00 -6.886268165597448032e+00 -6.935990834548523054e+00 -7.132819400449138314e+00 -7.255346848270187721e+00 -7.411548759452022850e+00 -7.411548759452022850e+00 -7.646683439800311177e+00 -7.872245209473435423e+00 -8.018010536024261725e+00 -8.042449932345142827e+00 -8.219483189042790627e+00 -8.400970122774454651e+00 -8.741471500723264398e+00 -8.873799085373347495e+00 -9.028209621553880737e+00 -9.371565335033984923e+00
1.958213400684796213e-01 2.045601655378324543e-02 -2.670708915596638477e-01 -7.169373296790493288e-01 -1.093967693478010927e+00 -1.093967693478010927e+00 -1.425563920822903397e+00 -1.628526316468382529e+00 -1.905156407040682343e+00 -1.865977584385380084e+00 -1.572790596365533755e+00 -1.412110801353795964e+00 7.245036046989891121e-01 1.703054213512176007e+00 1.840099715890987309e+00 2.087739978488284631e+00 2.677162781349662346e+00 2.677162781349662346e+00 3.431379548624173381e+00 4.176207410996974900e+00 4.543872071471529495e+00 4.903072765006158740e+00 5.219497595258856038e+00 5.206610322266110202e+00 5.155947202868862433e+00 5.215476691665172027e+00 5.379171736935615122e+00 5.171736949873144695e+00 5.084398524235445471e+00 5.084398524235445471e+00 4.829311340372873573e+00 4.471503598965686166e+00 4.267891850200197901e+00 4.195588114625159015e+00 3.955846669177751185e+00 3.786758422642814814e+00 3.729761804993171115e+00 3.570812409532524434e+00 3.411779840832735111e+00 3.300466749415815748e+00 3.256007647545754669e+00 3.266942405811681382e+00 3.051759044944022392e+00 2.636091599671669172e+00 2.636091599671669172e+00 2.262860949873657823e+00 1.883642399502927445e+00 1.592425358069368801e+00 1.511154696166415956e+00 1.121032980038645155e+00 8.785993724059117937e-01 5.497033515968684503e-01 4.994420963796129542e-01 2.256541394134093381e-01 -7.942592529212473551e-02 -6.619510464511557668e-01 -6.619510464511557668e-01 -1.361149066703906563e+00 -2.033479395831400804e+00 -2.456112685729118894e+00 -2.482766712264459663e+00 -2.788057932614395273e+00 -3.010042021688883462e+00 -3.217067514069654077e+00 -3.194599249421024911e+00 -3.213441649922160970e+00 -3.071048303602137430e+00 -2.699499195132576190e+00 -2.699499195132576190e+00 -2.330086783326925648e+00 -2.089726926327186263e+00 -1.993854621547763717e+00 -1.985698336115917284e+00 -2.028126134530424451e+00 -2.121537200948129254e+00 -2.146601104804304772e+00 -2.392257705102995402e+00 -2.531941077714328081e+00 -2.838711977179924517e+00 -2.878055233222245768e+00 -3.130841819931845738e+00 -3.460454590159592225e+00 -3.753576476663909922e+00 -3.753576476663909922e+00 -4.122830479627083378e+00 -4.438524547086728944e+00 -4.681105659827041521e+00 -4.779780100999404091e+00 -5.115651877904860534e+00 -5.295775749077973771e+00 -5.567179461668482432e+00 -5.616894485936027692e+00 -5.834045172245643229e+00 -6.030038985377051297e+00 -6.136874455375084914e+00 -6.136874455375084914e+00 -6.290820311016164013e+00 -6.444413912789279664e+00 -6.598024820681665403e+00 -6.589551407498962732e+00 -6.795299760753210627e+00 -6.935990834548523054e+00 -7.123837457047993205e+00 -7.115827913767297730e+00 -7.271491259353120462e+00 -7.476034587937303577e+00 -7.701596357610426935e+00 -7.701596357610426935e+00 -7.913236160793473140e+00 -8.081193277983693690e+00 -8.081193277983693690e+00 -8.365615436938155014e+00 -8.728024300264898727e+00 -8.873799085373347495e+00 -9.006126670023427039e+00 -9.348714438722192099e+00
2.704725847926268134e-01 2.045601655378324543e-02 -4.422782227210269590e-01 -5.516096412911697389e-01 -8.298445206705126198e-01 -1.147296857035118300e+00 -1.341726045742007267e+00 -1.341726045742007267e+00 -1.609968069299062110e+00 -1.576906253030764038e+00 -1.572790596365533755e+00 -1.259912026690143350e+00 8.522460867833625553e-01 1.703054213512176007e+00 1.855406584484802668e+00 2.111005615509760514e+00 2.326791661545348777e+00 3.054977818840142412e+00 3.457510985179900409e+00 3.836466071244775122e+00 4.536528172682134041e+00 5.076081376737186623e+00 5.076081376737186623e+00 5.455946953084934492e+00 5.270623735732582027e+00 5.215476691665172027e+00 5.612795877113076592e+00 5.251798311130216668e+00 5.160721651340199223e+00 4.999032679192559669e+00 4.871057094411638921e+00 4.710594821529723752e+00 4.380308314336848419e+00 4.091949518670070063e+00 4.091949518670070063e+00 3.964701779300157991e+00 3.724703765362246344e+00 3.570812409532524434e+00 3.486134308069619880e+00 3.277780464380593894e+00 3.256007647545754669e+00 3.198815806745232138e+00 3.157489425547757023e+00 2.946130516089100926e+00 2.568370821848413144e+00 2.193115687172928929e+00 2.193115687172928929e+00 1.809442607830586747e+00 1.386847793285304498e+00 1.386847793285304498e+00 1.043469558328460778e+00 7.486451618738476643e-01 4.994420963796129542e-01 2.837763666531665230e-01 2.377742352089798616e-01 -2.367505447547768038e-01 -8.425516166066787660e-01 -8.989897903246925059e-01 -1.509507177032410219e+00 -2.135092194878631666e+00 -2.536778316637541497e+00 -2.536778316637541497e+00 -2.774516473667616889e+00 -3.026701787741974847e+00 -3.194599249421024911e+00 -3.137957142973878621e+00 -3.140115144549792792e+00 -2.989456634709590332e+00 -2.611630626808731481e+00 -2.459478053088194116e+00 -2.240063686230651552e+00 -2.009753206981910179e+00 -1.980945611634504999e+00 -1.980945611634504999e+00 -2.068056291773323174e+00 -2.217454228809384809e+00 -2.392257705102995402e+00 -2.455027990749034661e+00 -2.679811249095015668e+00 -2.878055233222245768e+00 -3.201532574010956811e+00 -3.292052483960442366e+00 -3.522358332740186171e+00 -3.821909682381574580e+00 -3.985686204141654088e+00 -4.214639907611326564e+00 -4.536119679154511530e+00 -4.867185916500408105e+00 -4.867185916500408105e+00 -5.171944141531367833e+00 -5.423423915626458758e+00 -5.616894485936027692e+00 -5.729036936042569472e+00 -5.892338405029002857e+00 -6.003881970392979994e+00 -6.169656637510109398e+00 -6.170194387113536294e+00 -6.320547907963184109e+00 -6.471531437130501274e+00 -6.629235469383102597e+00 -6.696380158700412366e+00 -6.818791647110048260e+00 -6.984538607805143684e+00 -7.157770274647088371e+00 -7.157770274647088371e+00 -7.360298653884413511e+00 -7.585860423557537757e+00 -7.756509275420544469e+00 -7.793318472145926989e+00 -8.013176195792595990e+00 -8.179515748063060698e+00 -8.547698663248084472e+00 -8.691420486676804558e+00 -8.852955878221889563e+00 -9.155452808365096118e+00 -9.456004184467367679e+00
3.719864484318069486e-01 1.824596876888652797e-01 -2.214968262225956996e-01 -5.516096412911697389e-01 -5.751492391588493014e-01 -9.514602439398336386e-01 -1.110670681136290971e+00 -1.330153916058559371e+00 -1.547125672608243185e+00 -1.667031510464654698e+00 -1.289754182117797576e+00 -2.098989115804481553e-01 -2.098989115804481553e-01 1.715977318763384663e+00 2.007230955579541565e+00 2.111005615509760514e+00 2.337425889346243846e+00 3.097730013414146555e+00 3.457510985179900409e+00 4.280884314866786333e+00 4.643654631064964455e+00 4.907704884894694253e+00 5.369286081000321786e+00 5.605124822203306323e+00 5.521513685797109439e+00 5.334187993347425660e+00 5.505110937228084644e+00 5.505110937228084644e+00 5.208747062022259122e+00 5.113945738501582738e+00 4.871057094411638921e+00 4.783188089177329516e+00 4.486601105813753598e+00 4.305950147404255191e+00 4.072679476139680510e+00 4.058847437331835728e+00 3.818201166102969779e+00 3.657318877798968693e+00 3.382007152525543070e+00 3.382007152525543070e+00 3.222824224416462435e+00 3.205359875237447476e+00 3.157489425547757023e+00 3.085178829224295427e+00 2.777734714466782329e+00 2.510520487745330875e+00 2.126854983713173830e+00 2.026617563181328574e+00 1.727581253346434087e+00 1.308554820177531441e+00 9.813260235790696173e-01 9.813260235790696173e-01 6.313644132888840410e-01 4.811982695043081626e-01 2.377742352089798616e-01 8.816714067254299847e-02 -4.788441456144413300e-01 -8.989897903246925059e-01 -1.657546364632866309e+00 -1.772419175367611066e+00 -2.196368802305904033e+00 -2.552984018826457202e+00 -2.530385523248364521e+00 -2.811788838155631964e+00 -3.013593217740908603e+00 -3.160987593832785603e+00 -3.154979916796446737e+00 -3.076184746261949599e+00 -2.757217241234786620e+00 -2.368572639199598484e+00 -2.368572639199598484e+00 -2.090041736686522267e+00 -1.992940219562601811e+00 -1.992131118850976268e+00 -2.055371134460931337e+00 -2.133214294235246555e+00 -2.251341455799315661e+00 -2.507166152080649191e+00 -2.565176223451405946e+00 -2.762697624608575708e+00 -3.061914644239210226e+00 -3.395980865479932831e+00 -3.395980865479932831e+00 -3.731370630737865568e+00 -4.110970457856677918e+00 -4.313801675370183553e+00 -4.454135019672580853e+00 -4.788038664981345782e+00 -5.013543430116983224e+00 -5.257212386120710512e+00 -5.320911885960779131e+00 -5.489527632829013015e+00 -5.740494945642437230e+00 -5.896839694264184750e+00 -5.896839694264184750e+00 -6.025382893756017211e+00 -6.214204684370561615e+00 -6.214204684370561615e+00 -6.339957641206896533e+00 -6.510886314508516293e+00 -6.696380158700412366e+00 -6.690308118721815411e+00 -6.855385236885213729e+00 -6.988562111702278479e+00 -7.179853457650175130e+00 -7.229913346241728433e+00 -7.416966357532011500e+00 -7.640773341367654403e+00 -7.881834780530504680e+00 -7.881834780530504680e+00 -8.138483552411081234e+00 -8.484579383422648391e+00 -8.691420486676804558e+00 -8.817252071801055635e+00 -9.128246378703700259e+00 -9.323698297099214827e+00
3.311178378225528851e-01 2.463403976466985446e-01 1.052956206669728723e-01 -3.017175195738355242e-01 -6.533891629842216719e-01 -6.533891629842216719e-01 -8.728747068726843139e-01 -1.116840566241646959e+00 -1.547125672608243185e+00 -1.089709629064387952e+00 -7.480426407895510721e-01 -9.446497071270661960e-01 2.629791681121457225e-03 1.661809642610652560e+00 1.889077054120836818e+00 2.149645199059063483e+00 2.751118380919934214e+00 2.751118380919934214e+00 3.574751543902165096e+00 4.421381422150795437e+00 4.643654631064964455e+00 5.036216872862523175e+00 5.506561928824111440e+00 5.605124822203306323e+00 5.418507429528419017e+00 5.583940823136161136e+00 5.702916569296467841e+00 5.388116946902662185e+00 5.170602271939815253e+00 5.170602271939815253e+00 5.022336255837818619e+00 4.669552496624460147e+00 4.396791417214816811e+00 4.396791417214816811e+00 4.128865866567356768e+00 3.908178829844392244e+00 3.908178829844392244e+00 3.696633879702342362e+00 3.414645965189247789e+00 3.281911993597091737e+00 3.219036511686697022e+00 3.199305581429944034e+00 3.188312554550628786e+00 3.068996182320111288e+00 2.993625155350436717e+00 2.743438555191367367e+00 2.359045647873945217e+00 1.931213053683034975e+00 1.931213053683034975e+00 1.546775479810179377e+00 1.173272931410720643e+00 9.151150259907663287e-01 8.333682924093407385e-01 5.482179949341596803e-01 3.659490904659745691e-01 -9.204682542927378197e-02 -2.067578644182141989e-01 -6.517924394421511503e-01 -1.240948646695938073e+00 -1.881127201327821297e+00 -1.881127201327821297e+00 -2.283056369983553768e+00 -2.554291705424160064e+00 -2.811788838155631964e+00 -2.879929303689528375e+00 -3.090186924018943238e+00 -3.154979916796446737e+00 -3.001112055924139543e+00 -2.897955280330600125e+00 -2.625460744230338150e+00 -2.264726961521291937e+00 -2.062886538105448864e+00 -2.062886538105448864e+00 -1.982487695100936920e+00 -2.033572566212886734e+00 -2.033572566212886734e+00 -2.144089365524830093e+00 -2.386359652398809317e+00 -2.565176223451405946e+00 -2.653057990575968361e+00 -2.954937239909512847e+00 -3.154174764411014742e+00 -3.508199071653733458e+00 -3.640831579094157000e+00 -3.899706204278558630e+00 -4.226268469664439920e+00 -4.623748461026603529e+00 -4.623748461026603529e+00 -4.912213153557830836e+00 -5.165557743050418260e+00 -5.320911885960779131e+00 -5.395699966035652828e+00 -5.599794214648759372e+00 -5.739136206338509183e+00 -5.888053906771942181e+00 -5.882990596889176693e+00 -6.053247347191936356e+00 -6.196681903137087666e+00 -6.362146971654413008e+00 -6.362146971654413008e+00 -6.579918956284382503e+00 -6.740247998242552718e+00 -6.855385236885213729e+00 -6.854576737620702076e+00 -7.072585018868547735e+00 -7.229913346241728433e+00 -7.496171678657145065e+00 -7.483383418504000240e+00 -7.695686259177770161e+00 -7.949233951546289312e+00 -8.089889209838696971e+00 -8.294906065265559292e+00 -8.659777934353556361e+00 -8.963083507192648014e+00 -8.963083507192648014e+00 -9.284803759762375819e+00
4.592662215360371336e-01 1.497680497247158848e-01 -1.029914275345330948e-01 -1.640436792676455424e-01 -4.343793297380346141e-01 -7.752539884819299454e-01 -9.056224757966736538e-01 -9.521963393991220714e-01 -1.101319590822460670e+00 -6.736433878972268863e-01 -1.076957681658766708e-01 1.081715861405935231e-01 8.914803023233226487e-01 1.864013780089220251e+00 1.864013780089220251e+00 2.220033626515785841e+00 2.886567397481888175e+00 3.273282163837206049e+00 3.753745448776410143e+00 4.666634005328806012e+00 4.868949300858941953e+00 5.418295613835907076e+00 5.630552056899924551e+00 5.629629640001560631e+00 5.654240419131570050e+00 5.807297377680060713e+00 5.807297377680060713e+00 5.530210990864313558e+00 5.220100119817386641e+00 5.190471340726187321e+00 5.166830229382535222e+00 4.775438805680007448e+00 4.604812751108386948e+00 4.292226048287139051e+00 4.221153253971286823e+00 4.116789096920003388e+00 3.816990174598399399e+00 3.571649573890053553e+00 3.571649573890053553e+00 3.297517322771052584e+00 3.195763687796923325e+00 3.199305581429944034e+00 3.188400703560898997e+00 3.182406852748774995e+00 2.993625155350436717e+00 2.679755575896025199e+00 2.590521155669636588e+00 2.250916766531657842e+00 1.861601163457491825e+00 1.784996139442827090e+00 1.478321365052585712e+00 1.093606234088731366e+00 7.072576686389835388e-01 7.072576686389835388e-01 4.122673952770614658e-01 1.020801834442405381e-01 -2.067578644182141989e-01 -2.995339687778706961e-01 -7.947288321660226362e-01 -1.349636127296552690e+00 -1.941436149672081335e+00 -2.003054332950434890e+00 -2.286928375668333846e+00 -2.624023451223755465e+00 -2.955552763554393003e+00 -2.955552763554393003e+00 -3.133405754181845637e+00 -3.107350112823779043e+00 -2.897955280330600125e+00 -2.781476476119494556e+00 -2.390002401576585278e+00 -2.168631653441257079e+00 -2.025009147457650815e+00 -2.018459307102992373e+00 -2.004769227823091082e+00 -2.050437925685607787e+00 -2.195183390369031429e+00 -2.195183390369031429e+00 -2.440361680324484972e+00 -2.709850529458993851e+00 -2.954937239909512847e+00 -3.016433278322842249e+00 -3.385944890975413735e+00 -3.640831579094157000e+00 -3.802416842232505534e+00 -4.146879810051337323e+00 -4.362012833502362241e+00 -4.715910886447916006e+00 -4.824114285254593071e+00 -5.011043602669110086e+00 -5.254516708224985955e+00 -5.414313802081507809e+00 -5.414313802081507809e+00 -5.634285716748121509e+00 -5.766987201863261525e+00 -5.882990596889176693e+00 -5.908135665062383524e+00 -6.072815898310992999e+00 -6.220244702747195653e+00 -6.376053196451321625e+00 -6.455120384419920754e+00 -6.562321464374257118e+00 -6.718420187437261326e+00 -6.937442517125379737e+00 -6.937442517125379737e+00 -7.098809167787449859e+00 -7.397994829817251095e+00 -7.483383418504000240e+00 -7.605061293206056838e+00 -7.870786547681248635e+00 -8.089889209838696971e+00 -8.448642616877942046e+00 -8.574860819743680196e+00 -8.775948388540143696e+00 -9.049709628076149315e+00 -9.308441478327761587e+00
5.507554163366321642e-01 3.730415010661682906e-01 6.759694970281404647e-02 -1.898523892530446511e-01 -1.898523892530446511e-01 -5.358702674633571972e-01 -6.599693586608967877e-01 -9.521963393991220714e-01 -9.925156991915069504e-01 -4.830453569947653625e-01 -1.076957681658766708e-01 8.621121983325702454e-01 1.258057389610645505e+00 1.684398147153537195e+00 2.075708738858345725e+00 2.565780428214804676e+00 2.565780428214804676e+00 3.400546544955496131e+00 4.320210668687628264e+00 4.666634005328806012e+00 5.104999180667746828e+00 5.587763507531890106e+00 5.630552056899924551e+00 5.786636922661941185e+00 5.904513247303588841e+00 5.834288331191332944e+00 5.920397846645317763e+00 5.668634452706262650e+00 5.387102128888137997e+00 5.150330599905542428e+00 4.922568279297172111e+00 4.922568279297172111e+00 4.764734768158083611e+00 4.387594877487455136e+00 4.221153253971286823e+00 4.163011802925089100e+00 3.849818225427500185e+00 3.730968401903394849e+00 3.447808716131403273e+00 3.318598237189958944e+00 3.222081101322877394e+00 3.191977051900121154e+00 3.199001752258608278e+00 3.199001752258608278e+00 3.177164248296694637e+00 2.921384092634773832e+00 2.590521155669636588e+00 2.493177819613664248e+00 2.092305758376528768e+00 1.784996139442827090e+00 1.386293214025877685e+00 1.270780010771302759e+00 1.003228261164563762e+00 6.753165041561223214e-01 2.875045997776427553e-01 2.875045997776427553e-01 1.672221757687648303e-01 -3.536495786348446413e-01 -7.947288321660226362e-01 -9.268530792254944251e-01 -1.612735076945135182e+00 -2.003054332950434890e+00 -2.037750646397884946e+00 -2.408414190286237044e+00 -2.718346668250801734e+00 -2.994484995122283166e+00 -3.084988790216444343e+00 -3.188224051051268493e+00 -3.013969756114334153e+00 -2.636663445651905580e+00 -2.636663445651905580e+00 -2.283938952570528258e+00 -2.078069975912913314e+00 -2.018459307102992373e+00 -1.986041331666002163e+00 -1.985433695600623771e+00 -2.044472180499860681e+00 -2.307012842944102804e+00 -2.313739504287921633e+00 -2.526402510351013930e+00 -2.772768609462408662e+00 -3.155164390569548338e+00 -3.155164390569548338e+00 -3.556915780889418510e+00 -3.924646993197797862e+00 -4.146879810051337323e+00 -4.293902380806512653e+00 -4.632397199727065207e+00 -4.824114285254593071e+00 -5.068022233829199585e+00 -5.106809493827405788e+00 -5.295326520943294035e+00 -5.462338457190822893e+00 -5.612861436549691163e+00 -5.612861436549691163e+00 -5.740294638473789846e+00 -5.938397533141738016e+00 -5.938397533141738016e+00 -6.107372766714215473e+00 -6.247157023964765798e+00 -6.455120384419920754e+00 -6.469997358898516460e+00 -6.600546130757800611e+00 -6.743589062329824912e+00 -6.989092914441656923e+00 -7.023247924051668534e+00 -7.226145613557656944e+00 -7.415971983345146512e+00 -7.703540662244272141e+00 -7.862585329787794564e+00 -8.042576573146060781e+00 -8.316010554745538741e+00 -8.649465122904928194e+00 -8.649465122904928194e+00 -8.923178955499814435e+00 -9.197956824304807100e+00
5.507554163366321642e-01 4.134679946107431281e-01 9.586627645313368362e-02 -6.149753257462423767e-03 -2.156938410635617087e-01 -3.557457108600857176e-01 -5.914943032914938836e-01 -6.710655361716372225e-01 -9.679994466131889297e-01 -9.679994466131889297e-01 -7.286548652854424324e-01 5.509649428584766362e-01 1.258057389610645505e+00 1.827787209503448196e+00 2.090670008229373433e+00 2.287403697627471644e+00 3.002305105505103544e+00 3.573782299834956433e+00 3.945704762049089265e+00 4.891338187200013010e+00 5.510912221687179979e+00 5.510912221687179979e+00 5.803994186290442947e+00 6.072753333488909888e+00 5.904513247303588841e+00 6.098430963185976772e+00 6.148896242175400317e+00 5.668634452706262650e+00 5.290131979510254823e+00 5.227940479053821754e+00 5.268523947301792631e+00 4.887726660103696830e+00 4.565374905694736363e+00 4.565374905694736363e+00 4.337336496501222882e+00 4.064753803107962860e+00 4.064753803107962860e+00 3.766198391631551790e+00 3.488693909616638056e+00 3.318598237189958944e+00 3.233626468633480577e+00 3.159426275919751781e+00 3.178949668989258903e+00 3.264853490913838474e+00 3.234757712158178311e+00 3.189037299788747948e+00 2.804982585443899001e+00 2.396555169399964491e+00 2.396555169399964491e+00 2.013460013255027548e+00 1.590472357195100717e+00 1.270780010771302759e+00 1.200105131522753776e+00 8.328826785466023619e-01 4.900765199069600508e-01 4.269543244933649007e-01 2.508203528525062009e-01 -1.361442900183561233e-02 -5.093365230732674886e-01 -1.101503420776209552e+00 -1.101503420776209552e+00 -1.716094800400817189e+00 -2.124134150764025453e+00 -2.408414190286237044e+00 -2.540207962146889376e+00 -2.859186348933881128e+00 -3.084988790216444343e+00 -3.155630147310215960e+00 -3.082655569728482980e+00 -2.898457698579585795e+00 -2.517183618456970251e+00 -2.430047940510874582e+00 -2.220887369739990014e+00 -2.083176343516994766e+00 -2.008216567677434394e+00 -1.995783447896701812e+00 -2.020456483535618464e+00 -2.124700987414581466e+00 -2.403452629536422247e+00 -2.403452629536422247e+00 -2.668795625832395935e+00 -3.085215087115456889e+00 -3.321065434002437478e+00 -3.487051207018080579e+00 -3.860744917096869955e+00 -4.081101132340881676e+00 -4.449813219934512176e+00 -4.513559236229468752e+00 -4.719976916715580728e+00 -4.933574610688363116e+00 -5.141779168082877050e+00 -5.141779168082877050e+00 -5.311213881109598134e+00 -5.458210245901964797e+00 -5.629232273800004904e+00 -5.623562512581369077e+00 -5.793847608725087639e+00 -5.956645262462442858e+00 -6.109977429253330428e+00 -6.127612538622710048e+00 -6.309666400244634765e+00 -6.480783189651875276e+00 -6.638383693020174725e+00 -6.638383693020174725e+00 -6.861541554347732941e+00 -7.096416804527696520e+00 -7.226145613557656944e+00 -7.367436778844679068e+00 -7.674189678996826913e+00 -7.862585329787794564e+00 -7.946836976707610134e+00 -8.224119901740278848e+00 -8.460296945943253988e+00 -8.785533875337256049e+00 -8.796648282923479556e+00 -9.032527181108024550e+00
5.583857716988700481e-01 2.362963576083486616e-01 9.586627645313368362e-02 2.845194329143916484e-02 -2.523622214031676636e-01 -3.557457108600857176e-01 -5.735038553470368505e-01 -3.844017549985894178e-01 -5.742730803891208380e-01 -6.968910230850786647e-01 2.759411124021385331e-01 -1.132624334269864697e-02 1.717575236263217509e+00 1.981481429456301235e+00 1.981481429456301235e+00 2.410618662309224280e+00 3.240645765991125415e+00 3.573782299834956433e+00 4.237728742185112196e+00 5.084128633005585485e+00 5.340103819802037854e+00 5.786867550816845451e+00 6.033092011784177089e+00 6.021601865454217162e+00 6.243347994744450347e+00 6.208891645058628228e+00 6.208891645058628228e+00 5.809034894791454740e+00 5.413556225633691099e+00 5.227940479053821754e+00 5.222891092445848926e+00 4.928812827498751048e+00 4.849423202360549467e+00 4.516624638640340805e+00 4.429778917664712878e+00 4.233191843946754851e+00 3.909720136165231175e+00 3.664674581522800789e+00 3.664674581522800789e+00 3.357763723072591855e+00 3.181349265767646983e+00 3.159426275919751781e+00 3.115622413000040503e+00 3.180737783607021640e+00 3.192208670972591200e+00 3.046265682622419035e+00 2.920966878549190682e+00 2.555414225642702153e+00 2.291289558554749473e+00 2.190470124435323296e+00 1.802139258615679474e+00 1.502842017784145723e+00 1.091938578229008083e+00 9.764620122981830797e-01 6.946426447999632936e-01 4.972416210782039658e-01 1.653420285640112841e-02 1.653420285640112841e-02 -2.886455933489361914e-01 -8.157808962985969581e-01 -1.299188097691421184e+00 -1.491344709366908994e+00 -1.974218219256562712e+00 -2.278776749282911407e+00 -2.649214304556815502e+00 -2.701542096974267615e+00 -2.950713047637258946e+00 -3.098833166429394659e+00 -2.964296437406878759e+00 -2.964296437406878759e+00 -2.649430963576256737e+00 -2.366831542697037882e+00 -2.185570780549491499e+00 -2.157581966919154493e+00 -2.074701061461019069e+00 -1.995783447896701812e+00 -2.024927145496667968e+00 -2.046076023265587018e+00 -2.193765004670037655e+00 -2.514671599897732257e+00 -2.807554545378454947e+00 -2.807554545378454947e+00 -3.251116130548345140e+00 -3.664255981714798605e+00 -3.664255981714798605e+00 -4.005331823346733877e+00 -4.343903619900103763e+00 -4.513559236229468752e+00 -4.562165065188790614e+00 -4.829310205230947339e+00 -4.971792206924525281e+00 -5.160686693827734040e+00 -5.143677809266170797e+00 -5.312875190623475241e+00 -5.490904401015622049e+00 -5.632910920619700335e+00 -5.632910920619700335e+00 -5.838971047132854864e+00 -5.993476079440381632e+00 -6.127612538622710048e+00 -6.166680466372106650e+00 -6.353726578477363773e+00 -6.484512882832187408e+00 -6.696646133742959250e+00 -6.746468761977557627e+00 -6.944407911553536650e+00 -7.141295528041224472e+00 -7.467335936093710380e+00 -7.467335936093710380e+00 -7.762738983759153832e+00 -8.040021908791823435e+00 -8.224119901740278848e+00 -8.375601882323753244e+00 -8.606852777264290211e+00 -8.796648282923479556e+00 -9.086498530850596111e+00
4.902860277472361750e-01 4.857049699555652245e-01 2.668731639064366723e-01 9.657315498169345702e-03 9.657315498169345702e-03 -2.342138195794702671e-01 -2.465373841767776741e-01 -3.844017549985894178e-01 -1.997745929393559272e-01 4.628476578706536282e-01 2.759411124021385331e-01 1.611668633921650828e+00 1.774522314116415034e+00 2.075359494497083901e+00 2.254343477803126827e+00 2.923180114725008050e+00 3.577720599857436401e+00 3.972488212421457110e+00 4.758660774097152490e+00 5.538938948739657420e+00 5.538938948739657420e+00 6.008297577840027159e+00 6.247246168375789388e+00 6.247246168375789388e+00 6.461641719052305888e+00 6.250152511271930500e+00 6.071046057654185368e+00 6.062404056207112646e+00 5.570493820128559648e+00 5.341873796614125425e+00 5.156336501517241544e+00 4.961609297343517966e+00 4.878481639610638965e+00 4.663323244001804646e+00 4.320941077930561924e+00 4.320941077930561924e+00 3.978263475719954645e+00 3.721103260527707679e+00 3.548526306734275160e+00 3.409495746789944715e+00 3.173993158296358530e+00 3.130083785138928487e+00 3.093652752360641855e+00 3.095134823063992791e+00 3.177854939588006467e+00 3.123470035196809214e+00 2.812545363882775984e+00 2.812545363882775984e+00 2.450719767429216489e+00 2.066929678507420043e+00 1.802139258615679474e+00 1.689740198245165193e+00 1.249689237186432100e+00 9.764620122981830797e-01 6.713184517863199918e-01 5.675289176630430310e-01 2.809078492682204886e-01 1.064989991229071675e-01 -2.696617396486124252e-02 -4.240309166003919383e-01 -9.761215392371245247e-01 -1.605254773938523005e+00 -1.605254773938523005e+00 -2.142644134952504054e+00 -2.504765334050615078e+00 -2.701542096974267615e+00 -2.813248348780713837e+00 -3.036986580539792868e+00 -3.074744887086071188e+00 -2.876277239011074904e+00 -2.786758974874232742e+00 -2.571342145696231540e+00 -2.290736273770010545e+00 -2.098183813798498942e+00 -2.098183813798498942e+00 -2.024576790235423474e+00 -1.980398985855831073e+00 -2.046076023265587018e+00 -2.071003167413767887e+00 -2.398250532162784943e+00 -2.574619937852044682e+00 -2.977798904767960941e+00 -3.170444730788728904e+00 -3.419344897794372784e+00 -3.782312631039665973e+00 -4.135872796620965630e+00 -4.135872796620965630e+00 -4.422010236651493287e+00 -4.665992600538005242e+00 -4.829310205230947339e+00 -4.843449999821265450e+00 -5.020358128127700326e+00 -5.143677809266170797e+00 -5.300465430431526848e+00 -5.340039232881979459e+00 -5.503799055255072403e+00 -5.657158342190045097e+00 -5.710162436287420817e+00 -5.837589520840925417e+00 -6.014276713365005911e+00 -6.193496305761794218e+00 -6.193496305761794218e+00 -6.370186846279208837e+00 -6.546856209371783031e+00 -6.746468761977557627e+00 -6.834669034911261321e+00 -7.058589964790637161e+00 -7.237737571464404773e+00 -7.578640990810699307e+00 -7.671825922894913496e+00 -7.855923915843369798e+00 -8.133206840876040289e+00 -8.445168911471576223e+00 -8.445168911471576223e+00 -8.688505738914862775e+00 -8.974150098229113581e+00
