3.361109829971457685e+00 3.197330432377534226e+00 2.977619029923491922e+00 2.977619029923491922e+00 3.002364906443331982e+00 2.927081210811297574e+00 2.968960521554274923e+00 2.919218167284345800e+00 2.878120914186323098e+00 2.811845579988398569e+00 2.640632203926661425e+00 2.731761898875648242e+00 2.557178913215638616e+00 2.383520249869833130e+00 2.356961840526293539e+00 2.356961840526293539e+00 2.340303358651737220e+00 2.298362390461696769e+00 2.180538377114155324e+00 2.169429313717801566e+00 2.108778764446443521e+00 2.024455282960265112e+00 1.849213584304225666e+00 1.949065892557868551e+00 1.644555602919313575e+00 1.191775077354270795e+00 1.136108122693396671e+00 8.834800878465820517e-01 4.241297543535388348e-01 1.572733246595920675e-01 1.572733246595920675e-01 1.724788234357783889e-01 5.457844163232609611e-03 -1.948238829816127671e-01 -2.085176938036712446e-01 -4.671070353426678423e-01 -7.458344394848539505e-01 -1.482617367421929178e+00 -1.564006403963743796e+00 -2.478658266299293977e+00 -3.032347937357827039e+00 -3.388771323865696239e+00 -3.388771323865696239e+00 -3.629037998187397474e+00 -3.901050269475636156e+00 -4.098333681812341922e+00 -4.184024312023849390e+00 -4.323462439003357360e+00 -4.201013153030427105e+00 -3.912561736260941281e+00 -3.675340286802075251e+00 -2.596059166194274237e+00 -2.244447600945808752e+00 -2.422122324425050266e+00 -2.482402463824982419e+00 -2.788259172913796657e+00 -3.329485886145069351e+00 -3.925941290684752616e+00 -3.925941290684752616e+00 -4.556653910432348908e+00 -5.132754233676541489e+00 -5.552461017895311102e+00 -5.703820933895506151e+00 -6.147955450596294114e+00 -6.462984406400536841e+00 -6.574593510719981992e+00 -6.897220526825351250e+00 -7.169319681550709866e+00 -7.309341419828471409e+00 -7.248008542466997994e+00 -7.375578893246894197e+00 -7.439015536766473424e+00 -7.535157168706760444e+00 -7.535157168706760444e+00 -7.674572261762911296e+00 -7.785843475576879058e+00 -7.901329521543849488e+00 -7.931520667838139360e+00 -8.082079996074014616e+00 -8.209125294104945070e+00 -8.363935074419718063e+00 -8.372201395850277450e+00 -8.492166463553937561e+00 -8.604226342951591278e+00 -8.733629661903989927e+00 -8.733629661903989927e+00 -8.924452451461917235e+00 -8.988662439751053057e+00 -9.052891058156522064e+00 -9.085049705487172389e+00 -9.200316569682819079e+00 -9.247895835178304935e+00 -9.399266053125675313e+00 -9.433658463307885711e+00 -9.445160017351934556e+00 -9.530923882776056288e+00 -9.650950696068031576e+00 -9.650950696068031576e+00 -9.823671181579982203e+00 -9.902562374094859621e+00 -9.902562374094859621e+00 -1.004490697230649054e+01 -1.011530328042282001e+01 -1.014029706924470808e+01 -1.012128801106458909e+01 -1.015159832370191495e+01 -1.009925610758909720e+01 -1.022283996395409922e+01 -1.024394184545110775e+01 -1.019615250105084669e+01 -1.029461894091101470e+01 -1.035375932659822595e+01 -1.035375932659822595e+01 -1.041626970717988243e+01 -1.042765050652153747e+01 -1.043497027766998642e+01
3.389316641043468969e+00 3.392566146234402336e+00 3.180599242533501680e+00 3.023964494356239374e+00 3.100014780507775569e+00 2.967674431296203785e+00 2.900241931991764499e+00 2.827160909794636634e+00 2.827160909794636634e+00 2.901327928847223792e+00 2.804027742305287063e+00 2.731761898875648242e+00 2.696783492290641959e+00 2.498644554136520313e+00 2.406161304251549726e+00 2.403848170654204530e+00 2.443918853463321383e+00 2.407921963515870623e+00 2.296337623800111860e+00 2.182425576697224034e+00 2.292467034894480005e+00 2.159353187080545133e+00 2.084332670802253595e+00 1.774332708124674918e+00 1.774332708124674918e+00 1.428639919317483908e+00 9.838226555720575028e-01 7.761302551252540205e-01 6.949894628558010989e-01 2.283785512111786153e-01 -1.017692600579447743e-01 1.853337639930169034e-01 2.448062321416792989e-02 -4.807308518165330502e-02 -2.662898280692041486e-01 -5.105793775772693444e-01 -5.105793775772693444e-01 -9.508109743165987782e-01 -1.999495835334309968e+00 -1.999495835334309968e+00 -2.640409105887144392e+00 -3.254280493876108515e+00 -3.449126163316908578e+00 -3.467605716669623916e+00 -3.762067841574108673e+00 -3.982865545363976967e+00 -4.260958413436749304e+00 -4.301904327473877743e+00 -4.372507736444239512e+00 -4.113146232740178654e+00 -3.330288111064760859e+00 -3.330288111064760859e+00 -2.377927562429154484e+00 -2.316743000262962759e+00 -2.482402463824982419e+00 -2.556173768974985716e+00 -3.000897804498434240e+00 -3.470439123542785609e+00 -4.086161416197239049e+00 -4.228243312533031428e+00 -4.705483272905755854e+00 -5.273765441386389696e+00 -5.798747735803147840e+00 -5.798747735803147840e+00 -6.229920872585370972e+00 -6.624734125667624873e+00 -6.897220526825351250e+00 -6.950553330148155240e+00 -7.135226659018373496e+00 -7.248008542466997994e+00 -7.324570940616546899e+00 -7.289771769492471520e+00 -7.425148741363788218e+00 -7.526088581497293539e+00 -7.563816390110967625e+00 -7.649083274204025784e+00 -7.785819286919733351e+00 -7.967088972002126290e+00 -7.967088972002126290e+00 -8.052958892822534409e+00 -8.210568379944595208e+00 -8.372201395850277450e+00 -8.380467717280836837e+00 -8.510426258307211000e+00 -8.615489051822709854e+00 -8.784356049118501986e+00 -8.845979874300716972e+00 -8.928627579690511240e+00 -8.988083617712476325e+00 -9.125857653615863541e+00 -9.125857653615863541e+00 -9.211684811246787064e+00 -9.367828728618817991e+00 -9.433658463307885711e+00 -9.439981319644026314e+00 -9.555477800526873011e+00 -9.639237441685292396e+00 -9.738840003981618310e+00 -9.838943620598097795e+00 -9.837578009631961606e+00 -9.929465898677698021e+00 -1.011339263132616217e+01 -1.011339263132616217e+01 -1.015256481483338646e+01 -1.012342111377808251e+01 -1.015159832370191495e+01 -1.009557720561030969e+01 -1.025078838476781584e+01 -1.024394184545110775e+01 -1.025768634828080295e+01 -1.027736420699448949e+01 -1.032249053731402810e+01 -1.035624288474335764e+01 -1.042415101971565328e+01 -1.043370014772207455e+01 -1.043137530708873584e+01
3.568104651400078708e+00 3.369903170721806784e+00 3.369903170721806784e+00 3.161008162875777128e+00 3.113786746351041579e+00 2.993446316609098545e+00 3.019051748505101607e+00 2.925633847370990193e+00 2.948725611986370509e+00 2.946222318065631285e+00 2.949465944335335266e+00 2.856484466388145904e+00 2.640781506196490103e+00 2.728038001605439966e+00 2.600446603045179828e+00 2.531765390281217609e+00 2.497365863440584199e+00 2.497365863440584199e+00 2.484841038451240713e+00 2.425580882708414876e+00 2.292467034894480005e+00 2.284181965170977158e+00 2.177548590583233690e+00 2.121888591988214223e+00 1.713226726044522863e+00 1.623286827476742467e+00 1.297163676707806301e+00 9.240204117417893936e-01 5.757299712463886943e-01 5.757299712463886943e-01 3.769141158424419435e-01 1.196016124517132601e-01 2.448062321416792989e-02 7.196472320482256990e-02 -1.506106642371889404e-01 -2.672036580544199236e-01 -5.770871603635708835e-01 -6.746990634409472110e-01 -1.293523503850298351e+00 -2.066155928587529278e+00 -2.679644030045941427e+00 -2.679644030045941427e+00 -3.354443358618101279e+00 -3.552883833335958474e+00 -3.762067841574108673e+00 -3.846213969562752411e+00 -4.138437624413093374e+00 -4.301904327473877743e+00 -4.232460628826743232e+00 -4.075777134556366477e+00 -3.857100358886620395e+00 -2.957352878603624280e+00 -2.715450045579386629e+00 -2.288781187395971806e+00 -2.372858858184051289e+00 -2.651701140574056037e+00 -2.651701140574056037e+00 -3.147150607393856880e+00 -3.757641152072502599e+00 -4.228243312533031428e+00 -4.376978443563587895e+00 -4.956217623642218406e+00 -5.393627515270394746e+00 -5.862034501552722432e+00 -5.942221197028710655e+00 -6.313149296430749402e+00 -6.639357152423097652e+00 -6.901988822400009660e+00 -6.901988822400009660e+00 -7.049060980205201332e+00 -7.180450940308504393e+00 -7.289771769492471520e+00 -7.291865287926077244e+00 -7.408258813787782948e+00 -7.563816390110967625e+00 -7.681722584386571739e+00 -7.713781453533730570e+00 -7.840784393943420305e+00 -7.961798823712381790e+00 -8.098490849056016572e+00 -8.098490849056016572e+00 -8.227530539412569510e+00 -8.388734038711398000e+00 -8.510426258307211000e+00 -8.514828919618127046e+00 -8.692448460987009184e+00 -8.845979874300716972e+00 -8.866352139534139809e+00 -8.934524708535334980e+00 -9.037317011248713783e+00 -9.160373671939087359e+00 -9.191777678469357227e+00 -9.267881926735158871e+00 -9.408214759262875759e+00 -9.488739755530954056e+00 -9.488739755530954056e+00 -9.613295637442153208e+00 -9.739589774720052162e+00 -9.838943620598097795e+00 -9.857734782086140513e+00 -9.925546100384142534e+00 -1.007066895680183727e+01 -1.014709622605394124e+01 -1.016483256042206129e+01 -1.013447542946639679e+01 -1.015820409750024211e+01 -1.005072684264291638e+01 -1.005072684264291638e+01 -1.029825271740720893e+01 -1.027330960048897524e+01 -1.027736420699448949e+01 -1.029000179235124079e+01 -1.035963231794082695e+01 -1.042415101971565328e+01 -1.043082024321907397e+01 -1.042778033650748348e+01
3.789719067646671213e+00 3.596444061128610148e+00 3.370834852282621696e+00 3.381404167274712602e+00 3.250948348109639063e+00 3.151361779168744714e+00 3.020184223206450191e+00 3.020184223206450191e+00 2.988900681800967352e+00 3.002960779140838365e+00 2.949465944335335266e+00 2.964387981778095149e+00 2.833412498059823204e+00 2.728038001605439966e+00 2.654932558116857244e+00 2.692908409219360699e+00 2.538698501968632115e+00 2.527852959240231900e+00 2.527015674908080101e+00 2.527015674908080101e+00 2.417295812984911585e+00 2.286485243971473125e+00 2.177548590583233690e+00 2.215214950131463745e+00 1.902215369920745136e+00 1.623286827476742467e+00 1.497985571046875908e+00 1.076003606114026123e+00 8.415146080286209918e-01 5.126831219178012988e-01 3.908900121466568622e-01 2.009623809081096946e-01 -2.780769818795013684e-02 2.952125301991422729e-02 2.952125301991422729e-02 -1.928610288723374144e-01 -4.876710364289057464e-01 -6.746990634409472110e-01 -7.955120995494778802e-01 -1.545874042776755219e+00 -2.126452537309914348e+00 -3.046908089914610152e+00 -3.283936304603489287e+00 -3.435067694940217464e+00 -3.607893405985937996e+00 -3.925016369991610077e+00 -3.925016369991610077e+00 -4.179769297542430095e+00 -4.192195666218990979e+00 -4.075777134556366477e+00 -3.994452100123686122e+00 -3.376100711611883742e+00 -2.715450045579386629e+00 -2.348437173588525884e+00 -2.291116221085753413e+00 -2.354949000215706079e+00 -2.724736480244765779e+00 -3.303004104157092335e+00 -3.303004104157092335e+00 -3.875764046280301578e+00 -4.525058560324001888e+00 -4.525058560324001888e+00 -5.071927697633313414e+00 -5.573906942442608425e+00 -5.942221197028710655e+00 -6.027006277851827853e+00 -6.354692183913791759e+00 -6.659141333262425633e+00 -6.847224931382578816e+00 -6.830908413914514199e+00 -7.025499833925938020e+00 -7.142620637082226942e+00 -7.297715432587789763e+00 -7.297715432587789763e+00 -7.443891857291412784e+00 -7.583733969902216820e+00 -7.713781453533730570e+00 -7.722886168119197592e+00 -7.835555889719108436e+00 -7.951696763869376738e+00 -8.104631275719928141e+00 -8.100576684061641330e+00 -8.244492698880545589e+00 -8.398672245588244323e+00 -8.546998429172415257e+00 -8.546998429172415257e+00 -8.758815935377860740e+00 -8.871293424400432670e+00 -8.934524708535334980e+00 -8.989584317010255177e+00 -9.108749657955787171e+00 -9.221595909972133853e+00 -9.329777473855703107e+00 -9.382771055217869360e+00 -9.498080771760871954e+00 -9.557519723725198091e+00 -9.697186329271378469e+00 -9.752313990914039721e+00 -9.828147535670648693e+00 -9.913348898445981661e+00 -9.919440688201955680e+00 -1.009643094129718577e+01 -1.017251195713640399e+01 -1.014766284786820094e+01 -1.014766284786820094e+01 -1.013229105524403018e+01 -1.004489183021489040e+01 -1.019261443922255772e+01 -1.035256358936331011e+01 -1.028398660270012499e+01 -1.029167570325092385e+01 -1.038392475867842535e+01 -1.036302175113829627e+01 -1.043041379959792181e+01 -1.043594728734097643e+01 -1.043834932233897916e+01
4.016362556313846532e+00 3.800654505414885254e+00 3.586848609242520247e+00 3.381404167274712602e+00 3.426273217575702912e+00 3.269842686986158320e+00 3.159245902279860019e+00 3.007184882264683168e+00 3.019237001365057793e+00 3.036237869968650749e+00 3.064599412277351220e+00 2.991431911540296085e+00 2.991431911540296085e+00 2.955410518715792634e+00 2.846181064611495337e+00 2.692908409219360699e+00 2.602526783396915011e+00 2.574317678948349286e+00 2.550395063511396554e+00 2.546559161287291762e+00 2.538547865781756840e+00 2.409010743261408294e+00 2.297700495776414886e+00 2.105378339097728535e+00 2.105378339097728535e+00 1.827950155386267150e+00 1.426242715261214489e+00 1.076003606114026123e+00 9.994183550281707795e-01 6.662222932186306901e-01 3.908900121466568622e-01 5.087546598012870208e-02 -7.762516439998756734e-02 1.920025315912984865e-01 -3.617893847697534887e-02 -3.006430094168645040e-01 -3.006430094168645040e-01 -4.652584820962645251e-01 -9.653424971126466358e-01 -9.653424971126466358e-01 -1.634693095804781393e+00 -2.863121259221280468e+00 -3.283936304603489287e+00 -3.400963676260825075e+00 -3.541550671122189797e+00 -3.694317703192497859e+00 -4.004449135436088270e+00 -4.039134742813214274e+00 -4.197112994547071096e+00 -4.116160715085023902e+00 -3.934264853304223930e+00 -3.934264853304223930e+00 -3.103435514258550576e+00 -2.407170431142795941e+00 -2.291116221085753413e+00 -2.222146182951964200e+00 -2.466264083963632725e+00 -2.851222342868875437e+00 -3.429120887947765262e+00 -3.553614438295670030e+00 -4.200208012847795658e+00 -4.652068208125521132e+00 -5.168828903295935362e+00 -5.282641337119232894e+00 -5.658897147539377670e+00 -6.028636091800864349e+00 -6.366158693197659701e+00 -6.366158693197659701e+00 -6.559298104390929751e+00 -6.838525011099105377e+00 -7.028667312851371918e+00 -7.017661123906745679e+00 -7.188855689624428003e+00 -7.294012283426248189e+00 -7.326051685064813412e+00 -7.490807086061264997e+00 -7.604779079601110325e+00 -7.722881112033514128e+00 -7.761315416267576595e+00 -7.840449015915338826e+00 -8.044365687262509113e+00 -8.157583071814269005e+00 -8.157583071814269005e+00 -8.336257557246202765e+00 -8.501028673530255375e+00 -8.600540872855516383e+00 -8.691979459944784381e+00 -8.816516879243277316e+00 -8.888042571852437845e+00 -9.024832338345166960e+00 -9.071667008148036615e+00 -9.154903774869602273e+00 -9.279635109331872300e+00 -9.429623924228208054e+00 -9.429623924228208054e+00 -9.561717449089721654e+00 -9.730255521783165662e+00 -9.752313990914039721e+00 -9.790955593360727960e+00 -9.847961556415633311e+00 -9.919440688201955680e+00 -1.018981976481035900e+01 -1.011914171213007307e+01 -1.017710030601073790e+01 -1.011849434063563180e+01 -1.010624869100268874e+01 -1.010624869100268874e+01 -1.011372541422185201e+01 -1.023543626948919183e+01 -1.028398660270012499e+01 -1.030468493717642176e+01 -1.044546931703951564e+01 -1.036302175113829627e+01 -1.041213579368059783e+01 -1.043887906742228466e+01 -1.042333404629835769e+01
3.994223784610490213e+00 3.752295447263050754e+00 3.752295447263050754e+00 3.633921461550631449e+00 3.471170048624413251e+00 3.269842686986158320e+00 3.267916147467318400e+00 3.097794339630445037e+00 3.019237001365057793e+00 3.056121586613558705e+00 3.069476897013638794e+00 3.051782001477672424e+00 3.003554804414768853e+00 3.025642557200132643e+00 2.984095996626383140e+00 2.750791365908603403e+00 2.587686149980769290e+00 2.587686149980769290e+00 2.586175845248550154e+00 2.607314929237469325e+00 2.538547865781756840e+00 2.530536570276222363e+00 2.419869371012312698e+00 2.308541308274712378e+00 2.131765743788885281e+00 2.100914136793499143e+00 1.770465462580484761e+00 1.365047133177230032e+00 8.515988933256513072e-01 8.442810406695806513e-01 5.430783725303411913e-01 1.366305438615015300e-01 2.425284277190288273e-01 2.425284277190288273e-01 8.941733455617049964e-02 -1.738870066193949626e-01 -3.303111093003623377e-01 -2.436209889901424508e-01 -6.451246603027561699e-01 -1.024707159570835913e+00 -1.819487103095092984e+00 -2.527869283636884568e+00 -3.217122082083499812e+00 -3.436922448280337328e+00 -3.533210406049257291e+00 -3.533210406049257291e+00 -3.845493816533516185e+00 -4.042226204590649630e+00 -4.042226204590649630e+00 -4.134790493319419724e+00 -4.099635438033979007e+00 -3.707022508667574101e+00 -3.443078149570781399e+00 -2.732987552437874612e+00 -2.399358240516126450e+00 -2.309428567494095752e+00 -2.421710592339326951e+00 -2.514707482091896651e+00 -3.041746722570815908e+00 -3.693655552061441583e+00 -3.693655552061441583e+00 -4.327918418715367643e+00 -4.885462206200116952e+00 -5.282641337119232894e+00 -5.353665558566358840e+00 -5.763877640551021919e+00 -6.072527896602482933e+00 -6.338385931392156003e+00 -6.363450382166512043e+00 -6.615765990745862801e+00 -6.851561597991558727e+00 -7.019798077064226760e+00 -7.019798077064226760e+00 -7.198371183137076912e+00 -7.391654949316425416e+00 -7.490807086061264997e+00 -7.539317867286679409e+00 -7.711263926585733230e+00 -7.761315416267576595e+00 -7.944769552409481683e+00 -8.067609659676110212e+00 -8.117189781276046290e+00 -8.270919825705970396e+00 -8.424099635703715450e+00 -8.424099635703715450e+00 -8.591731538437301197e+00 -8.758605926440875322e+00 -8.758605926440875322e+00 -8.870786231145434186e+00 -9.016065283941905761e+00 -9.071667008148036615e+00 -9.148506170843544894e+00 -9.247413979768461800e+00 -9.351758778621521273e+00 -9.511727787876502305e+00 -9.506422887447335768e+00 -9.589482264425136293e+00 -9.682776770496856145e+00 -9.784409826021406076e+00 -9.784409826021406076e+00 -9.836410843911986390e+00 -1.005114538033529747e+01 -1.011914171213007307e+01 -1.007591204538880092e+01 -1.004573019498262987e+01 -1.007954046698143102e+01 -1.002361739887006209e+01 -1.000562611349558395e+01 -1.031107647343901235e+01 -1.022698582450341398e+01 -1.030700333995190476e+01 -1.030700333995190476e+01 -1.039539688971584397e+01 -1.036841676687814484e+01 -1.043887906742228466e+01 -1.040959094703697119e+01
4.111568845343469114e+00 3.902301162990640115e+00 3.779002767029428167e+00 3.836191337008491686e+00 3.643951807713071922e+00 3.445738409774519173e+00 3.324698635245357359e+00 3.248731691669207056e+00 3.103318646889544397e+00 3.081876689298364003e+00 3.035810061134583293e+00 3.035810061134583293e+00 2.997881711241153990e+00 2.969056930977379327e+00 2.887374664736685137e+00 2.884458750764701040e+00 2.794426282681510720e+00 2.671180855461504855e+00 2.658691496245134012e+00 2.669475697558461924e+00 2.616129067475943870e+00 2.515961148547108728e+00 2.419213925963411338e+00 2.419213925963411338e+00 2.298849030358605550e+00 2.108253800359933816e+00 2.108253800359933816e+00 1.632313739523703067e+00 1.121150006741182814e+00 8.442810406695806513e-01 8.024359847570476933e-01 4.617438474596077258e-01 2.746130061937164801e-01 2.034290609137293926e-01 2.084560238566108281e-01 1.873367480692462311e-02 -2.011628424065986243e-01 -4.060864382927720229e-01 -4.060864382927720229e-01 -7.131477619688734171e-01 -1.535778928247884423e+00 -2.527869283636884568e+00 -2.699062559792908100e+00 -3.164598788593719014e+00 -3.387295143045874202e+00 -3.602942108654935360e+00 -3.673766858181450878e+00 -3.854334739502587759e+00 -4.022943081620245387e+00 -4.173971210015003486e+00 -4.173971210015003486e+00 -3.954575640274260451e+00 -3.254173778168830911e+00 -2.732987552437874612e+00 -2.638482929208402439e+00 -2.321740506384179170e+00 -2.421710592339326951e+00 -2.650572774868329873e+00 -2.761027114618895162e+00 -3.220066704348323317e+00 -3.817458372274557199e+00 -3.992236349549249219e+00 -4.471706166930495385e+00 -4.983665530525788867e+00 -5.407425151293455023e+00 -5.407425151293455023e+00 -5.787287881201473638e+00 -6.129122380344801613e+00 -6.363450382166512043e+00 -6.421648112783602258e+00 -6.641349114115247865e+00 -6.855628536899802228e+00 -7.060346839817352560e+00 -7.116977153370166675e+00 -7.248965621987188968e+00 -7.469147684404595644e+00 -7.628363553867232305e+00 -7.628363553867232305e+00 -7.808164351641242895e+00 -8.005895189575415571e+00 -8.067609659676110212e+00 -8.151678226107220482e+00 -8.326359686293677953e+00 -8.384256579597671788e+00 -8.495839149393354717e+00 -8.610554927216202969e+00 -8.700694973638473328e+00 -8.799385178414370401e+00 -8.940855017590479292e+00 -8.940855017590479292e+00 -9.063609277320422208e+00 -9.157721798959784110e+00 -9.247413979768461800e+00 -9.306000747575410514e+00 -9.423469543096366863e+00 -9.506422887447335768e+00 -9.636658025269952077e+00 -9.581307976873423726e+00 -9.674014361325165012e+00 -9.740486112216414583e+00 -9.745466712375273843e+00 -9.960810456478611741e+00 -9.989622509136275141e+00 -1.003968918970987012e+01 -1.003968918970987012e+01 -1.001724536572977975e+01 -9.980935302833936262e+00 -1.000562611349558395e+01 -1.015426769281766539e+01 -1.016803440846045881e+01 -1.024314339896961989e+01 -1.036334578630257397e+01 -1.033569616776987665e+01 -1.035358139265361466e+01 -1.041142476042724851e+01 -1.039998808070874148e+01
4.163381360794878638e+00 4.071335907438347945e+00 3.931159151449275413e+00 3.851488073598469342e+00 3.851488073598469342e+00 3.624546206039827467e+00 3.470565505010369201e+00 3.248731691669207056e+00 3.176342487849678875e+00 3.129274199530436285e+00 3.068349789468926225e+00 3.038949465586677334e+00 3.014505108962143964e+00 2.986751470644599671e+00 2.920549303864379276e+00 2.921841340700421341e+00 2.921841340700421341e+00 2.824041417197778348e+00 2.737541957189987052e+00 2.669475697558461924e+00 2.660530533031112643e+00 2.605238409489903706e+00 2.519720750620350724e+00 2.430308410863074808e+00 2.466932159955613546e+00 2.299046680817870225e+00 2.033985599317994275e+00 1.485719307914070253e+00 1.485719307914070253e+00 1.089705734205208554e+00 6.663357471444238955e-01 4.617438474596077258e-01 3.265760147547272507e-01 1.987294649678889580e-01 2.084560238566108281e-01 1.613119182005447183e-01 -9.288954669380779239e-02 -2.562093731030356536e-01 -4.133444280445275343e-01 -5.172515320440662645e-01 -7.967913168333548013e-01 -1.680464696989885542e+00 -2.794802286092488597e+00 -2.794802286092488597e+00 -3.171170704421413689e+00 -3.422458358264742984e+00 -3.673766858181450878e+00 -3.674714684877199655e+00 -3.886236071492322086e+00 -4.076762973111094368e+00 -4.201160246568205636e+00 -4.104770103790287727e+00 -3.742804892774839409e+00 -3.085611999229180391e+00 -2.597080980947950035e+00 -2.597080980947950035e+00 -2.372230678675782301e+00 -2.429478997150760655e+00 -2.761027114618895162e+00 -2.883965434891861968e+00 -3.456843471345361074e+00 -3.992236349549249219e+00 -4.609470752577796482e+00 -4.690304875526943640e+00 -5.041924803354917550e+00 -5.455491592877748985e+00 -5.830708186619184552e+00 -5.830708186619184552e+00 -6.176355966217920823e+00 -6.423734027177376404e+00 -6.641349114115247865e+00 -6.654595373614617060e+00 -6.935435171427554835e+00 -7.116977153370166675e+00 -7.171879558909564523e+00 -7.425675832634548890e+00 -7.525446777967781387e+00 -7.753148211331060580e+00 -7.850361833755944652e+00 -7.931712464115878269e+00 -8.090853632089711311e+00 -8.260061654891531546e+00 -8.260061654891531546e+00 -8.400849856089401158e+00 -8.531348087817374193e+00 -8.610554927216202969e+00 -8.671086458943589648e+00 -8.790382784039708852e+00 -8.874512230664546308e+00 -9.016693073297741279e+00 -9.059863922516303347e+00 -9.108964331968836703e+00 -9.223171321615167173e+00 -9.337670585358845088e+00 -9.337670585358845088e+00 -9.407478292533712150e+00 -9.487888034396496195e+00 -9.581307976873423726e+00 -9.558347532012261283e+00 -9.632277090779838957e+00 -9.745466712375273843e+00 -9.921626177341499542e+00 -9.860103306142477209e+00 -9.931493600692519408e+00 -9.915854980806306784e+00 -9.974900811781473919e+00 -9.935170412808673746e+00 -9.977634368256868669e+00 -1.012646230770149103e+01 -1.010817396881251540e+01 -1.018160186076281803e+01 -1.028122225556563230e+01 -1.029502699162663149e+01 -1.029502699162663149e+01 -1.036063252589606698e+01 -1.036648449979974629e+01
4.163381360794878638e+00 4.064499884255845963e+00 4.152109063592757998e+00 3.999385855595775308e+00 3.845456889851287308e+00 3.692621533380229693e+00 3.692621533380229693e+00 3.394880814708371997e+00 3.231181129931889107e+00 3.129274199530436285e+00 3.122300886933571107e+00 3.060687327900272869e+00 3.014505108962143964e+00 2.969705357973801085e+00 2.961990962360827595e+00 2.930678926678124796e+00 2.926227476304898101e+00 2.991932782692312554e+00 2.879872499159516153e+00 2.742332263649578827e+00 2.663471433877962369e+00 2.663471433877962369e+00 2.617485888391413162e+00 2.505751077352297074e+00 2.466932159955613546e+00 2.448493720693250886e+00 2.250365519525426627e+00 1.882960052314365695e+00 1.420209764518646223e+00 1.330896479562456269e+00 9.207791060023197138e-01 6.012482530516976009e-01 2.322216540483754976e-01 2.322216540483754976e-01 2.872822239556128143e-01 7.272407847220659083e-02 -9.288954669380779239e-02 -1.532176501624002429e-01 -2.758603796714675926e-01 -5.172515320440662645e-01 -1.005945412650333326e+00 -1.191553326089872300e+00 -2.026973450377396180e+00 -2.860125271371354305e+00 -3.190208059409276764e+00 -3.190208059409276764e+00 -3.497165129692422880e+00 -3.723910452837509766e+00 -3.723910452837509766e+00 -4.014263269845679716e+00 -4.260624130006774202e+00 -4.104770103790287727e+00 -3.965874621812172318e+00 -3.403167915822499889e+00 -2.918358824648751071e+00 -2.502952855311929348e+00 -2.450717601604393003e+00 -2.277184587687472117e+00 -2.529845606853479367e+00 -2.975447124955665767e+00 -2.975447124955665767e+00 -3.655242758940495662e+00 -4.306053405522970223e+00 -4.690304875526943640e+00 -4.754470858677313672e+00 -5.160686889647433162e+00 -5.476705353528900311e+00 -5.920414983087071370e+00 -5.925645410904518684e+00 -6.216091712952509063e+00 -6.445675611227072999e+00 -6.757269190862654540e+00 -6.859590323199121542e+00 -7.041737784178320858e+00 -7.304079124684353275e+00 -7.511575688648882476e+00 -7.511575688648882476e+00 -7.789495555562413465e+00 -7.949208842466420677e+00 -8.055260576590512756e+00 -8.138809629190044248e+00 -8.274515913695422498e+00 -8.346780221666788790e+00 -8.492551513762252924e+00 -8.555617163206076015e+00 -8.606937099208199271e+00 -8.726233424304318476e+00 -8.781380389665047304e+00 -8.878238230183658430e+00 -9.016629380914860548e+00 -9.091447719049213561e+00 -9.091447719049213561e+00 -9.198697739763275649e+00 -9.291960171996667128e+00 -9.360032039449087904e+00 -9.354829355858822026e+00 -9.410628865448803282e+00 -9.494811749791335131e+00 -9.557822961043127563e+00 -9.523418121191557617e+00 -9.654522580838559520e+00 -9.810414616627257445e+00 -9.858038860876350284e+00 -9.858038860876350284e+00 -9.801648454023426993e+00 -9.916472865656437818e+00 -9.935170412808673746e+00 -9.983340968658282577e+00 -1.006614652811586197e+01 -1.010817396881251540e+01 -1.017596793791031295e+01 -1.019909872482869240e+01 -1.027227191370281645e+01 -1.027072770536406487e+01 -1.034835064852275366e+01 -1.034835064852275366e+01
4.452825821938220408e+00 4.374994504349290381e+00 4.152109063592757998e+00 4.259511045390146577e+00 4.122382474764854976e+00 3.849320261922192010e+00 3.617460892907507386e+00 3.542300252434785968e+00 3.307487765347504993e+00 3.240150798141150368e+00 3.134709036672066684e+00 3.134709036672066684e+00 3.064282608990720469e+00 2.999062145921898903e+00 2.961990962360827595e+00 2.995432488137178328e+00 3.015281195951208471e+00 2.991932782692312554e+00 2.865674395942085173e+00 2.832323964759651869e+00 2.728507304308154247e+00 2.677536495459849508e+00 2.601885483847259373e+00 2.601885483847259373e+00 2.536599385815471841e+00 2.459548031415656588e+00 2.459548031415656588e+00 2.141971360485836584e+00 1.716238832341124176e+00 1.330896479562456269e+00 1.233428858059984812e+00 8.563895440195032904e-01 5.469254011881105049e-01 3.606050265696205681e-01 3.227378457112367038e-01 2.081543182813448689e-01 2.413586196728232172e-02 -1.936317422034861402e-01 -1.936317422034861402e-01 -3.380779465765495484e-01 -6.343929905532953439e-01 -1.481983500825261979e+00 -1.481983500825261979e+00 -2.501112928688179693e+00 -3.034026978853272105e+00 -3.256869614964212012e+00 -3.310388173075063722e+00 -3.592750016078938735e+00 -3.799968342370166674e+00 -4.096076477736636079e+00 -4.149070378197404985e+00 -4.170372601243848010e+00 -3.826087838863515334e+00 -3.262385033464267448e+00 -3.262385033464267448e+00 -2.761456522261811486e+00 -2.407775265680129007e+00 -2.335405496442988671e+00 -2.371941169582794551e+00 -2.673496086319506304e+00 -3.173896992328887556e+00 -3.269017594783305114e+00 -4.012123912230418199e+00 -4.400818519075572866e+00 -4.869484216396090304e+00 -4.994007769059495061e+00 -5.231418091870004616e+00 -5.614397645062116027e+00 -5.928201361326772556e+00 -5.928201361326772556e+00 -6.301691828209241564e+00 -6.669782845919904446e+00 -6.859590323199121542e+00 -6.996410206513962393e+00 -7.311958678282630686e+00 -7.427921667923293114e+00 -7.677266165745637139e+00 -7.870121218449581235e+00 -7.911257312914582229e+00 -8.090473676217460053e+00 -8.274192597064507382e+00 -8.274192597064507382e+00 -8.379746699518419106e+00 -8.471472918343524228e+00 -8.555617163206076015e+00 -8.597853434505623227e+00 -8.717041566381745099e+00 -8.781380389665047304e+00 -8.915869840530181278e+00 -9.012035016665771892e+00 -9.042690252058266154e+00 -9.133378375490057266e+00 -9.234701200618836481e+00 -9.234701200618836481e+00 -9.302730945059447976e+00 -9.332622982752971197e+00 -9.332622982752971197e+00 -9.403566437931367261e+00 -9.443988162900538441e+00 -9.523418121191557617e+00 -9.563578449301846973e+00 -9.681256889909978014e+00 -9.730584103148679276e+00 -9.823298011675166919e+00 -9.695375804239230177e+00 -9.851225596945811347e+00 -9.889405522783413005e+00 -1.005143351862660595e+01 -1.005143351862660595e+01 -1.005464723132204874e+01 -1.011297653327035917e+01 -1.019909872482869240e+01 -1.020071429359294157e+01 -1.024053174218723505e+01 -1.030984029136488545e+01 -1.033376198745943952e+01
4.811114228416688121e+00 4.591904881232721891e+00 4.433304888527796805e+00 4.337628655325500127e+00 4.337628655325500127e+00 4.109731310709069163e+00 3.764880330633921801e+00 3.542300252434785968e+00 3.440961999830063789e+00 3.370124270683239942e+00 3.243898345434425678e+00 3.127192992254981707e+00 3.076993303430247018e+00 2.997690977365451648e+00 3.002721153635956597e+00 3.052428084051551860e+00 3.031121420887568974e+00 3.044826098467500408e+00 3.021383117432462573e+00 2.800709748314300640e+00 2.800709748314300640e+00 2.747280650706918070e+00 2.671473002472092073e+00 2.590341866822013728e+00 2.606266611675329692e+00 2.605934537155671915e+00 2.444684385371499680e+00 2.110853189430928811e+00 2.012267900163601908e+00 1.612460480157536180e+00 1.213556013880062512e+00 7.659802837226026284e-01 7.659802837226026284e-01 4.692024341985515656e-01 2.255833428796904239e-01 2.255833428796904239e-01 1.240545848866473760e-01 -6.108047818470080381e-02 -2.027570878370952845e-01 -2.943265460590905325e-01 -4.500516220105421628e-01 -7.512781218410214956e-01 -1.597179837244255829e+00 -2.017626391158521493e+00 -2.769024511529566634e+00 -3.100012676561496150e+00 -3.355072837999610424e+00 -3.355072837999610424e+00 -3.683571408778580469e+00 -3.989744076335856704e+00 -4.149070378197404985e+00 -4.139746713902720643e+00 -4.060859108215602475e+00 -3.772732284840859318e+00 -3.139454415465813941e+00 -3.038710276994376791e+00 -2.659640615230963956e+00 -2.358593766285811633e+00 -2.340588727604720365e+00 -2.340588727604720365e+00 -2.790165544950551801e+00 -3.388395725602396436e+00 -4.012123912230418199e+00 -4.201017084849087979e+00 -4.730727595409440767e+00 -4.994007769059495061e+00 -5.300731984525011597e+00 -5.321803938275772694e+00 -5.624886834409467795e+00 -5.965203912836377853e+00 -6.435646035802530029e+00 -6.435646035802530029e+00 -6.810509826491965235e+00 -7.138524977038820829e+00 -7.138524977038820829e+00 -7.479192784845968056e+00 -7.754311519207499614e+00 -7.870121218449581235e+00 -7.984641255541218285e+00 -8.141140536041470810e+00 -8.207997470747805835e+00 -8.306738109658681424e+00 -8.389188989641551686e+00 -8.447492451173186367e+00 -8.543927565574817251e+00 -8.652303620594203437e+00 -8.652303620594203437e+00 -8.774320486524903373e+00 -8.870576350529603360e+00 -9.012035016665771892e+00 -9.043440667817685963e+00 -9.105917349365615365e+00 -9.175939092237793915e+00 -9.229265891627935758e+00 -9.237271817558749376e+00 -9.277362082679143640e+00 -9.333716858311486675e+00 -9.350303359700166794e+00 -9.350303359700166794e+00 -9.414559151603272724e+00 -9.516322549136541298e+00 -9.681256889909978014e+00 -9.601064900154883119e+00 -9.715102422657817982e+00 -9.695375804239230177e+00 -9.857655245847917413e+00 -9.842214327664494888e+00 -9.936208576363522837e+00 -9.994191029772355961e+00 -1.000399563553356863e+01 -1.006849859919057799e+01 -1.012920047619360098e+01 -1.017843979375979302e+01 -1.017843979375979302e+01 -1.026066924489440169e+01 -1.034292258126522412e+01
4.823194862425841833e+00 4.699852365170638535e+00 4.653467376592514526e+00 4.551233313221481502e+00 4.403809128427823794e+00 4.104868453670895256e+00 3.931151004210862610e+00 3.675627085297607621e+00 3.420443479840467482e+00 3.352919287538809634e+00 3.352919287538809634e+00 3.193698656609690989e+00 3.038313821069765996e+00 3.038313821069765996e+00 3.034980500129459635e+00 2.998886654402132645e+00 3.031121420887568974e+00 3.059140969822852441e+00 3.130095433785230696e+00 2.921541220053628596e+00 2.825083810344957147e+00 2.909191770663469789e+00 2.773595730315327135e+00 2.696726347593034756e+00 2.710260413088715126e+00 2.710260413088715126e+00 2.620084783208236789e+00 2.324827446889410787e+00 2.012267900163601908e+00 1.966972882666655043e+00 1.445358585947952079e+00 1.078010007687345340e+00 6.473249088516359606e-01 6.666929632481515267e-01 3.747653423966952335e-01 2.329340349507204311e-01 7.880439843518885490e-02 7.880439843518885490e-02 -1.353179161252749396e-01 -3.143139600525135524e-01 -4.500516220105421628e-01 -5.644671074472489281e-01 -1.176366860219967947e+00 -2.017626391158521493e+00 -2.779682832539460247e+00 -2.755404267477066682e+00 -3.106041178190430685e+00 -3.424972409882137026e+00 -3.469291130330836914e+00 -3.764178371785664723e+00 -4.019810374669203767e+00 -4.123299465920188034e+00 -4.123299465920188034e+00 -4.011315018140531485e+00 -3.450390957462489361e+00 -3.038710276994376791e+00 -2.935246952413800958e+00 -2.540432846155409763e+00 -2.315781896558256836e+00 -2.473833850034873105e+00 -2.606264481932040411e+00 -2.948239608054704419e+00 -3.738376598668564199e+00 -4.366120190916640276e+00 -4.366120190916640276e+00 -4.791928521187694301e+00 -5.056678209566147331e+00 -5.321803938275772694e+00 -5.389654530753118067e+00 -5.777356367272146187e+00 -6.135083944597009342e+00 -6.548270659734084731e+00 -6.667440347596035544e+00 -6.927948756471986158e+00 -7.279945407796586387e+00 -7.601731320893519772e+00 -7.601731320893519772e+00 -7.876039923795948638e+00 -8.036122977626513730e+00 -8.141140536041470810e+00 -8.193755553468502484e+00 -8.285148096691811404e+00 -8.389188989641551686e+00 -8.392014012245892829e+00 -8.481018478666136673e+00 -8.591274992075415895e+00 -8.746144865713796790e+00 -8.705384173348232224e+00 -8.808641410833569552e+00 -8.839246327779829215e+00 -8.941417615967889532e+00 -8.941417615967889532e+00 -9.027308182593927199e+00 -9.121540635108257078e+00 -9.237271817558749376e+00 -9.189690362649439948e+00 -9.241619325669081064e+00 -9.302384945515857595e+00 -9.325791009155448563e+00 -9.324291913187536807e+00 -9.424164513947303590e+00 -9.552028435350795377e+00 -9.652786429568784854e+00 -9.652786429568784854e+00 -9.632855123947910769e+00 -9.782324552568963938e+00 -9.842214327664494888e+00 -9.878360923033026708e+00 -9.926283736858351858e+00 -1.000399563553356863e+01 -1.005692242309796391e+01 -1.008669713510960975e+01 -1.015801907405637650e+01 -1.020864082300324149e+01 -1.028276462308311068e+01 -1.033164941360120181e+01
4.889474584007750479e+00 4.788568510228127906e+00 4.632603957988549404e+00 4.632603957988549404e+00 4.544867600973362620e+00 4.257135429614287148e+00 3.931151004210862610e+00 3.901987163408191961e+00 3.604036173936129739e+00 3.477601279772351006e+00 3.341612243938973936e+00 3.345372060541906833e+00 3.185058886537167844e+00 3.029522436196204094e+00 3.026398670563246629e+00 3.026398670563246629e+00 3.018919295227648014e+00 3.108507093184583958e+00 3.130095433785230696e+00 3.044688249592486073e+00 3.020764122310109379e+00 2.909191770663469789e+00 2.926420507098861812e+00 2.844560320664470510e+00 2.757114125525256920e+00 2.763669811248820274e+00 2.763764848077272518e+00 2.554940646716154617e+00 2.391514267099502877e+00 1.919698684772035424e+00 1.919698684772035424e+00 1.364942044261013621e+00 9.953956740345961673e-01 6.666929632481515267e-01 6.375120173369736021e-01 3.566868687469883503e-01 1.870774780647153357e-01 2.828522370612325532e-02 -2.123842517395265264e-02 -2.171062488797634027e-01 -3.463398364452874856e-01 -7.372817431933835763e-01 -7.372817431933835763e-01 -1.629257428964793419e+00 -2.260684184526611684e+00 -2.755404267477066682e+00 -2.860673724753855396e+00 -3.211374914600533259e+00 -3.469291130330836914e+00 -3.801788044168911807e+00 -3.852683839227713403e+00 -4.018787696519344088e+00 -4.075749285701264490e+00 -3.870482816728367137e+00 -3.870482816728367137e+00 -3.340911307933444263e+00 -2.854227238700611125e+00 -2.540432846155409763e+00 -2.496960875387415957e+00 -2.420025428220753838e+00 -2.606264481932040411e+00 -2.729355407097898478e+00 -3.348458402136932577e+00 -3.861062039934835877e+00 -4.430459734575107333e+00 -4.445828470752554828e+00 -4.817862948776042487e+00 -5.119874049803818217e+00 -5.470646138222479138e+00 -5.470646138222479138e+00 -5.949633380132913985e+00 -6.385980110895244977e+00 -6.667440347596035544e+00 -6.799512673954156483e+00 -7.140354532723334202e+00 -7.408274547775010710e+00 -7.678066317459323997e+00 -7.805115584351160152e+00 -7.946844715644377999e+00 -8.103767808183127030e+00 -8.256525619356706258e+00 -8.256525619356706258e+00 -8.326786529857821861e+00 -8.412252140556597979e+00 -8.496256936654186021e+00 -8.496256936654186021e+00 -8.636313031048560518e+00 -8.699737011392960184e+00 -8.779972669464328305e+00 -8.707930724786807630e+00 -8.694358000763088512e+00 -8.853095864837246864e+00 -8.995820840238566873e+00 -9.005192527150153836e+00 -9.122555489617539592e+00 -9.164487137046094745e+00 -9.118073708949925305e+00 -9.194185168744830605e+00 -9.246935734214314806e+00 -9.340918304897488866e+00 -9.340918304897488866e+00 -9.457733699189192933e+00 -9.565705254224479148e+00 -9.666331506337055401e+00 -9.615654815255542331e+00 -9.716632057224924068e+00 -9.776776118984669139e+00 -9.925962641237406459e+00 -9.869458318706749722e+00 -9.954337634098338938e+00 -1.002429580274456988e+01 -1.012486866948312070e+01 -1.012486866948312070e+01 -1.017499936012180051e+01 -1.026294761480833984e+01 -1.033164941360120181e+01
4.895482303907520816e+00 4.821629119836859267e+00 4.711100536971349229e+00 4.599051138722783705e+00 4.562349239952114388e+00 4.456768657237952347e+00 4.103966571027546806e+00 3.861144183691275877e+00 3.861144183691275877e+00 3.605107848830062522e+00 3.470961973396169853e+00 3.345372060541906833e+00 3.349131877144839287e+00 3.100240500881737304e+00 3.049792051316625674e+00 2.992269940026559993e+00 3.025903454974567364e+00 3.053703885427839104e+00 3.192872885071521338e+00 3.090278289384133625e+00 3.090278289384133625e+00 3.073198879499955627e+00 2.938548785534148777e+00 2.844560320664470510e+00 2.923821626197399048e+00 2.921832211186297101e+00 2.763764848077272518e+00 2.508985373831870369e+00 2.631563707907234040e+00 2.409682381456465627e+00 1.851008612868176417e+00 1.314154151802468862e+00 1.314154151802468862e+00 9.449541873655740165e-01 5.680110696972116013e-01 5.680110696972116013e-01 2.560493053871825686e-01 9.553038647976451470e-02 -2.123842517395265264e-02 -8.978835160389395109e-02 -2.789919965905273136e-01 -4.569823149091285508e-01 -9.541236272373023741e-01 -1.058843521063534077e+00 -1.682880377192705224e+00 -2.354813473436706772e+00 -2.919947112102588171e+00 -2.919947112102588171e+00 -3.246625314411657914e+00 -3.589807867171129985e+00 -3.852683839227713403e+00 -3.858020658038382233e+00 -4.018025773091601138e+00 -4.046275014845710949e+00 -3.736293169396875502e+00 -3.663945424845906462e+00 -3.121147909179733393e+00 -2.772257345407909579e+00 -2.450115485934524440e+00 -2.362256865748202816e+00 -2.423865689850072336e+00 -2.815178072204508553e+00 -3.421233493948181881e+00 -3.421233493948181881e+00 -4.032272544314084328e+00 -4.507986791527124559e+00 -4.835277041166729184e+00 -4.877541920136195586e+00 -5.274537424563641608e+00 -5.609206300000051826e+00 -5.785173603781749385e+00 -6.227697812358062635e+00 -6.519665656890914818e+00 -6.910332394152648661e+00 -7.000763657650079352e+00 -7.297175892652261631e+00 -7.589095056913944148e+00 -7.914061229347276516e+00 -7.914061229347276516e+00 -8.067186599494180044e+00 -8.194965486776592201e+00 -8.238431296460797526e+00 -8.261220731328341671e+00 -8.349752477579905019e+00 -8.383741587532421491e+00 -8.560461003273452718e+00 -8.529948584098082875e+00 -8.611411467031317102e+00 -8.641955940055792595e+00 -8.635888780109286955e+00 -8.635888780109286955e+00 -8.744381250499188241e+00 -8.879472732280461855e+00 -9.005192527150153836e+00 -9.000413463928394364e+00 -9.046192139438540281e+00 -9.118073708949925305e+00 -9.165421920405355749e+00 -9.154471259426316010e+00 -9.236777112772818654e+00 -9.337725293436660579e+00 -9.447883578454947084e+00 -9.447883578454947084e+00 -9.583958090529806739e+00 -9.685941074093697978e+00 -9.716632057224924068e+00 -9.711337910304843390e+00 -9.816099366608550980e+00 -9.869458318706749722e+00 -9.904679632663107469e+00 -9.996007722289334652e+00 -1.005111454123519010e+01 -1.011761220973719766e+01 -1.014135789724035774e+01 -1.022103522834486355e+01 -1.031672803092400059e+01
4.897965166520418023e+00 4.821629119836859267e+00 4.768733697350183931e+00 4.644593307552276507e+00 4.562349239952114388e+00 4.356062553592201958e+00 4.296309114571277732e+00 4.177594661040343382e+00 3.833471610304808763e+00 3.774270038671025507e+00 3.624071974087050840e+00 3.509445051149578276e+00 3.248195335042362686e+00 3.248195335042362686e+00 3.087207369784796818e+00 2.989388491359287414e+00 3.025903454974567364e+00 3.048895574478665882e+00 3.112619788314439528e+00 3.136430085788072031e+00 3.212789990481129898e+00 3.214139782903735032e+00 3.064086761483662436e+00 2.992394293735905819e+00 3.036140266145554989e+00 3.059669601260492033e+00 2.907444912946308690e+00 2.715561736894278599e+00 2.716491720308360946e+00 2.716491720308360946e+00 2.173477843081519367e+00 1.593355647902570338e+00 1.251702118446619938e+00 1.144379565599170867e+00 7.155273264518196008e-01 5.394677379323427058e-01 2.095159583067106035e-01 1.185848459056403487e-01 7.531242222075096304e-02 -1.324582376668096140e-01 -3.393724383692359181e-01 -3.393724383692359181e-01 -5.691079125957858587e-01 -1.112466469291446325e+00 -1.741685536513763344e+00 -1.954222679396347528e+00 -2.703040916116981052e+00 -2.997777419318930381e+00 -3.024002121112101982e+00 -3.377827690173349495e+00 -3.641333522402042000e+00 -3.933328249503656782e+00 -3.939653250491806702e+00 -4.062297158693986887e+00 -3.990857124817821955e+00 -3.560483973017955162e+00 -3.560483973017955162e+00 -3.002481706391005645e+00 -2.570342735772850329e+00 -2.362256865748202816e+00 -2.308173271985273889e+00 -2.540387426028634543e+00 -2.958540205605300510e+00 -3.478675431797420448e+00 -3.571532330456440807e+00 -4.095408943464283524e+00 -4.557198248885621972e+00 -4.958671391863286537e+00 -4.958671391863286537e+00 -5.441056232727957465e+00 -5.955611839706014266e+00 -6.227697812358062635e+00 -6.371890966185796756e+00 -6.788556333103748841e+00 -7.000763657650079352e+00 -7.412017189432047459e+00 -7.537208014673142387e+00 -7.711594561172931961e+00 -7.952053956121012845e+00 -8.109642273565432546e+00 -8.109642273565432546e+00 -8.194595802184462485e+00 -8.252599025749841388e+00 -8.252599025749841388e+00 -8.330965084028306933e+00 -8.494634607744563581e+00 -8.529948584098082875e+00 -8.516138011841638544e+00 -8.597803325598643909e+00 -8.619191770271090292e+00 -8.621183268796334787e+00 -8.628033142541084999e+00 -8.753752937410775203e+00 -8.888808563184111833e+00 -8.974483265976031632e+00 -8.974483265976031632e+00 -9.009427206653237263e+00 -9.074525476057043960e+00 -9.154471259426316010e+00 -9.149262312358102278e+00 -9.263267403822396773e+00 -9.370579607337946371e+00 -9.478624078880173442e+00 -9.489628203838552878e+00 -9.556458732883514884e+00 -9.659669610597717337e+00 -9.754873653037313019e+00 -9.754873653037313019e+00 -9.812632900555147586e+00 -9.898215933253359466e+00 -9.996007722289334652e+00 -1.001295194389161836e+01 -1.009269146840061104e+01 -1.014135789724035774e+01 -1.024313060653357255e+01 -1.031549169173398006e+01
4.880845989201731960e+00 4.854359573006321149e+00 4.795057075587288331e+00 4.739065891888996518e+00 4.579830878930867044e+00 4.475630045842755145e+00 4.447591256778464341e+00 4.447591256778464341e+00 4.072223337906708096e+00 3.779781927799894969e+00 3.593664278867645390e+00 3.637200760133314947e+00 3.397190749769058105e+00 3.250524611924364482e+00 3.047271923964398610e+00 3.050454566350820240e+00 2.990524280438107585e+00 3.076609850492573628e+00 3.134110338388281569e+00 3.134110338388281569e+00 3.239216731386913128e+00 3.101067303255413687e+00 3.101067303255413687e+00 3.070323453116654999e+00 3.117165036325079797e+00 3.059669601260492033e+00 3.036116188879699251e+00 2.941807603346521915e+00 2.824400590816836143e+00 2.579183546338873256e+00 2.372823961777530855e+00 2.045925877361421286e+00 1.474294199271167338e+00 1.050735011507008876e+00 1.050735011507008876e+00 7.043446442084644321e-01 3.854759660706981172e-01 1.185848459056403487e-01 1.402991048042218081e-01 3.159578735966027396e-02 -1.622312312061108264e-01 -3.835488629997992893e-01 -4.139662791468006198e-01 -5.533695637759334929e-01 -1.254350425019943094e+00 -2.268230438177293973e+00 -2.268230438177293973e+00 -2.769144366615233110e+00 -3.111580727759472254e+00 -3.377827690173349495e+00 -3.444306423752066415e+00 -3.765403918676621942e+00 -3.939653250491806702e+00 -4.107549008996440598e+00 -4.076540624810366609e+00 -3.953070987357160337e+00 -3.377937267004592847e+00 -3.273185367420834879e+00 -2.859456583631043269e+00 -2.444112122816179955e+00 -2.299960920029105349e+00 -2.299960920029105349e+00 -2.614478785385420334e+00 -3.114886899117186303e+00 -3.571532330456440807e+00 -3.739446570192014541e+00 -4.258144393552290019e+00 -4.609734570559957056e+00 -5.073728884447302967e+00 -5.201872857946733042e+00 -5.598663970832109094e+00 -6.051556328844222676e+00 -6.511629051907265264e+00 -6.511629051907265264e+00 -6.850467249489231136e+00 -7.279582134347375444e+00 -7.537208014673142387e+00 -7.594829979422781818e+00 -7.847924483933729434e+00 -8.032449067833004719e+00 -8.128162021423145589e+00 -8.145475177964664582e+00 -8.192778028315162331e+00 -8.284768156306835607e+00 -8.343534101116798496e+00 -8.343534101116798496e+00 -8.485180723078146414e+00 -8.523416001435967004e+00 -8.597803325598643909e+00 -8.558721857203083871e+00 -8.567654485597195446e+00 -8.628033142541084999e+00 -8.763124624322358613e+00 -8.770469562025814625e+00 -8.888869454852212471e+00 -8.948553068023670676e+00 -8.915339063595901337e+00 -8.981766336608201229e+00 -9.062006784638317214e+00 -9.165457582258538238e+00 -9.165457582258538238e+00 -9.279246428488407972e+00 -9.391542903535867737e+00 -9.489628203838552878e+00 -9.497262650511487436e+00 -9.602707163970510607e+00 -9.645899701625017642e+00 -9.734225867307316094e+00 -9.755807482403545450e+00 -9.842846797203010922e+00 -9.917767170800313892e+00 -1.004594884244713882e+01 -1.004594884244713882e+01 -1.010771643435891853e+01 -1.022331359825880170e+01 -1.031549169173398006e+01
4.616753369558950659e+00 4.743026859588107769e+00 4.838863436385143935e+00 4.739065891888996518e+00 4.736908570295589094e+00 4.655868522145325983e+00 4.464984801503431022e+00 4.379255375013068274e+00 4.336896883702078931e+00 3.989043467462771719e+00 3.778537990835817872e+00 3.662217051766590181e+00 3.662217051766590181e+00 3.435533558882358118e+00 3.178159340269701261e+00 3.050454566350820240e+00 3.067511003447917606e+00 3.079449521924233490e+00 3.092505691296507653e+00 3.141653538748209407e+00 3.114440019140899185e+00 3.138047845027164939e+00 3.027767374481542539e+00 3.115198006643196571e+00 3.115198006643196571e+00 3.139426232887791102e+00 3.011384536623514130e+00 2.941807603346521915e+00 2.920352712193602152e+00 2.578911331124912110e+00 2.372823961777530855e+00 1.910568183528973840e+00 1.843499089663561463e+00 1.420923947392115361e+00 1.001488006801116049e+00 9.211800240745831037e-01 6.558116560359246172e-01 2.661285205416104027e-01 1.958664420221286062e-01 1.958664420221286062e-01 -2.445847345391234662e-02 -2.348688004864510903e-01 -4.139662791468006198e-01 -4.352587894885046049e-01 -9.085708804365424385e-01 -1.558391215968132570e+00 -2.375763704460214676e+00 -2.458290550142341768e+00 -2.812662924510534346e+00 -3.191177749692441168e+00 -3.503178762915221345e+00 -3.503178762915221345e+00 -3.813042974100575577e+00 -4.025532791568292801e+00 -4.076540624810366609e+00 -4.040175379087163066e+00 -3.636271698492357984e+00 -3.273185367420834879e+00 -2.797705967732305066e+00 -2.717476621006452930e+00 -2.373491439529272551e+00 -2.396127449778822083e+00 -2.685979456061260873e+00 -2.685979456061260873e+00 -3.255063314783834372e+00 -3.828799462736201420e+00 -4.258144393552290019e+00 -4.353172880651962728e+00 -4.847325913786190377e+00 -5.201872857946733042e+00 -5.321162058354201640e+00 -5.782696675298695688e+00 -6.154917955330931001e+00 -6.586266496516697266e+00 -6.617384887315226116e+00 -6.966516566257429766e+00 -7.350033265527066817e+00 -7.623784030176905091e+00 -7.623784030176905091e+00 -7.867281600762657590e+00 -8.031996296701302995e+00 -8.145475177964664582e+00 -8.186043345783419412e+00 -8.312676438890356678e+00 -8.321840446737933661e+00 -8.395386581665716719e+00 -8.510292772714878495e+00 -8.519573407094295447e+00 -8.614941587625356334e+00 -8.545501305314900264e+00 -8.545501305314900264e+00 -8.581621444915880303e+00 -8.646776516364255372e+00 -8.777325445776030577e+00 -8.777325445776030577e+00 -8.837009058947487006e+00 -8.885368868975488610e+00 -8.980942284249358920e+00 -8.969542309850316641e+00 -9.072968977292815040e+00 -9.175679727216332182e+00 -9.292524249158114813e+00 -9.304461728191562031e+00 -9.399660533308619392e+00 -9.623638947140600308e+00 -9.516423748065218291e+00 -9.576254812320840415e+00 -9.677400449155713957e+00 -9.777389097499771253e+00 -9.777389097499771253e+00 -9.855874797203673765e+00 -1.000188809206442286e+01 -1.006719141622702196e+01 -1.007407497147747755e+01 -1.020435092029504887e+01 -1.031032272093521129e+01
4.484772730945930874e+00 4.659999162773164727e+00 4.659999162773164727e+00 4.925170348064944470e+00 4.801929057504498388e+00 4.655868522145325983e+00 4.639565735042197048e+00 4.611361248699461513e+00 4.336896883702078931e+00 4.226790896376947160e+00 3.984029983736606439e+00 3.831579348182966083e+00 3.599051635414868056e+00 3.622624205379894491e+00 3.389960544236984230e+00 3.191931395061109900e+00 3.083891426615027243e+00 3.083891426615027243e+00 3.093467034321655262e+00 3.062961521169182078e+00 3.114440019140899185e+00 3.061955907150595291e+00 3.040954707673550583e+00 3.108657256162932647e+00 3.156288170769599333e+00 3.233917528027436816e+00 3.143021409949871448e+00 2.981472180028838181e+00 2.784998700472293809e+00 2.784998700472293809e+00 2.604414189483613029e+00 2.264911566735520854e+00 1.843499089663561463e+00 1.790499706523777768e+00 1.300681618992882482e+00 9.211800240745831037e-01 5.538062522499194174e-01 4.827889049796753040e-01 3.274234089530356773e-01 9.269011878038377339e-02 -7.192613990411317326e-02 -7.192613990411317326e-02 -2.598944870595949475e-01 -5.018480515674950126e-01 -5.018480515674950126e-01 -1.025564075891650884e+00 -1.773972210802699845e+00 -2.458290550142341768e+00 -2.613466216193567337e+00 -2.998134015036181932e+00 -3.277068233455660451e+00 -3.570701630779705482e+00 -3.674995093351123732e+00 -3.868831816336575358e+00 -4.076537718497212026e+00 -3.923537473426995881e+00 -3.923537473426995881e+00 -3.573061882438299364e+00 -3.107332178168209502e+00 -2.717476621006452930e+00 -2.575534004358228213e+00 -2.309184076122113183e+00 -2.434627248154772161e+00 -2.797453895980247296e+00 -2.832476360276738436e+00 -3.484214164837683203e+00 -3.952305607123947517e+00 -4.489729016262890227e+00 -4.614263563149457958e+00 -4.980910058534648854e+00 -5.416725289062926052e+00 -5.908493420984910927e+00 -5.908493420984910927e+00 -6.322537365622704186e+00 -6.680850393475989080e+00 -6.999299869389467688e+00 -7.072887577068550868e+00 -7.371330888461836039e+00 -7.639834178598453818e+00 -7.903916552607682000e+00 -7.953905689320316164e+00 -8.078851119418331450e+00 -8.244521815935074827e+00 -8.285899125321021685e+00 -8.328817781341989246e+00 -8.362693269049582767e+00 -8.528281517228485598e+00 -8.528281517228485598e+00 -8.570772836791755722e+00 -8.531355345580291072e+00 -8.547275976297417088e+00 -8.538113214157906583e+00 -8.545999589694694976e+00 -8.662898065469764930e+00 -8.751395247823669621e+00 -8.725465049871306888e+00 -8.811078860995126050e+00 -8.885258157635043119e+00 -8.974232711528665973e+00 -8.974232711528665973e+00 -9.084149489428529733e+00 -9.210287099655674936e+00 -9.304461728191562031e+00 -9.312579357964313687e+00 -9.523038704298441459e+00 -9.516423748065218291e+00 -9.609780022090403051e+00 -9.620575031004111821e+00 -9.698982064251941537e+00 -9.778790788749576635e+00 -9.894691143119915822e+00 -9.894691143119915822e+00 -1.004090419341672735e+01 -1.013676900445247497e+01 -1.020435092029504887e+01 -1.029269225772830509e+01
4.009750520027652421e+00 4.485937508472474633e+00 4.750722885575013876e+00 5.035497628937132930e+00 4.909317248985930249e+00 4.849256016548967096e+00 4.736515290964230296e+00 4.736515290964230296e+00 4.601570429497448877e+00 4.173111639309219356e+00 3.984029983736606439e+00 4.025957936232617662e+00 3.800912521060678007e+00 3.622624205379894491e+00 3.360669549848657844e+00 3.359900994794064566e+00 3.181757527834590427e+00 3.100385285288068449e+00 3.090665639827387068e+00 3.090665639827387068e+00 2.989663306894885686e+00 2.999348124596952658e+00 2.999348124596952658e+00 3.126398748070699618e+00 3.195411305214119757e+00 3.233917528027436816e+00 3.249926631020043644e+00 3.055697655106680344e+00 2.903195643584860264e+00 2.810501558830995172e+00 2.836004417189696092e+00 2.612967013385093740e+00 2.186717509110466473e+00 1.684823347430426832e+00 1.609133728140467401e+00 1.260678206614109120e+00 7.705540754037710771e-01 4.624703872631462653e-01 4.624703872631462653e-01 1.523915334314353831e-01 7.542548714616695293e-02 -8.957648756903832665e-02 -1.301443142488652727e-01 -3.495948534607024039e-01 -5.542502832163191950e-01 -1.107102025634897347e+00 -1.227440744665427186e+00 -2.005382308293798044e+00 -2.714741270349350533e+00 -3.096410912332140164e+00 -3.096410912332140164e+00 -3.384559215966216783e+00 -3.718783605309286866e+00 -3.961354281368039576e+00 -4.040101525109775160e+00 -4.071716298327299199e+00 -3.904748141176233034e+00 -3.920733024674150080e+00 -3.425394584610722326e+00 -3.012967777479607534e+00 -2.477987599850891343e+00 -2.357811553796838488e+00 -2.198436889796462346e+00 -2.509662004957506021e+00 -2.978396650075904706e+00 -2.978396650075904706e+00 -3.634912359461982767e+00 -4.231242520669848517e+00 -4.614263563149457958e+00 -4.747252033106152069e+00 -5.165845274079562621e+00 -5.503700951242855410e+00 -6.024378181539901789e+00 -6.048933195678506181e+00 -6.372888448330844113e+00 -6.720064127426824463e+00 -7.106963027756989959e+00 -7.106963027756989959e+00 -7.449252606859637638e+00 -7.758953372814205274e+00 -7.953905689320316164e+00 -8.008813219136618144e+00 -8.222957393733496545e+00 -8.285899125321021685e+00 -8.354607097115437142e+00 -8.386840486318837051e+00 -8.462302039059256487e+00 -8.544552089158075958e+00 -8.513234864602360119e+00 -8.513234864602360119e+00 -8.494987572819926669e+00 -8.540453012466366900e+00 -8.540453012466366900e+00 -8.558348426663386022e+00 -8.612374909191377270e+00 -8.725465049871306888e+00 -8.699543302083542429e+00 -8.827790059947254520e+00 -8.877077835062316069e+00 -8.980480372327090066e+00 -9.026085042055537855e+00 -9.137165054453262769e+00 -9.215167127674643410e+00 -9.322533449949533590e+00 -9.322533449949533590e+00 -9.418457716577467664e+00 -9.540151385997278410e+00 -9.620575031004111821e+00 -9.642156646100339401e+00 -9.719078216497686995e+00 -9.796162224951784125e+00 -9.947671899902633896e+00 -9.981757965106559993e+00 -1.005075659873397598e+01 -1.018479329737774819e+01 -1.033204602536940442e+01
3.563119946081379830e+00 4.082866302398588942e+00 4.662582334764883818e+00 5.069020765418748020e+00 5.069020765418748020e+00 5.040242481055484447e+00 4.845532098343566574e+00 4.843467122385854751e+00 4.843572460468632102e+00 4.374783369339183103e+00 4.189550366945726800e+00 3.954207873411718310e+00 3.937877934253097845e+00 3.810115524586013436e+00 3.595924831930911836e+00 3.377224736019910800e+00 3.377224736019910800e+00 3.270503898867677783e+00 3.137261867420654493e+00 3.053101536191137555e+00 3.021439098495506403e+00 3.024491989004004733e+00 3.055083809329258049e+00 3.164833866740221602e+00 3.164870665003301831e+00 3.295658050354621782e+00 3.224366469177739614e+00 2.942263912785243907e+00 2.942263912785243907e+00 2.833377714953927207e+00 2.832418267835070225e+00 2.832418267835070225e+00 1.349152979194653046e+00 2.087432072832115626e+00 1.609133728140467401e+00 1.559226967824437482e+00 1.049492981084946708e+00 7.068924312656917897e-01 3.721006610579277174e-01 3.019650879122366405e-01 1.777279717652094360e-01 3.701743767833802490e-02 -2.182979369106421985e-01 -2.182979369106421985e-01 -4.118725163163827196e-01 -6.536232731537352514e-01 -1.227440744665427186e+00 -1.493528868426283296e+00 -2.291629215322354529e+00 -2.776513073312689706e+00 -3.153868299195516034e+00 -3.218415390765590356e+00 -3.478690813330576947e+00 -3.832832276920322911e+00 -4.018774801262017249e+00 -4.018774801262017249e+00 -3.999259652784800334e+00 -3.808824302992393385e+00 -3.425394584610722326e+00 -3.305133183891382664e+00 -2.716285632670156769e+00 -2.357811553796838488e+00 -2.308831761276736394e+00 -2.311395588126085698e+00 -2.585079090684453629e+00 -3.133649430117504409e+00 -3.797942776029908707e+00 -3.797942776029908707e+00 -4.352999646105629061e+00 -4.830238229590095855e+00 -4.830238229590095855e+00 -5.256884365641055545e+00 -5.750622022882701856e+00 -6.048933195678506181e+00 -6.110566798358387786e+00 -6.530249853822322592e+00 -6.854668089265333997e+00 -7.169896125904401174e+00 -7.232519738476126392e+00 -7.501613009010014821e+00 -7.855233746298543096e+00 -8.127631805057815129e+00 -8.127631805057815129e+00 -8.251829695437940870e+00 -8.315991952557620692e+00 -8.386840486318837051e+00 -8.302059020205167172e+00 -8.407390717787640355e+00 -8.470462974272194856e+00 -8.442529670826921517e+00 -8.408229769673203791e+00 -8.442972434304310880e+00 -8.546742356246923578e+00 -8.566365788936145975e+00 -8.566365788936145975e+00 -8.609021964614747446e+00 -8.724029877099201968e+00 -8.827790059947254520e+00 -8.806675145848076980e+00 -8.931158871801006427e+00 -9.026085042055537855e+00 -9.140013835840980150e+00 -9.119910034144259825e+00 -9.217658746635390088e+00 -9.342032606129938799e+00 -9.317475970512081318e+00 -9.427674338330623627e+00 -9.543313698480938356e+00 -9.650285873728638109e+00 -9.650285873728638109e+00 -9.774322861695862841e+00 -9.881363760764141801e+00 -9.981757965106559993e+00 -1.002010236633278417e+01 -1.012544387153834613e+01 -1.023594775698503057e+01
3.563119946081379830e+00 4.226498093084039454e+00 4.303841050487910991e+00 4.870503696428428064e+00 4.836525481913559688e+00 4.884471017070539212e+00 4.884471017070539212e+00 4.938480813085579513e+00 4.746930878794833220e+00 4.746930878794833220e+00 4.391564416476410493e+00 4.090344001675136454e+00 3.937877934253097845e+00 4.053287688954251067e+00 3.853139536363339168e+00 3.619756756629123551e+00 3.381183858307990509e+00 3.405492328245710354e+00 3.256694266304614338e+00 3.146962335464639882e+00 3.052485797511296894e+00 3.052485797511296894e+00 3.068111481309568234e+00 3.124583416948745196e+00 3.164870665003301831e+00 3.215008125785855597e+00 3.250818895640378070e+00 3.162064641779478880e+00 2.909280263193905647e+00 3.004000558959321943e+00 2.899081229866213416e+00 1.255574418311868889e+00 2.459158349034089142e+00 2.459158349034089142e+00 1.999311533374144689e+00 1.459612720851887868e+00 1.049492981084946708e+00 9.857999149715074294e-01 5.807449841046403716e-01 3.019650879122366405e-01 1.837800311035010514e-01 1.052021824145953910e-01 -1.542107652426676773e-02 -2.365589359973705730e-01 -2.819557355810638488e-01 -4.538055216515627377e-01 -7.723332901437020004e-01 -1.588219696120584556e+00 -1.588219696120584556e+00 -2.491369064020895863e+00 -2.993055254859847913e+00 -3.218415390765590356e+00 -3.308730327350864364e+00 -3.637114097616414465e+00 -3.869844178276029556e+00 -3.968423121691084354e+00 -3.952146089421539443e+00 -3.963547907962408967e+00 -3.706053417108814863e+00 -3.148395162492384713e+00 -3.148395162492384713e+00 -2.602078886953870462e+00 -2.424975032300753064e+00 -2.311395588126085698e+00 -2.349294980364108554e+00 -2.874104758492601164e+00 -3.311103081014278526e+00 -3.928054584674536720e+00 -4.090296757040722042e+00 -4.508240749367342204e+00 -4.930401271491970050e+00 -5.369139869693222877e+00 -5.369139869693222877e+00 -5.795340450686176759e+00 -6.220268084692214039e+00 -6.530249853822322592e+00 -6.672894443877559034e+00 -7.020672044873596640e+00 -7.232519738476126392e+00 -7.295423951711294208e+00 -7.748744359044072105e+00 -7.923929815500356355e+00 -8.178418643267846733e+00 -8.208083689031900221e+00 -8.292768493536256003e+00 -8.288416888065667010e+00 -8.363921690959347899e+00 -8.363921690959347899e+00 -8.367932721723951417e+00 -8.344197074260236491e+00 -8.408229769673203791e+00 -8.351646274753864674e+00 -8.447607129982483087e+00 -8.482023258949416444e+00 -8.542954335497977780e+00 -8.548587047473414913e+00 -8.620269694251147641e+00 -8.723013412439522440e+00 -8.819194325668730627e+00 -8.819194325668730627e+00 -8.901806763091389740e+00 -9.049162337878254192e+00 -9.119910034144259825e+00 -9.120582468245887142e+00 -9.243406340281872247e+00 -9.343643238593864808e+00 -9.424535882341334769e+00 -9.439739212014712777e+00 -9.597606822761287404e+00 -9.668580080482058747e+00 -9.772247106658273452e+00 -9.831089172059392922e+00 -9.949712845849896681e+00 -1.003213535437826387e+01 -1.017678069998134482e+01 -1.017678069998134482e+01
3.180655708756942701e+00 3.842138950769357741e+00 4.303841050487910991e+00 4.441833180957043936e+00 4.598617556955851171e+00 4.876651448241851483e+00 4.860504795526185973e+00 4.900694651829436310e+00 4.840691002130085963e+00 4.622919796138099002e+00 4.341984025190969376e+00 4.341984025190969376e+00 4.064343565128870850e+00 4.103828812798026249e+00 3.853139536363339168e+00 3.899872166998180401e+00 3.546984165274086997e+00 3.405492328245710354e+00 3.320090407202129335e+00 3.243163902275066235e+00 3.100687670560129394e+00 3.057424852961466932e+00 3.103912553650199690e+00 3.135974182152841294e+00 3.113442336547054268e+00 3.189793060227724464e+00 3.189793060227724464e+00 3.190398608414299453e+00 3.126337639286964620e+00 3.004000558959321943e+00 3.081498397241674514e+00 3.038789692223346162e+00 2.844467964705435392e+00 2.608884148111547230e+00 2.454376566461383025e+00 1.884516717933969687e+00 1.341400520657577644e+00 9.047016161699531489e-01 9.047016161699531489e-01 5.169329304086709431e-01 2.733783175159613110e-01 1.052021824145953910e-01 1.329722530123917112e-01 -7.846112603794445917e-02 -2.819557355810638488e-01 -4.780646246904596275e-01 -5.314142805442496620e-01 -8.873695150280800359e-01 -1.781202770678121716e+00 -2.731433323097335997e+00 -2.731433323097335997e+00 -3.083361936447422735e+00 -3.358010528050704213e+00 -3.637114097616414465e+00 -3.708740320616905173e+00 -3.883522638283530171e+00 -3.952146089421539443e+00 -4.029414713057688502e+00 -3.977751108658576840e+00 -3.582538616351231830e+00 -3.009095728070978026e+00 -2.854186641606021091e+00 -2.500311641405997154e+00 -2.228227276789436218e+00 -2.447756897707860091e+00 -2.447756897707860091e+00 -2.976417115839248506e+00 -3.577120860388652623e+00 -4.090296757040722042e+00 -4.262422179453314364e+00 -4.696414892702625465e+00 -5.013712082240966872e+00 -5.476865864225501923e+00 -5.544674500492872582e+00 -6.011455670253479155e+00 -6.340435580217819833e+00 -6.770075466176395551e+00 -6.864849094259761308e+00 -7.018223103078303104e+00 -7.462268056667704208e+00 -7.852907166180060905e+00 -7.852907166180060905e+00 -8.133473736374520868e+00 -8.289785165066369643e+00 -8.303547930589603610e+00 -8.254730143397287279e+00 -8.219996042791660074e+00 -8.289016420772551186e+00 -8.279539318475883647e+00 -8.240321265756982427e+00 -8.318318499959325152e+00 -8.378513302270471641e+00 -8.321653901230737560e+00 -8.396011921126772748e+00 -8.455899323372607412e+00 -8.515493046743415562e+00 -8.515493046743415562e+00 -8.618236764931790361e+00 -8.717154113054483844e+00 -8.822762201632370349e+00 -8.794658940563481409e+00 -8.924446105484637570e+00 -9.030189217734299945e+00 -9.115031950615080092e+00 -9.140355905257440128e+00 -9.233574161470137653e+00 -9.370697374675598823e+00 -9.490246193314604284e+00 -9.490246193314604284e+00 -9.622300575841482129e+00 -9.729919894503069600e+00 -9.831089172059392922e+00 -9.921910935984946889e+00 -1.000967370028393333e+01 -1.006317392971769564e+01 -1.017648021834492056e+01
2.787930245592778356e+00 3.311049789272255239e+00 3.939969758699285229e+00 4.420220135512777482e+00 4.420220135512777482e+00 4.686282446784032274e+00 4.875027732171786532e+00 4.900694651829436310e+00 4.837565612337900944e+00 4.819888423461668125e+00 4.589510259560272587e+00 4.228168426506756283e+00 4.219288312174128919e+00 4.238696392677156588e+00 4.114037219536286649e+00 3.841066021483123372e+00 3.841066021483123372e+00 3.489133870814266736e+00 3.328504091940781340e+00 3.243163902275066235e+00 3.179936242624752385e+00 3.090445689484051517e+00 3.103912553650199690e+00 3.088467302129125791e+00 3.075492753670338697e+00 3.165909697959223390e+00 3.261390437738823866e+00 3.225161090246248197e+00 3.225161090246248197e+00 3.216398589698529875e+00 3.163694551898992735e+00 3.163694551898992735e+00 3.068868896811195235e+00 2.973227386416494866e+00 2.454376566461383025e+00 2.279072050034161467e+00 1.661874857129398642e+00 1.264707398677323180e+00 8.034248585385278529e-01 7.453067183480249769e-01 4.757552840039026565e-01 2.109990324839247366e-01 1.344637440495734526e-01 7.483576164594500646e-02 -1.393468688621409823e-01 -2.706727970191263877e-01 -5.431710265390786718e-01 -5.431710265390786718e-01 -1.208651970110535379e+00 -2.251670928450321796e+00 -2.816773044712796992e+00 -2.860676885470503361e+00 -3.133309282635954762e+00 -3.434728775953272084e+00 -3.778461913674545425e+00 -3.761580018064858866e+00 -3.982428956143057697e+00 -4.149653271121984233e+00 -3.858449674964270049e+00 -3.858449674964270049e+00 -3.314665736866487578e+00 -2.745084588756652177e+00 -2.429088616311071647e+00 -2.247431494165200938e+00 -2.310198364377725522e+00 -2.579768361141429711e+00 -3.075148131012393371e+00 -3.257918938234408479e+00 -3.760170558843861421e+00 -4.307260567375950089e+00 -4.420185893554506862e+00 -4.831867955647005886e+00 -5.227591744763622650e+00 -5.589660429140960396e+00 -5.589660429140960396e+00 -6.094440386694262912e+00 -6.525209316765376855e+00 -6.864849094259761308e+00 -6.809741307665157173e+00 -7.286396356627775184e+00 -7.659926563947871081e+00 -7.954279122240876632e+00 -8.004654166456701248e+00 -8.150857025874508111e+00 -8.259860117118030587e+00 -8.181879960564216958e+00 -8.181879960564216958e+00 -8.156348910983670208e+00 -8.162807769953561277e+00 -8.240321265756982427e+00 -8.202415587391035601e+00 -8.215906889131851187e+00 -8.321653901230737560e+00 -8.385856712600897822e+00 -8.374187121694262714e+00 -8.447391664889845941e+00 -8.514476582083737810e+00 -8.605592985435880138e+00 -8.605592985435880138e+00 -8.714365531463734271e+00 -8.840995370377461526e+00 -8.924446105484637570e+00 -8.939170578312063853e+00 -9.016652139425007206e+00 -9.140355905257440128e+00 -9.149672352428192212e+00 -9.283683860187100123e+00 -9.349112976601315239e+00 -9.544927771793933147e+00 -9.576021071200907286e+00 -9.662159369310725054e+00 -9.814369210981547909e+00 -9.952619961621136824e+00 -9.952619961621136824e+00 -1.001008672236527630e+01 -1.010867242292412804e+01
2.787930245592778356e+00 3.452928311717013976e+00 3.572293409865417324e+00 4.013162665485659808e+00 4.395716940265202766e+00 4.445233638443765400e+00 4.771754908752770419e+00 4.845637316314117093e+00 4.876101179359390692e+00 4.876101179359390692e+00 4.737914268075440916e+00 4.432537734742424185e+00 4.407435305866823860e+00 4.407435305866823860e+00 4.310621033377109335e+00 4.089406093975094691e+00 3.802742154755256010e+00 3.767093067803862105e+00 3.570800815807396500e+00 3.361188545479451228e+00 3.143806088400189047e+00 3.228013250371315479e+00 3.150064157902551898e+00 3.101348409890797519e+00 3.137419275561266652e+00 3.137419275561266652e+00 3.214425986010901681e+00 3.304850225674084374e+00 3.287702070215283712e+00 3.308955348770978411e+00 3.242167423919036118e+00 3.195553770580880304e+00 3.080833168075613582e+00 3.007923116928382878e+00 2.776797886387012859e+00 2.098329061537341556e+00 1.675154358662219067e+00 1.675154358662219067e+00 1.080886387256072334e+00 7.076554441666564887e-01 4.170926874253574335e-01 3.763440087872057527e-01 1.931478584167684032e-01 7.483576164594500646e-02 2.657133181313041381e-02 -1.588143369264522764e-01 -3.681382728668759485e-01 -6.565245155556764800e-01 -9.473080276087685325e-01 -1.598027610998625558e+00 -2.429401728003395711e+00 -2.927720816225783729e+00 -2.927720816225783729e+00 -3.188500223452279680e+00 -3.547043188631240795e+00 -3.761580018064858866e+00 -3.853778634923427759e+00 -4.078307495983766628e+00 -4.134325523916709599e+00 -3.712980495965944261e+00 -3.571754692475741955e+00 -3.153004869805193344e+00 -2.651058665745275711e+00 -2.257597251961649398e+00 -2.257597251961649398e+00 -2.382331478807406810e+00 -2.784727202169950289e+00 -3.257918938234408479e+00 -3.372452004238396750e+00 -3.985786075076939383e+00 -4.420185893554506862e+00 -4.931944820748331182e+00 -5.046431562837973672e+00 -5.339502815982430484e+00 -5.705725030794098984e+00 -6.144329809119469132e+00 -6.144329809119469132e+00 -6.473494919043755402e+00 -6.917702269206774446e+00 -6.917702269206774446e+00 -7.510294184697620778e+00 -7.779367020314917447e+00 -8.004654166456701248e+00 -7.945969190760107992e+00 -7.970319738343201621e+00 -8.075429249733504733e+00 -8.047599194079172236e+00 -7.962082506670779658e+00 -8.068249573275382502e+00 -8.110463052065199463e+00 -8.151283957626837662e+00 -8.151283957626837662e+00 -8.229598437688387946e+00 -8.274119998839466916e+00 -8.374187121694262714e+00 -8.362652201673633101e+00 -8.462749153579091299e+00 -8.515122158122526486e+00 -8.603518630936621392e+00 -8.605968861295099970e+00 -8.716815761822214625e+00 -8.854974219690692649e+00 -8.927467502110063791e+00 -8.927467502110063791e+00 -9.040921472239961787e+00 -9.192043292207495497e+00 -9.283683860187100123e+00 -9.280133008082973589e+00 -9.491528720613708003e+00 -9.576021071200907286e+00 -9.700357246398485955e+00 -9.762641046892387209e+00 -9.836785947840102295e+00 -9.987212046189601011e+00 -1.004441108875223776e+01 -1.004441108875223776e+01
2.510018444467335019e+00 3.058135312645248849e+00 3.621250552658302979e+00 3.621250552658302979e+00 4.090321903862003339e+00 4.473734440453805306e+00 4.718056654225398105e+00 4.663245655838620607e+00 4.838068768181543966e+00 4.863950042222412229e+00 4.661336469278118955e+00 4.609542160796671340e+00 4.452606039922967440e+00 4.471568562206401865e+00 4.283078329753128521e+00 4.283078329753128521e+00 4.031861458920635854e+00 3.776222939366626008e+00 3.776222939366626008e+00 3.528651947135691636e+00 3.352592580269744715e+00 3.228013250371315479e+00 3.294408695017668975e+00 3.175608606575623938e+00 3.096055663436146688e+00 3.165319972644747182e+00 3.200953253990875602e+00 3.252348073189653910e+00 3.337228447988021873e+00 3.361979496069042561e+00 3.361979496069042561e+00 3.232960037025046862e+00 3.076138322460409746e+00 3.007923116928382878e+00 2.908842069743553971e+00 2.568325158116319340e+00 2.179114172862041343e+00 1.566061376744215972e+00 1.409790170294966671e+00 1.017182539478274972e+00 6.384566331891272650e-01 3.373050913634298431e-01 3.373050913634298431e-01 2.133062953131595052e-01 -1.099272536685419466e-02 -1.588143369264522764e-01 -2.552184843565668548e-01 -4.196023944556603325e-01 -9.473080276087685325e-01 -1.775758410551699473e+00 -1.953489210104773388e+00 -2.526122610022765613e+00 -2.913596560112061695e+00 -3.240056338213426201e+00 -3.240056338213426201e+00 -3.563761497241985321e+00 -3.921750520946678975e+00 -3.921750520946678975e+00 -4.072097798451864925e+00 -3.942780938070058472e+00 -3.571754692475741955e+00 -3.483216289029679835e+00 -2.940246912557849424e+00 -2.507450763837606456e+00 -2.218770993184886464e+00 -2.233735112324467309e+00 -2.513662978910192969e+00 -2.891767875470275584e+00 -3.505742892091363583e+00 -3.505742892091363583e+00 -4.200395435924745513e+00 -4.805626842718532465e+00 -5.046431562837973672e+00 -5.152651414427043441e+00 -5.442502554857055586e+00 -5.759412028232812730e+00 -6.132375062533274246e+00 -6.264387919364544643e+00 -6.597143334931510950e+00 -7.072596737880466833e+00 -7.463537523019466491e+00 -7.463537523019466491e+00 -7.727726418638972916e+00 -7.793325741027594233e+00 -7.970319738343201621e+00 -7.799268811712846805e+00 -7.847037766717643414e+00 -7.962082506670779658e+00 -7.989397047266766805e+00 -7.974002860749455301e+00 -8.066718105990227983e+00 -8.105709648181305127e+00 -8.103516350687144154e+00 -8.189168477438441229e+00 -8.266139431466292820e+00 -8.358065536690205022e+00 -8.358065536690205022e+00 -8.425673550438538939e+00 -8.496067640220619666e+00 -8.605968861295099970e+00 -8.638306172296495333e+00 -8.777605891588832421e+00 -8.844716391820870882e+00 -8.919481470690108438e+00 -9.007163090929722671e+00 -9.096336473518107368e+00 -9.197502950969479230e+00 -9.344728383994260312e+00 -9.344728383994260312e+00 -9.526794746236486588e+00 -9.635215977481532690e+00 -9.762641046892387209e+00 -9.776739128804994294e+00 -9.943905040567496911e+00 -9.958787128936995359e+00 -1.001198801860264354e+01
2.285106654903845680e+00 2.658066291633161882e+00 3.171648440811448033e+00 3.679611961879260207e+00 3.751165486286461181e+00 4.165912704982388526e+00 4.448462326280887780e+00 4.711410929525656321e+00 4.711410929525656321e+00 4.883574429687862484e+00 4.807129951092876219e+00 4.609542160796671340e+00 4.698503220913361034e+00 4.624621287915141821e+00 4.449185876812910223e+00 4.226668659408922224e+00 4.309241892484873659e+00 3.981645062925854628e+00 3.760673367011314383e+00 3.484452279558531984e+00 3.484452279558531984e+00 3.433448014067852938e+00 3.254622466793206215e+00 3.175608606575623938e+00 3.115020858076688270e+00 3.145281799526019384e+00 3.200953253990875602e+00 3.292617374198347768e+00 3.301608353954657904e+00 3.397379197596110068e+00 3.341527498475631131e+00 3.270366303469213420e+00 3.175244832195564193e+00 3.057396080459769294e+00 2.987444148811750910e+00 2.987444148811750910e+00 2.664935803400154235e+00 1.964850895993285773e+00 1.409790170294966671e+00 1.313263865126683250e+00 8.680972361186561903e-01 5.459962466174939077e-01 2.513440565930020187e-01 3.296694276102487553e-01 1.888353032560841915e-01 -6.153450811334131021e-02 -2.791822279737490864e-01 -2.791822279737490864e-01 -5.623729735573993471e-01 -1.249192540630874815e+00 -1.953489210104773388e+00 -2.135133019186545855e+00 -2.666540191968232332e+00 -2.933048390532305039e+00 -3.302624976992593719e+00 -3.364316000051005062e+00 -3.687733714398463203e+00 -3.961189281553505026e+00 -4.038063930402503665e+00 -4.038063930402503665e+00 -3.765994005259645672e+00 -3.312047111182163217e+00 -2.940246912557849424e+00 -2.772543504182870766e+00 -2.335574373794005343e+00 -2.233735112324467309e+00 -2.218250961679856914e+00 -2.650335319993733840e+00 -3.029512312522855133e+00 -3.695577901030846490e+00 -3.953288976886445649e+00 -4.455234989209142960e+00 -4.900085254802100110e+00 -5.228487934357721301e+00 -5.228487934357721301e+00 -5.504489490722973777e+00 -5.903495413688108151e+00 -6.264387919364544643e+00 -6.365248264534366207e+00 -6.803645388637427516e+00 -7.140943086458181988e+00 -7.445081518376755803e+00 -7.407900222876755869e+00 -7.609229382872902292e+00 -7.615546639835347520e+00 -7.727933441787783408e+00 -7.675251755756654859e+00 -7.811812398846515570e+00 -7.900019795234643816e+00 -7.981158179167854527e+00 -7.981158179167854527e+00 -8.039132295378585980e+00 -8.103674376927546774e+00 -8.207961043951170765e+00 -8.185043425793594452e+00 -8.293660780107570574e+00 -8.360341284293753006e+00 -8.426426287782376789e+00 -8.483858579006490430e+00 -8.532795787217317240e+00 -8.696353656103742225e+00 -8.771608333193965379e+00 -8.771608333193965379e+00 -8.917989708341337973e+00 -9.034856545796191796e+00 -9.034856545796191796e+00 -9.125521221596795129e+00 -9.245323303700713424e+00 -9.407713987447406723e+00 -9.428716643062415415e+00 -9.536697282860659541e+00 -9.670754072499120113e+00 -9.858922153696042301e+00 -9.828633279485083918e+00 -9.878899967174774588e+00 -9.924945717005595469e+00
2.228155706503855082e+00 2.658066291633161882e+00 2.764395732762325864e+00 3.306047899535967893e+00 3.751165486286461181e+00 3.844920707760915324e+00 4.163101920738697892e+00 4.480853995363125009e+00 4.797691237634597705e+00 4.802358481233776288e+00 4.867527819451192173e+00 4.809950386982279724e+00 4.769171470425735748e+00 4.769171470425735748e+00 4.574498875594411373e+00 4.587533743812661768e+00 4.309241892484873659e+00 4.243523879268510157e+00 3.973402564187638042e+00 3.686096311268365344e+00 3.550889502147819066e+00 3.650346859576143466e+00 3.508940237462601530e+00 3.248314958600361013e+00 3.128959206201192167e+00 3.128959206201192167e+00 3.187877840586250233e+00 3.253819441073427576e+00 3.301608353954657904e+00 3.309440145250075904e+00 3.442645313533339912e+00 3.270366303469213420e+00 3.143457838789385228e+00 3.073602832409498831e+00 3.022734516183299469e+00 2.978939030001936050e+00 2.594586600962055734e+00 2.594586600962055734e+00 1.778261669491228325e+00 1.293439288649431251e+00 8.680972361186561903e-01 7.784462064638578704e-01 3.788179741024018110e-01 3.296694276102487553e-01 3.171646368512880398e-01 5.992563670086289984e-02 -1.410857500877172876e-01 -3.247498115865062873e-01 -3.087444908695571311e-01 -5.455517046508926438e-01 -1.296533745869001830e+00 -2.174682083248723252e+00 -2.174682083248723252e+00 -2.702617833391776081e+00 -3.088933123428604155e+00 -3.477292258164188077e+00 -3.477292258164188077e+00 -3.804592769546076614e+00 -3.952666494753929616e+00 -3.953928520590592299e+00 -3.817907695464028972e+00 -3.503282543028501284e+00 -3.171089746110422602e+00 -2.641985868371641288e+00 -2.621075037387612383e+00 -2.322214373656500186e+00 -2.336142308149625091e+00 -2.841981163873680494e+00 -2.841981163873680494e+00 -3.387112803028861308e+00 -4.071831540112755832e+00 -4.549317253460570143e+00 -4.663365324359678432e+00 -4.999451272657100098e+00 -5.246276671271147940e+00 -5.560572212094063715e+00 -5.675062865280509072e+00 -6.009913222178767001e+00 -6.471330074230158935e+00 -6.537123279777963702e+00 -6.874420977598719062e+00 -7.156560748269757966e+00 -7.344110869311836431e+00 -7.344110869311836431e+00 -7.397644899232148852e+00 -7.556147430826795741e+00 -7.675251755756654859e+00 -7.643857233042354871e+00 -7.762631347557189088e+00 -7.846616073645341416e+00 -7.956373871069012615e+00 -7.956663887568078408e+00 -8.047365383243679560e+00 -8.145491959929650250e+00 -8.224879804884380974e+00 -8.224879804884380974e+00 -8.338081279853795991e+00 -8.411139944442441063e+00 -8.483858579006490430e+00 -8.492087896075355857e+00 -8.620680047786555278e+00 -8.692490542803193776e+00 -8.828816325752951499e+00 -8.846200209883878784e+00 -8.937595347936918344e+00 -9.059797289897495887e+00 -9.121886847156757128e+00 -9.121886847156757128e+00 -9.293213355325432801e+00 -9.426939626197041733e+00 -9.536697282860659541e+00 -9.557817407814757971e+00 -9.732623836937483119e+00 -9.828633279485083918e+00 -9.777785512821086655e+00 -9.864841433694422790e+00
2.137366671123493767e+00 2.485317740183790480e+00 2.878391950585873715e+00 2.878391950585873715e+00 3.346986508057316012e+00 3.824422917087221485e+00 4.163101920738697892e+00 4.129301315701603414e+00 4.524884779158864667e+00 4.802358481233776288e+00 4.865798070241746487e+00 4.774276306205798903e+00 4.893075136221423982e+00 4.777856906050232055e+00 4.608495607605660460e+00 4.608495607605660460e+00 4.604960885480522848e+00 4.224006586541474206e+00 4.224006586541474206e+00 3.889975213345887362e+00 3.740039535206978627e+00 3.650346859576143466e+00 3.686563583556277557e+00 3.393609013263607199e+00 3.253301963261968410e+00 3.186429716411134816e+00 3.259874233186413228e+00 3.261760357696938950e+00 3.240505305180074291e+00 3.425318295499759635e+00 3.430462572999033899e+00 3.364061337684636221e+00 3.276266533398981551e+00 3.127609659256892716e+00 3.127609659256892716e+00 3.032479504548692084e+00 2.994574675079157089e+00 2.499337430182114961e+00 2.438393296472116223e+00 1.893134148865124544e+00 1.323788022308454826e+00 7.382057537266366598e-01 6.484784176958046098e-01 4.581859067657426676e-01 2.287217438823585525e-01 4.237585321480308830e-03 4.237585321480308830e-03 -1.606096878311772391e-01 -3.999354664141125948e-01 -7.888972769220816694e-01 -9.444302897986194267e-01 -1.699368192463109883e+00 -2.241527709617550101e+00 -2.396210134783815171e+00 -2.858884994968881266e+00 -3.136527978983802534e+00 -3.545542661827956632e+00 -3.596659984034562108e+00 -3.819231907427735884e+00 -3.926449956554475484e+00 -3.685065398773309298e+00 -3.685065398773309298e+00 -3.398413363053518932e+00 -2.927486531965248773e+00 -2.621075037387612383e+00 -2.580554858496335147e+00 -2.378781520363189461e+00 -2.487475616963985114e+00 -2.981434266277622314e+00 -3.065676622962550724e+00 -3.556214580715412410e+00 -4.182632062223524017e+00 -4.692457424036049929e+00 -4.692457424036049929e+00 -5.027714607716104567e+00 -5.344161580849846160e+00 -5.675062865280509072e+00 -5.760900282988529852e+00 -6.242758348319666695e+00 -6.537123279777963702e+00 -6.869245848844522939e+00 -6.890267087312903271e+00 -7.142009569445367134e+00 -7.270217360311713506e+00 -7.397963508875532668e+00 -7.397963508875532668e+00 -7.503465744795668080e+00 -7.623194036182370681e+00 -7.762631347557189088e+00 -7.729841145970359761e+00 -7.866051175028118791e+00 -7.956663887568078408e+00 -7.960111144011210449e+00 -8.102603655403019189e+00 -8.155939130832656758e+00 -8.280722068603900254e+00 -8.327413558473654831e+00 -8.369276751458047059e+00 -8.419022868241697211e+00 -8.537853959832879980e+00 -8.537853959832879980e+00 -8.650469560576180328e+00 -8.754805071830839225e+00 -8.846200209883878784e+00 -8.871876364852752772e+00 -8.990712422135317183e+00 -9.051041586261467486e+00 -9.149478261189088357e+00 -9.184774657232496864e+00 -9.319336488672041341e+00 -9.435486675664597200e+00 -9.562469304399940029e+00 -9.562469304399940029e+00 -9.713361518402670924e+00 -9.809849686652450274e+00 -9.864841433694422790e+00
2.158157171400398422e+00 2.409695660788688798e+00 2.594598098532679309e+00 2.883519009139451583e+00 2.907263186198182581e+00 3.377850167086958955e+00 3.745932325458839696e+00 4.166204130530030803e+00 4.187612174687599165e+00 4.478566948502793466e+00 4.708127466603897027e+00 4.822742593924290055e+00 4.822742593924290055e+00 4.774793652807599820e+00 4.676565004362590372e+00 4.681066277867821590e+00 4.714232323595314966e+00 4.440957881427224585e+00 4.213166648212091303e+00 3.874712118382571013e+00 3.923065433548840630e+00 3.908998244257151811e+00 3.572098732200700066e+00 3.340294515951043319e+00 3.340294515951043319e+00 3.330475022224673065e+00 3.299864628689967994e+00 3.261760357696938950e+00 3.199410077647283135e+00 3.282289937289442960e+00 3.430462572999033899e+00 3.376382360898986690e+00 3.392825716175876138e+00 3.289639836690575692e+00 3.170630753488289599e+00 3.145355424724132209e+00 3.077433605875918410e+00 3.053334102511193748e+00 2.522445285093239509e+00 2.522445285093239509e+00 1.780132026868013861e+00 1.019761547240942701e+00 6.484784176958046098e-01 5.886815221487128325e-01 3.181431839327919509e-01 2.012606266208974426e-01 -1.164418680508036430e-02 -3.644665488351397920e-02 -2.060281899114714821e-01 -5.050192185952453450e-01 -1.132028799523697060e+00 -1.132028799523697060e+00 -1.791393694616909782e+00 -2.619646755096163737e+00 -2.858884994968881266e+00 -2.907371571435792390e+00 -3.330733697373206681e+00 -3.596659984034562108e+00 -3.854262109307869721e+00 -3.870127600608199714e+00 -3.869821385668411828e+00 -3.694517974874839350e+00 -3.315375762909583912e+00 -3.315375762909583912e+00 -2.892325529871357936e+00 -2.484691482089806058e+00 -2.484691482089806058e+00 -2.342590465989866200e+00 -2.715858630066144475e+00 -3.065676622962550724e+00 -3.154722807301181042e+00 -3.832726026171922928e+00 -4.316062625379528228e+00 -4.779322639435712006e+00 -4.804752224113018499e+00 -5.079086383887992717e+00 -5.446630316872909994e+00 -5.873499264364996364e+00 -5.873499264364996364e+00 -6.270601170918499889e+00 -6.582855412656296146e+00 -6.890267087312903271e+00 -6.851738089326778081e+00 -6.992971002403229441e+00 -7.181622719088302631e+00 -7.341406692023371150e+00 -7.331679733834681301e+00 -7.475862217980527191e+00 -7.617598890399300160e+00 -7.745124684882442878e+00 -7.745124684882442878e+00 -7.869740427305738528e+00 -8.001280374906150072e+00 -8.102603655403019189e+00 -8.091270187081200049e+00 -8.272222836802590962e+00 -8.327413558473654831e+00 -8.383430964298261401e+00 -8.413653953810076302e+00 -8.458118536697469381e+00 -8.561296177987795630e+00 -8.572014795724760106e+00 -8.663409933777801442e+00 -8.764235242965357386e+00 -8.908826966104921752e+00 -8.908826966104921752e+00 -8.986341005151313510e+00 -9.056176743951349195e+00 -9.184774657232496864e+00 -9.209956334281669044e+00 -9.339297276767180023e+00 -9.444880743130392275e+00 -9.596890999517135867e+00 -9.603169031051733029e+00 -9.676671058467396946e+00 -9.805452529135296302e+00
2.237686443207762554e+00 2.361491762397661454e+00 2.361491762397661454e+00 2.542465057055792954e+00 2.873702625529443555e+00 2.873702625529443555e+00 3.324815147186270359e+00 3.798076231707688599e+00 4.187612174687599165e+00 4.154938007659476185e+00 4.505599553367941823e+00 4.640818314578434745e+00 4.773983997280329739e+00 4.791726981369722083e+00 4.856636922684053559e+00 4.745901602394959617e+00 4.680623829941210623e+00 4.680623829941210623e+00 4.449056615738627762e+00 4.096867675191393054e+00 3.923065433548840630e+00 4.144713387616537403e+00 3.752239773730372985e+00 3.561934775694834965e+00 3.394290264842355853e+00 3.467248059061772913e+00 3.407648081187377720e+00 3.267765508860347889e+00 3.144696739551690268e+00 3.144696739551690268e+00 3.262076590507130724e+00 3.306454268569878785e+00 3.392825716175876138e+00 3.472759081327611241e+00 3.357604985435915346e+00 3.145355424724132209e+00 3.188634785466767596e+00 3.229550173592834028e+00 3.123196497892854140e+00 2.418622486747294520e+00 2.150969284740428478e+00 1.446727399892240307e+00 9.454015288938507622e-01 5.597753631025609300e-01 5.597753631025609300e-01 3.222739317955688465e-01 1.136066121859281020e-01 -3.644665488351397920e-02 -9.730804957561967061e-02 -3.152556232071610509e-01 -5.568887867673105729e-01 -1.224054301677496959e+00 -1.316079803831297079e+00 -2.082660165204679892e+00 -2.637262043686014135e+00 -3.014679645210204040e+00 -3.014679645210204040e+00 -3.405609716712792334e+00 -3.720102436614844521e+00 -3.870127600608199714e+00 -3.893165512812498896e+00 -3.885100381158343552e+00 -3.633916959925353574e+00 -3.212987195558855813e+00 -3.146646503265754014e+00 -2.816329767663838801e+00 -2.359361786462611299e+00 -2.369510357185792948e+00 -2.369510357185792948e+00 -2.769931031226056994e+00 -3.292286672793464319e+00 -3.832726026171922928e+00 -3.966156589327927140e+00 -4.545199489175086427e+00 -4.804752224113018499e+00 -5.130802629942506243e+00 -5.220875116871750876e+00 -5.524720386885364931e+00 -6.009849420724880709e+00 -6.020717151220516428e+00 -6.309966707989095980e+00 -6.600025106248375906e+00 -6.771544223748077407e+00 -6.771544223748077407e+00 -6.965600538944455522e+00 -7.117302861025288863e+00 -7.331679733834681301e+00 -7.329220379631594895e+00 -7.474995250434506744e+00 -7.618036899727490763e+00 -7.767348853928452534e+00 -7.806296413541888413e+00 -7.946568848728350787e+00 -8.061596464988477706e+00 -8.156630032728919844e+00 -8.185215716554919752e+00 -8.297579074874008143e+00 -8.363840546910578766e+00 -8.488748450310769300e+00 -8.488748450310769300e+00 -8.480619657671722322e+00 -8.581444966859278267e+00 -8.672840104912317827e+00 -8.708896183909311972e+00 -8.817846870552260796e+00 -8.921627554373138480e+00 -8.980954309667874114e+00 -8.979248404116136228e+00 -9.096484321347698909e+00 -9.263634209873764291e+00 -9.340310223538230261e+00 -9.340310223538230261e+00 -9.456643665158690482e+00 -9.575556604113707238e+00 -9.575556604113707238e+00 -9.735742572244665993e+00
2.088073728060352074e+00 2.189482544816734766e+00 2.310804246479485791e+00 2.203963460334450453e+00 2.475964138865172970e+00 2.904725278421944612e+00 3.335176184777717712e+00 3.335176184777717712e+00 3.845115022314719688e+00 4.126609324233558418e+00 4.505599553367941823e+00 4.520450296343847540e+00 4.742338786641048465e+00 4.791726981369722083e+00 4.774528550372430402e+00 4.757668136113087698e+00 4.762725416310737536e+00 4.660094365482627232e+00 4.579907785661641917e+00 4.400552033672035179e+00 4.115275963097515977e+00 4.009887007999097364e+00 4.009887007999097364e+00 3.726892842695920471e+00 3.550844838603965492e+00 3.467248059061772913e+00 3.628286116199479938e+00 3.572871619466283732e+00 3.235666389030727785e+00 3.139261579079127173e+00 3.179855605444805278e+00 3.224344410370585834e+00 3.316388601521470303e+00 3.519636741590548734e+00 3.519636741590548734e+00 3.266224540987664682e+00 3.351252757512522162e+00 3.229550173592834028e+00 3.298005288509179955e+00 2.900962129126317901e+00 2.150969284740428478e+00 1.332566681412552301e+00 1.235625512105037016e+00 8.244663093028151701e-01 4.091667169089427403e-01 2.925401447543347633e-01 2.925401447543347633e-01 4.186471246939320323e-02 -9.257127913776778960e-02 -3.152556232071610509e-01 -3.179408610407307156e-01 -7.243126684119193248e-01 -1.316079803831297079e+00 -1.727087360613337230e+00 -2.494399130625668093e+00 -2.701410504150601355e+00 -3.119013541169241677e+00 -3.256554396426758924e+00 -3.502003419759453617e+00 -3.731087814952643633e+00 -3.946344561118753091e+00 -3.946344561118753091e+00 -3.870414726746874479e+00 -3.498777062917349578e+00 -2.962687675221709949e+00 -2.962687675221709949e+00 -2.393337876716654655e+00 -2.230381611214964810e+00 -2.394786506762207612e+00 -2.536812849456726582e+00 -3.032192646797588598e+00 -3.492249556834832624e+00 -4.126724285867478415e+00 -4.192663015829824147e+00 -4.559121264421136743e+00 -4.928794484711421120e+00 -5.306997907964010608e+00 -5.306997907964010608e+00 -5.762349834437691776e+00 -6.041653288542610412e+00 -6.284904088218175922e+00 -6.329199769240295481e+00 -6.513454245455523761e+00 -6.738948400305737607e+00 -6.956071027277488383e+00 -6.941041437838146422e+00 -7.136909199649542401e+00 -7.308071960174526538e+00 -7.374455659611391489e+00 -7.538751895084553567e+00 -7.698598776260178411e+00 -7.873519180969523745e+00 -7.873519180969523745e+00 -7.973999945965631220e+00 -8.087160377189054117e+00 -8.185215716554919752e+00 -8.161560984562967747e+00 -8.311989154239967093e+00 -8.423228836276377862e+00 -8.493082135275425770e+00 -8.398654690753200924e+00 -8.490049828806238708e+00 -8.608930792811509747e+00 -8.745846785161480952e+00 -8.745846785161480952e+00 -8.852542686610959777e+00 -8.910488040923432607e+00 -8.979248404116136228e+00 -9.011618738852050114e+00 -9.172454212743788915e+00 -9.252050502501495188e+00 -9.364559000368512187e+00 -9.352410511763210366e+00 -9.512146851499169387e+00 -9.660058355391583973e+00 -9.754888380092125999e+00
1.369811224742671030e+00 2.072488954750731693e+00 2.078833703453160986e+00 2.203963460334450453e+00 2.134783349779416639e+00 2.442617980201130745e+00 2.893653285655932716e+00 3.410521411933948421e+00 3.395125412842411539e+00 3.816625439647665985e+00 4.244549817613503251e+00 4.541195283872739630e+00 4.541195283872739630e+00 4.713295163819243072e+00 4.925695492859195390e+00 4.757668136113087698e+00 4.758737370457732929e+00 4.670239802555524733e+00 4.579907785661641917e+00 4.322101110026236093e+00 4.335124309750769456e+00 4.297455717465727076e+00 3.965993073783631306e+00 3.829412388926077604e+00 3.829412388926077604e+00 3.733500528407715180e+00 3.699522936307001686e+00 3.699522936307001686e+00 3.452833186651965480e+00 3.147118771688152794e+00 3.179855605444805278e+00 3.220945494580601309e+00 3.250845635390432253e+00 3.404589070918846438e+00 3.332450619029209360e+00 3.304029873737241996e+00 3.506755713102438499e+00 3.326745115846432732e+00 3.317331838748200923e+00 3.286755003975674327e+00 2.728369328129409244e+00 1.827292719822114719e+00 1.118528527177032439e+00 1.118528527177032439e+00 6.479203213578068610e-01 4.023303120262685662e-01 2.278583868068848606e-01 1.468081588647751068e-01 -2.067998535903188551e-02 -1.373214389399210200e-01 -4.672097537704100190e-01 -5.755704496834106454e-01 -9.881592471747357997e-01 -2.020274488344656838e+00 -2.615552766662282203e+00 -2.615552766662282203e+00 -3.017576952442905025e+00 -3.221175205665556707e+00 -3.495573262968437511e+00 -3.480483406758310583e+00 -3.669762594574357273e+00 -3.864632724377659478e+00 -3.713396222146862602e+00 -3.555176734295129037e+00 -3.320542926015801921e+00 -2.759087406165817491e+00 -2.640818943152752674e+00 -2.372028425529419504e+00 -2.463142337988730279e+00 -2.614682924639293748e+00 -2.614682924639293748e+00 -3.204909639017914369e+00 -3.801865214934388781e+00 -4.192663015829824147e+00 -4.258200681813435473e+00 -4.719782249895567716e+00 -5.023472753109988531e+00 -5.441501807581206940e+00 -5.547341014193010622e+00 -5.806610427213051651e+00 -6.073070183505529407e+00 -6.327012490746536599e+00 -6.327012490746536599e+00 -6.525795919707062964e+00 -6.751418603587833189e+00 -6.941041437838146422e+00 -6.976894693948387349e+00 -7.227260605728378806e+00 -7.374455659611391489e+00 -7.592441083022432480e+00 -7.646810351701062380e+00 -7.750533722661142377e+00 -7.861568303313602790e+00 -7.983135167025872114e+00 -7.983135167025872114e+00 -8.086653704166307577e+00 -8.163195647289111179e+00 -8.311989154239967093e+00 -8.331406599408623492e+00 -8.421876018467287395e+00 -8.398654690753200924e+00 -8.408084861887717310e+00 -8.545916002965871172e+00 -8.645881394063675174e+00 -8.740464534570357102e+00 -8.774304382150688753e+00 -8.850913691955577534e+00 -8.908714742620412963e+00 -9.018829779720498152e+00 -9.018829779720498152e+00 -9.164803728235812130e+00 -9.251174651347612965e+00 -9.352410511763210366e+00 -9.386791524912412754e+00 -9.558943901037894264e+00 -9.652965294646163485e+00
