-5.412262269077641186e-01 -1.008886452057410565e+00 -1.008886452057410565e+00 -1.400448025482449843e+00 -1.825980471760372037e+00 -1.872371751118441674e+00 -1.687072301008115005e+00 -1.715471805742238898e+00 -1.626069889845649374e+00 -1.410479836544287657e+00 -3.090097939292788531e-01 4.035630861369313704e-01 1.976020262348509249e+00 2.708249699528871623e+00 2.708249699528871623e+00 3.615416446700011832e+00 4.422274037980712613e+00 4.702353326995778460e+00 4.984551251574375286e+00 5.349611065774507068e+00 5.315444635620529823e+00 5.299802189672387698e+00 5.397054511062776783e+00 5.380255935523580391e+00 5.326258293172374536e+00 5.222491986215750615e+00 5.222491986215750615e+00 4.934903313033050409e+00 4.615750297519840117e+00 4.465355790881436526e+00 4.419665259627813647e+00 4.125389623906222880e+00 3.933888073906310456e+00 3.905496852848361122e+00 3.740224257382055217e+00 3.587228729802067750e+00 3.384175589182552901e+00 3.379671347780683899e+00 3.233588975249628295e+00 3.220708423390754582e+00 3.188500544616779564e+00 3.188500544616779564e+00 3.193831054855716722e+00 3.109127306518542078e+00 3.001766355039801937e+00 3.136434184479913956e+00 3.110930222249547850e+00 3.056651081829382832e+00 3.112933482353459347e+00 3.064260794273108601e+00 3.086543541463394824e+00 3.141160768628517452e+00 3.161647358381542539e+00 3.161647358381542539e+00 3.167987267583525224e+00 2.413446746918626928e+00 1.844468606524295673e+00 1.611594640008077395e+00 8.044159562412283027e-01 3.335789642940048538e-01 -8.215131235341764648e-02 -1.284214569914258197e-01 -1.732288597223246018e-01 -3.913064738879338256e-01 -8.286393181195548241e-01 -8.286393181195548241e-01 -1.433803939794441540e+00 -2.049338302942397938e+00 -2.376214270774128501e+00 -2.394709452477131073e+00 -2.693267992948269463e+00 -2.828189109453524086e+00 -2.904130556745564640e+00 -2.994143131436234562e+00 -3.003154125492662807e+00 -2.829176480935011284e+00 -2.707988890839226670e+00 -2.446191173823810239e+00 -2.108607656886239301e+00 -2.232545814591116340e+00 -2.232545814591116340e+00 -2.595481370582879865e+00 -2.968397158665341262e+00 -3.304310567341961047e+00 -3.427675602724752135e+00 -3.871841466798475295e+00 -4.132514656648921481e+00 -4.384131633961104946e+00 -4.382044253363866382e+00 -4.592274970131202672e+00 -4.869145222990120203e+00 -5.148126013491982178e+00 -5.148126013491982178e+00 -5.437007026172413049e+00 -5.766548561274456475e+00 -5.963590815151063040e+00 -6.061477416861638545e+00 -6.314349578452125300e+00 -6.531214574682625340e+00 -6.767747530551773139e+00 -6.816810716342308396e+00 -6.993670117010026388e+00 -7.217538670034912229e+00 -7.510258063275216500e+00 -7.510258063275216500e+00 -7.837602329966502523e+00 -8.149859993570947481e+00 -8.149859993570947481e+00 -8.478407772768248307e+00 -8.591851323647771821e+00 -8.807195815654587534e+00 -8.887091926162907995e+00 -9.132222702751363386e+00 -9.294960587935459984e+00 -9.584849579045044976e+00 -9.622603101914046775e+00
-4.268245254867780170e-01 -7.227217446868465789e-01 -1.026481757898550118e+00 -1.456763470575030528e+00 -1.456763470575030528e+00 -1.701145820654427876e+00 -1.581029029958608279e+00 -1.715471805742238898e+00 -1.520262780447341200e+00 -1.019492322434980336e+00 -3.090097939292788531e-01 7.974420932450045907e-01 1.954836754481171779e+00 2.395747066755121946e+00 3.170679149340243974e+00 3.616462438784526778e+00 4.061687283909499513e+00 4.770157674749956556e+00 5.284257024388088197e+00 5.284257024388088197e+00 5.563828688695473978e+00 5.418785796981361536e+00 5.397054511062776783e+00 5.469149968400834894e+00 5.413604219031184606e+00 5.376760413331073352e+00 5.155608802578033334e+00 4.988977595020109845e+00 4.789137015028274824e+00 4.556147583121818556e+00 4.374709124395800508e+00 4.374709124395800508e+00 4.067623345561521830e+00 3.888787250529790462e+00 3.740224257382055217e+00 3.679545528139768873e+00 3.453703536322873635e+00 3.379671347780683899e+00 3.223910671256419391e+00 3.200863316752695642e+00 3.241432920207654611e+00 3.149798315015717165e+00 3.192255140197969965e+00 3.192255140197969965e+00 3.037041158742997293e+00 3.206508640924503606e+00 3.206508640924503606e+00 3.223663382704650360e+00 3.110337877353820168e+00 3.064260794273108601e+00 3.041478121708373727e+00 3.149236792194786805e+00 3.208634460222783868e+00 3.208398162913565610e+00 3.219255971550075479e+00 2.979660730272501112e+00 2.309448230598331708e+00 1.416047842768140441e+00 1.416047842768140441e+00 6.019453226960456149e-01 1.230050119964275213e-01 -1.284214569914258197e-01 -2.176864529430286299e-01 -1.124364761764523324e-01 -4.539996462761670681e-01 -1.018927854151918000e+00 -1.137429795272273836e+00 -1.579973177558545938e+00 -2.112199961697972750e+00 -2.447490244196156794e+00 -2.447490244196156794e+00 -2.606012133831207223e+00 -2.907595027787272191e+00 -2.994143131436234562e+00 -3.018879624508173265e+00 -2.887919802535285907e+00 -2.707988890839226670e+00 -2.329638640549961615e+00 -2.288774630849559788e+00 -2.114696355855262500e+00 -2.351883103497444782e+00 -2.404068180409439037e+00 -2.658855901351983242e+00 -3.063508201101638129e+00 -3.478932773382866550e+00 -3.478932773382866550e+00 -3.940949162189040678e+00 -4.172801486071676891e+00 -4.382044253363866382e+00 -4.372432989215438326e+00 -4.685007803267126292e+00 -4.999666895798690724e+00 -5.244716186555510973e+00 -5.317468401328171446e+00 -5.622645371413742765e+00 -5.836075438461252318e+00 -6.162176652062347770e+00 -6.143033058623955434e+00 -6.365170086943819250e+00 -6.591482658689731267e+00 -6.838906686545985991e+00 -6.838906686545985991e+00 -7.086853696600822872e+00 -7.384236713936383367e+00 -7.592317934348787212e+00 -7.705084569045784093e+00 -7.997008000843182529e+00 -8.259380166818528934e+00 -8.434301329875541597e+00 -8.515736611701548497e+00 -8.667214267607837641e+00 -8.977706880199869843e+00 -9.249630048265796489e+00 -9.249630048265796489e+00 -9.498909074105327477e+00 -9.703520636661554732e+00
-4.268245254867780170e-01 -6.013102408213212291e-01 -9.238216243211196943e-01 -1.085867788247083299e+00 -1.569022588513047989e+00 -1.500417270641814405e+00 -1.536802901316391079e+00 -1.565576016053231712e+00 -1.244214336370632834e+00 -1.244214336370632834e+00 -3.720943360194650662e-01 1.342004280449827780e+00 1.954836754481171779e+00 2.272643583662772748e+00 3.251061904567794425e+00 3.616462438784526778e+00 4.475373074201622003e+00 4.842631008996709063e+00 5.053828954615700475e+00 5.413037329771538175e+00 5.721121509658455118e+00 5.578935161499221529e+00 5.494595654749767633e+00 5.580467448612562720e+00 5.580467448612562720e+00 5.490150034194388518e+00 5.223897621957819482e+00 4.988977595020109845e+00 4.896561586441499969e+00 4.650905232495133212e+00 4.528466108612991370e+00 4.275503731832746901e+00 4.180711659493224097e+00 4.015617704025032708e+00 3.762318352566114577e+00 3.654144637793060646e+00 3.654144637793060646e+00 3.416226345331038861e+00 3.255816672470903228e+00 3.200863316752695642e+00 3.236487586848189490e+00 3.150958286772086225e+00 3.173298936540944748e+00 3.082216418431932947e+00 3.105917819305525907e+00 3.144308630420875161e+00 3.145751962933582835e+00 3.169573555163807121e+00 3.169573555163807121e+00 3.061911941928907588e+00 3.056118596124905551e+00 3.149236792194786805e+00 3.147611773637272847e+00 3.171955671767773488e+00 3.219255971550075479e+00 2.918642267221999376e+00 2.745003342695256254e+00 2.239854221763551312e+00 1.230585649340556698e+00 1.114176113510018773e+00 3.212050850244354550e-01 -1.684696411813558364e-02 -2.040930460550084147e-01 -1.505183592128741532e-01 -1.513430217688505608e-01 -6.939590453346775600e-01 -1.248924662431052823e+00 -1.248924662431052823e+00 -1.785048790469944802e+00 -2.266666069875769018e+00 -2.497892069341490995e+00 -2.523606027012719188e+00 -2.684843933307124786e+00 -2.888018238439304053e+00 -2.900396133200528581e+00 -2.969811474446527377e+00 -2.824401683519401018e+00 -2.535658048307855239e+00 -2.227096580794290404e+00 -2.227096580794290404e+00 -2.255397548078678316e+00 -2.523073837257096219e+00 -2.765340342089101622e+00 -2.874618090591947173e+00 -3.282922160951901702e+00 -3.651880705555027085e+00 -3.933142053105308733e+00 -3.941668549296286628e+00 -4.196620826622141642e+00 -4.424541908663488954e+00 -4.759654007781598750e+00 -4.759654007781598750e+00 -5.059250902915654713e+00 -5.366022742583226091e+00 -5.366022742583226091e+00 -5.706112910999282306e+00 -5.935970863788227803e+00 -6.143033058623955434e+00 -6.185833383706984989e+00 -6.407316584080676947e+00 -6.629359744007478739e+00 -6.867774631395407781e+00 -6.951906686478054986e+00 -7.163859817895521509e+00 -7.472720497233762416e+00 -7.787841253042454781e+00 -7.787841253042454781e+00 -8.064131810054863791e+00 -8.347690493907029108e+00 -8.515736611701548497e+00 -8.570769217100144388e+00 -8.881544929506430819e+00 -9.093386688632692838e+00 -9.367100741440703260e+00 -9.404390240728682571e+00 -9.540904746052824237e+00
-2.591956436588078172e-01 -7.561250576982656568e-01 -7.561250576982656568e-01 -8.683256103039083129e-01 -1.223001191681322597e+00 -1.500417270641814405e+00 -1.314098293642366855e+00 -1.369420361336514347e+00 -1.420018953110436133e+00 -9.524676569406060889e-01 -8.664139622179772848e-01 -4.366753433788773675e-01 2.021467291581503289e+00 2.754836343651592134e+00 2.754836343651592134e+00 3.773991345898014771e+00 4.609962314325418475e+00 4.842631008996709063e+00 5.238268108729631223e+00 5.573379357751555574e+00 5.721121509658455118e+00 5.621207521399472995e+00 5.748127247333767897e+00 5.664253241347941170e+00 5.545443594598429726e+00 5.349493346011064077e+00 5.349493346011064077e+00 5.090281088657214958e+00 4.827684423118112633e+00 4.605083992108712110e+00 4.605083992108712110e+00 4.376880181910782319e+00 4.087002681091272294e+00 4.087002681091272294e+00 3.844152103207441940e+00 3.667905050139354195e+00 3.491895008769054787e+00 3.399428992827698615e+00 3.264613985346819902e+00 3.222261949891082278e+00 3.174190644818517093e+00 3.166870757490045207e+00 3.146987696554060854e+00 3.100338728695994472e+00 3.135911681307122834e+00 3.135911681307122834e+00 3.152892843166095194e+00 3.124760444357419065e+00 3.140819600312492632e+00 2.998758054213780611e+00 3.043573097423470486e+00 3.068483475796710103e+00 3.093574031974938965e+00 3.076937344055435730e+00 3.130850781103534874e+00 3.100527450777034844e+00 2.737097899400225298e+00 2.737097899400225298e+00 1.891522837885513120e+00 8.600478245799441090e-01 3.212050850244354550e-01 1.511990113849988882e-01 -1.391101911507541256e-01 -1.505183592128741532e-01 -2.392981395581137150e-01 -2.800324827333687816e-01 -7.644785725822109690e-01 -1.392957859682296018e+00 -1.902504545247221568e+00 -1.902504545247221568e+00 -2.312087021422438937e+00 -2.485467529411755638e+00 -2.485467529411755638e+00 -2.736325578464176012e+00 -2.887964085210732890e+00 -2.969811474446527377e+00 -2.959218584020851583e+00 -2.679671228063552402e+00 -2.481247101321433224e+00 -2.192889851192806550e+00 -2.158683121591322251e+00 -2.266626563707152542e+00 -2.634014963487712802e+00 -3.033178995710574366e+00 -3.033178995710574366e+00 -3.416591024835432755e+00 -3.704121967801429438e+00 -3.941668549296286628e+00 -3.975601130587627985e+00 -4.275932790443635056e+00 -4.534661962518796940e+00 -4.860681412378816013e+00 -4.902711004852410070e+00 -5.182547750368449613e+00 -5.461132882049408721e+00 -5.710012906255079734e+00 -5.710012906255079734e+00 -5.981648498304917183e+00 -6.214437035115572883e+00 -6.407316584080676947e+00 -6.441908771672650857e+00 -6.709431766686527965e+00 -6.951906686478054986e+00 -7.260777075089588806e+00 -7.352905250574613305e+00 -7.565083532541590827e+00 -7.851457968984006719e+00 -7.911679831124958540e+00 -8.208324602970606065e+00 -8.439430003763485288e+00 -8.684309833851331817e+00 -8.684309833851331817e+00 -9.054614022174497734e+00 -9.230977652027128499e+00 -9.404390240728682571e+00 -9.450298217678133383e+00
-1.240915903960076033e-01 -5.134977188258121883e-01 -6.807787490234180616e-01 -8.942982951126663416e-01 -9.313008409438388036e-01 -1.223907981604440032e+00 -1.234950987013665902e+00 -1.168282239243634946e+00 -1.147444841997458997e+00 -8.832207937858214120e-01 6.394922573857094728e-01 6.394922573857094728e-01 2.078680500438395473e+00 2.960440694625148694e+00 3.349478501422762378e+00 3.961608844585988720e+00 4.801538851194496971e+00 5.014656499502701870e+00 5.519069509212353175e+00 5.781727772237490015e+00 5.824088972874672976e+00 5.915102365203092738e+00 5.957505494651442746e+00 5.957505494651442746e+00 5.720560394171679164e+00 5.413207159162567450e+00 5.269865771692342271e+00 5.197543422584999462e+00 4.930162523897434923e+00 4.781124416054151283e+00 4.525493773313319146e+00 4.459838474658523566e+00 4.246392274826001234e+00 4.026739975906912683e+00 3.745564083593892590e+00 3.745564083593892590e+00 3.501259439708716226e+00 3.319937605272107461e+00 3.264613985346819902e+00 3.241773497924389069e+00 3.189892634094587898e+00 3.166870757490045207e+00 3.154606238286548070e+00 3.167214994992248123e+00 3.130492784249818694e+00 3.170109877215853800e+00 3.158208405637942917e+00 3.109290282847736009e+00 3.056271089672749852e+00 3.031261880641392459e+00 3.031261880641392459e+00 3.059609989584988643e+00 3.008506543115513132e+00 3.076937344055435730e+00 3.056452165268053633e+00 3.117621257930857759e+00 3.034668300121420970e+00 2.651368876320207679e+00 2.853489478067297913e+00 1.537625158361791922e+00 6.059195356498698892e-01 1.762631522681677373e-02 1.762631522681677373e-02 -1.931003957085675737e-01 -1.567344994833053951e-01 -2.800324827333687816e-01 -3.207668259086237095e-01 -1.060059854237404675e+00 -1.522406088279799397e+00 -1.953391655876080435e+00 -2.035704584181511123e+00 -2.308285308956916637e+00 -2.557790902084686291e+00 -2.780297269752495914e+00 -2.780297269752495914e+00 -2.957379426456731242e+00 -2.892130040890296794e+00 -2.679671228063552402e+00 -2.627472202992588102e+00 -2.237518380730086687e+00 -2.158683121591322251e+00 -2.129184947004866046e+00 -2.505224085544440982e+00 -2.712286089158630453e+00 -3.126974307724760926e+00 -3.176378681925444702e+00 -3.426187652947592976e+00 -3.715748929156389657e+00 -4.029756488094214717e+00 -4.029756488094214717e+00 -4.384272000153003113e+00 -4.702962184531278567e+00 -4.902711004852410070e+00 -5.034206788568563518e+00 -5.283013681821147500e+00 -5.576805090201795601e+00 -5.748685086149573742e+00 -5.822255219144565785e+00 -6.015562624321638907e+00 -6.223134507630610379e+00 -6.523312390069751388e+00 -6.523312390069751388e+00 -6.816959676355287989e+00 -7.137769271501940516e+00 -7.352905250574613305e+00 -7.437228315915465515e+00 -7.696311432900875715e+00 -7.911679831124958540e+00 -8.268876100651665340e+00 -8.333460766669169573e+00 -8.474324166592449359e+00 -8.803731730138588674e+00 -9.081859131544872454e+00 -9.081859131544872454e+00 -9.277554678043181013e+00 -9.500170387279665007e+00
-2.288147541091622161e-01 -2.288147541091622161e-01 -5.226347491934355549e-01 -6.816299645313822486e-01 -9.313008409438388036e-01 -8.910780305401659884e-01 -1.021449781507895782e+00 -1.168282239243634946e+00 -8.918392561970662769e-01 -4.786254462330151727e-01 -1.129772953238280531e-01 1.719702125055023512e+00 2.543553273228578604e+00 2.543553273228578604e+00 3.575669603658246487e+00 4.468700207598049090e+00 4.801538851194496971e+00 5.202570544384580664e+00 5.685563030982087263e+00 5.781727772237490015e+00 6.062175067855253729e+00 6.142244111835589493e+00 6.025695179608264951e+00 5.967721977423623869e+00 5.879330146884014674e+00 5.686819316944982106e+00 5.298228201627706468e+00 5.087749876403496962e+00 5.087749876403496962e+00 4.910431737088140736e+00 4.588219870337129080e+00 4.459838474658523566e+00 4.320991154591834693e+00 4.077065997703116729e+00 3.953643423133436308e+00 3.670860198511310291e+00 3.528841970493243441e+00 3.380481867615484415e+00 3.267013239320566864e+00 3.233236410877124101e+00 3.233236410877124101e+00 3.175824535163459750e+00 3.151540709017193631e+00 3.167214994992248123e+00 3.125703017773220793e+00 3.163427916526973416e+00 3.158208405637942917e+00 3.098772249640440624e+00 3.128005522949921069e+00 3.114589940979322957e+00 3.095972019694122057e+00 3.003151124863062904e+00 3.003151124863062904e+00 3.016898077835795444e+00 3.069677920175247987e+00 3.117621257930857759e+00 3.030383226429300692e+00 3.056601565883679594e+00 2.853489478067297913e+00 2.695984328571665589e+00 1.216244889773866689e+00 3.502178453116877588e-01 -1.073387004705542713e-01 -1.305162531329595588e-01 -2.493967250956071469e-01 -5.454921292330976168e-02 -5.382547090122090649e-01 -5.382547090122090649e-01 -1.121600848509317405e+00 -1.618069216404511401e+00 -2.035704584181511123e+00 -2.093037181449912243e+00 -2.391093592690296088e+00 -2.580683811225642721e+00 -2.885244155524564480e+00 -2.926954923743851467e+00 -3.044952540800144547e+00 -2.823684407819249120e+00 -2.490694671592145415e+00 -2.490694671592145415e+00 -2.106969507483704263e+00 -2.236893253897837663e+00 -2.505224085544440982e+00 -2.555433327525518994e+00 -2.936667199612264412e+00 -3.176378681925444702e+00 -3.455205109252566409e+00 -3.533654462808502927e+00 -3.765656016252717730e+00 -4.122248350381630289e+00 -4.454495503267558831e+00 -4.454495503267558831e+00 -4.800235570248411854e+00 -5.085037892970245998e+00 -5.085037892970245998e+00 -5.397291332310776291e+00 -5.567225960539310847e+00 -5.822255219144565785e+00 -5.836612543477841086e+00 -6.056493542711278266e+00 -6.259366466467285228e+00 -6.557740621104913181e+00 -6.693961805596874370e+00 -7.008055498111271930e+00 -7.221943598021802302e+00 -7.503728579565416723e+00 -7.591642834412681395e+00 -7.799269514182022967e+00 -8.141528422625327721e+00 -8.436105530980794853e+00 -8.436105530980794853e+00 -8.706395029139171626e+00 -9.046295385913941445e+00 -9.120242814227621508e+00 -9.230960235092791066e+00 -9.459219515981402537e+00
2.418966268552145971e-02 -3.049346061797338359e-01 -3.769782303694400594e-01 -5.262069674815992304e-01 -6.963032681970948712e-01 -8.157847228756168745e-01 -8.157847228756168745e-01 -9.335140506894177292e-01 -3.460909975757557877e-01 -4.786254462330151727e-01 6.748081656119417904e-01 1.939098556217441871e+00 2.078630553805294046e+00 3.084806223145275528e+00 3.802367463216393961e+00 4.190605079377436759e+00 4.994887475502483909e+00 5.587972993524477516e+00 5.587972993524477516e+00 6.001017803741219403e+00 6.226130116879991405e+00 6.142244111835589493e+00 6.223587302500062535e+00 6.177688255936406136e+00 5.879330146884014674e+00 5.500288426545563603e+00 5.376695453828762794e+00 5.310191420298093767e+00 5.040502461414574142e+00 4.796542357917943811e+00 4.796542357917943811e+00 4.505581263619224508e+00 4.205424912203199028e+00 4.205424912203199028e+00 4.034499003611106360e+00 3.676144745862128804e+00 3.528841970493243441e+00 3.387059027682741252e+00 3.246264287697111062e+00 3.259959084641018467e+00 3.205594623370658702e+00 3.191949579675539717e+00 3.250871247228104277e+00 3.130447876676778041e+00 3.143858386635083768e+00 3.143858386635083768e+00 3.083230715931244870e+00 3.135469640725643714e+00 3.128005522949921069e+00 3.150041575040112285e+00 3.256123442677804292e+00 3.139227669720684233e+00 3.002216921176689368e+00 3.075753116152228905e+00 3.050242252536792265e+00 3.035808536905114430e+00 3.086458732580924735e+00 3.086458732580924735e+00 2.956270318637272965e+00 1.913483178407997309e+00 1.216244889773866689e+00 9.467895453121513150e-01 2.764226157669876227e-01 -1.305162531329595588e-01 -1.649628268383108720e-01 -1.253914458419449485e-01 -2.148684393989291896e-01 -6.002781593476838040e-01 -7.020409755063685697e-01 -1.155334558737370454e+00 -1.725288038182647865e+00 -2.166583035134839630e+00 -2.207711643577777494e+00 -2.464514093039072762e+00 -2.700980498767711513e+00 -2.893501427364284950e+00 -2.893501427364284950e+00 -2.947908865708669612e+00 -2.640940989076354661e+00 -2.389398744893346915e+00 -2.296374632662262716e+00 -2.186031475933784662e+00 -2.384106301072288492e+00 -2.623446529367293500e+00 -2.713000879144225497e+00 -2.970703467985868151e+00 -3.272520720697257524e+00 -3.608807705077742067e+00 -3.608807705077742067e+00 -3.953756634782860324e+00 -4.272072828678287415e+00 -4.519542430172061032e+00 -4.597856968445368508e+00 -4.870921258679913990e+00 -5.096590388524901982e+00 -5.345504755492513027e+00 -5.382448137502549912e+00 -5.648969945362297018e+00 -5.841338743831778757e+00 -6.127600728881080094e+00 -6.127600728881080094e+00 -6.443107973861039284e+00 -6.778626915744621506e+00 -7.008055498111271930e+00 -7.092855164117677802e+00 -7.374481300616478663e+00 -7.591642834412681395e+00 -7.705385622349771424e+00 -8.022351341914141898e+00 -8.213705752449680375e+00 -8.463662023741573392e+00 -8.618141692194955183e+00 -8.830491551788863802e+00 -9.092418432206622825e+00 -9.303219450247441458e+00 -9.303219450247441458e+00
6.789773489909893545e-02 -1.357351956805984972e-01 -3.769782303694400594e-01 -5.297791857697630169e-01 -4.079272193505280586e-01 -6.072701870296712823e-01 -6.621832578681119408e-01 -4.393898975299883602e-01 -4.850955682298604410e-01 4.426774123837299291e-01 1.800857983158146602e+00 1.800857983158146602e+00 2.283209643995546489e+00 3.316764333848067015e+00 3.802367463216393961e+00 4.371977630512040136e+00 5.210749989275548444e+00 5.435524216011960341e+00 5.906642874167797430e+00 6.280326256144484809e+00 6.236804034677410513e+00 6.328166706440590872e+00 6.260850815684489312e+00 6.260850815684489312e+00 6.047485411738430017e+00 5.662646794925538352e+00 5.376695453828762794e+00 5.390610099247632014e+00 5.129948012556292625e+00 5.023874196652269752e+00 4.651638682514758649e+00 4.553026899277581308e+00 4.393143918518553903e+00 4.108087423633817181e+00 3.870296421896520123e+00 3.870296421896520123e+00 3.569104516362141766e+00 3.290401033801580777e+00 3.246264287697111062e+00 3.224395594601978221e+00 3.161326156933383036e+00 3.159159122958418386e+00 3.157751041157786265e+00 3.150418872109294277e+00 3.160299148360425026e+00 3.151046433270680680e+00 3.056575274516646346e+00 3.104682329004758046e+00 3.127108814890988686e+00 3.171760383023855212e+00 3.211695077154588240e+00 3.140471598380723872e+00 3.039430020926297438e+00 3.054730621164869930e+00 3.054730621164869930e+00 3.028395054538439268e+00 2.982329583757638680e+00 2.959284239250640880e+00 3.057827342808633553e+00 3.163086776070322070e+00 1.654663676572885933e+00 9.093577632104146158e-01 6.238496273222833288e-01 -2.083978727023508282e-02 -1.207127623682503481e-01 -1.534937040229178429e-01 -1.534937040229178429e-01 -3.405552171965985364e-01 -7.888520726733474486e-01 -1.257344878558352530e+00 -1.385780796099609358e+00 -1.924079983105074110e+00 -2.207711643577777494e+00 -2.508802979202467309e+00 -2.539449641447610873e+00 -2.780677901068297597e+00 -2.926655826133016003e+00 -2.812734317485542590e+00 -2.812734317485542590e+00 -2.542968544887001858e+00 -2.221103091766242876e+00 -2.221103091766242876e+00 -2.262615458032766647e+00 -2.412857553267189648e+00 -2.713000879144225497e+00 -2.761024088981321789e+00 -3.089836332141947750e+00 -3.358010699835450641e+00 -3.706481378562856754e+00 -3.785264919184090804e+00 -4.041575038782868390e+00 -4.328340793164667133e+00 -4.588840876801580926e+00 -4.588840876801580926e+00 -4.908899718023877590e+00 -5.165128915103743168e+00 -5.382448137502549912e+00 -5.468402682453029406e+00 -5.650821751811919036e+00 -5.914584942204973217e+00 -6.241974790031667553e+00 -6.328741611486353946e+00 -6.574777224453733027e+00 -6.886268560532744054e+00 -7.190212149398988117e+00 -7.190212149398988117e+00 -7.487763061011491139e+00 -7.828651052966571378e+00 -8.022351341914141898e+00 -8.114393051168951487e+00 -8.386142007153665645e+00 -8.618141692194955183e+00 -8.907637478283279009e+00 -8.972179024557703997e+00 -9.150289585591101726e+00 -9.335269072660716816e+00
5.897962101391039658e-02 5.897962101391039658e-02 -2.021289910617412311e-01 -2.384633592119521084e-01 -4.079272193505280586e-01 -2.485558745894261845e-01 -1.475072112110798750e-01 -4.393898975299883602e-01 3.503233522308318304e-01 1.082311674922059375e+00 1.988131593122586249e+00 2.164408991244481939e+00 2.854705404987541772e+00 3.674483506730638283e+00 4.126299814492229601e+00 4.953062468210339908e+00 5.704701203583848468e+00 5.704701203583848468e+00 6.170471857118297265e+00 6.439986326374270931e+00 6.439986326374270931e+00 6.544725196712077420e+00 6.434799493506920598e+00 6.317666733748621866e+00 6.225117499906120067e+00 5.797304988727533193e+00 5.526931252562282459e+00 5.287906820800806429e+00 5.210129589103352998e+00 5.089499384518271441e+00 4.722528752148162923e+00 4.465733953067415385e+00 4.465733953067415385e+00 4.144065612696680390e+00 3.905103276322924089e+00 3.688674971936950708e+00 3.581094796750726950e+00 3.320185026015185503e+00 3.241880108629578316e+00 3.151114213988535528e+00 3.098155342033463544e+00 3.195864480714833089e+00 3.114651797592318250e+00 3.200986110303067012e+00 3.200986110303067012e+00 3.131132159556405448e+00 3.014442359081878742e+00 3.104682329004758046e+00 3.090936955911444350e+00 3.127332017500638717e+00 3.211695077154588240e+00 3.067268542836004475e+00 3.082196303412703564e+00 3.047695169818999794e+00 3.055362477492073126e+00 3.005076308263352924e+00 2.991681346336090286e+00 3.062762640126215796e+00 3.179887146809967646e+00 3.179887146809967646e+00 3.044576402634871837e+00 1.256784774765710377e+00 6.238496273222833288e-01 3.383414914341520974e-01 -1.033208571734810788e-01 -1.598785968007875313e-01 -2.048661159890491357e-01 -2.174509118051814460e-01 -3.386827623723633884e-01 -8.988503882733969164e-01 -1.585390231533590377e+00 -1.585390231533590377e+00 -1.970993889469055071e+00 -2.335362060111786597e+00 -2.539449641447610873e+00 -2.634400878392743728e+00 -2.811018148676391881e+00 -2.930029013495386359e+00 -2.750712621139984382e+00 -2.699924004022179691e+00 -2.477756742533299139e+00 -2.191164507851091514e+00 -2.219380885575453544e+00 -2.219380885575453544e+00 -2.489334558676187026e+00 -2.815545584362695308e+00 -3.089836332141947750e+00 -3.164919011204189836e+00 -3.532891736451464482e+00 -3.785264919184090804e+00 -4.084438833721403483e+00 -4.139186267233788463e+00 -4.387560500942220720e+00 -4.656542727854015240e+00 -4.699338216911025157e+00 -4.940558396386058426e+00 -5.189960524868447500e+00 -5.464427341127258586e+00 -5.464427341127258586e+00 -5.771144778017187171e+00 -6.105438961496029826e+00 -6.328741611486353946e+00 -6.455592643310590795e+00 -6.778258144848472000e+00 -6.969523521492690499e+00 -7.251315016916920264e+00 -7.391202622185698345e+00 -7.600714553962204079e+00 -7.903484019866227506e+00 -8.220680739845294127e+00 -8.220680739845294127e+00 -8.468264443852627110e+00 -8.790164277490417177e+00 -8.972179024557703997e+00 -9.014775922217710402e+00 -9.311201674332615141e+00
1.776072779397901147e-01 5.135030037282493562e-03 -5.857943579024504910e-02 7.579316051886719752e-03 -1.014572330162561431e-01 -9.844517051598331014e-02 1.647203692286410837e-01 1.188227342513083068e-01 9.343799926828222357e-01 1.904937201305624939e+00 1.904937201305624939e+00 2.400572998835406757e+00 3.217035119842616808e+00 3.674483506730638283e+00 4.424376402020231858e+00 5.168150008134851703e+00 5.429575072375243394e+00 6.060196101602735475e+00 6.441738424675575558e+00 6.539840952639349503e+00 6.660984846885570576e+00 6.557658025307913974e+00 6.557658025307913974e+00 6.427283312901331591e+00 6.076101522809151945e+00 5.797304988727533193e+00 5.687246576459697778e+00 5.393074858423820395e+00 5.210129589103352998e+00 4.959809746342864756e+00 4.799234707926052224e+00 4.619803784390327905e+00 4.309026521624205408e+00 4.189478612074912789e+00 4.018217818126853302e+00 3.721978801009069748e+00 3.425471037416083497e+00 3.425471037416083497e+00 3.279205505680659272e+00 3.107692092642979187e+00 3.098155342033463544e+00 3.161023953269435527e+00 3.071552554026850235e+00 3.172003323529238195e+00 3.204999678960926524e+00 3.103888477904983567e+00 3.023851571728107590e+00 3.078326107497144193e+00 3.132010574196431474e+00 3.132010574196431474e+00 3.118705589807299283e+00 3.131089458670524905e+00 3.082196303412703564e+00 3.032050967103978145e+00 3.058187185836783506e+00 3.005076308263352924e+00 2.960680863689675313e+00 2.989751469899925240e+00 3.187158394070876533e+00 3.135494019052730064e+00 2.407093284541832467e+00 2.407093284541832467e+00 1.082819197308299453e+00 4.275733292580394251e-02 -1.033208571734810788e-01 -1.864601734402412947e-01 -1.348502550769853925e-01 -2.174509118051814460e-01 -1.496045320057822758e-01 -5.999967525742957442e-01 -1.093192610115841790e+00 -1.667718913095273425e+00 -1.680796668528438564e+00 -2.085596870707305595e+00 -2.388968667495935172e+00 -2.697386901420591343e+00 -2.697386901420591343e+00 -2.816574138157984297e+00 -2.895608053319206565e+00 -2.699924004022179691e+00 -2.568145147938245110e+00 -2.256918604059362288e+00 -2.179578824147701432e+00 -2.225996579948587684e+00 -2.322644566535017940e+00 -2.553037988586650542e+00 -2.896547039885316810e+00 -3.275215015519061357e+00 -3.275215015519061357e+00 -3.610166797094553903e+00 -3.901208341929640611e+00 -4.139186267233788463e+00 -4.191916567670970650e+00 -4.456415568392306348e+00 -4.699338216911025157e+00 -4.986131926992717567e+00 -5.029610926989578346e+00 -5.284486525184931338e+00 -5.528224696771386171e+00 -5.878494621043341084e+00 -5.878494621043341084e+00 -6.219273065794022948e+00 -6.552433007944681975e+00 -6.552433007944681975e+00 -6.890183627370267239e+00 -7.170652282079426065e+00 -7.391202622185698345e+00 -7.522515912494128543e+00 -7.812571483489774593e+00 -8.024150659695921561e+00 -8.320428190238853716e+00 -8.380791773370766862e+00 -8.702691607008556929e+00 -8.878431607073096643e+00 -9.149239418171712046e+00 -9.349426158479495541e+00
3.030297173612700457e-01 1.196311387661107284e-01 -8.307136986298122028e-02 7.579316051886719752e-03 2.031097217652192422e-01 2.498429858272424031e-01 1.647203692286410837e-01 4.346122517150603493e-01 1.678583408249768372e+00 1.706945893018655180e+00 2.009724251995989697e+00 2.264342783522675262e+00 2.755537659177395238e+00 4.039282802710770781e+00 5.011635668714424341e+00 5.011635668714424341e+00 5.681518901671628541e+00 6.317019990718347522e+00 6.441738424675575558e+00 6.796601319287898235e+00 6.916287636562546304e+00 6.731126425060217855e+00 6.585152583993929554e+00 6.557330872217105089e+00 6.405760311954944441e+00 5.932283697852730242e+00 5.550805516038918697e+00 5.550805516038918697e+00 5.292317980027727131e+00 4.984310594515188875e+00 4.799234707926052224e+00 4.686074563582592667e+00 4.377319283077484080e+00 4.189478612074912789e+00 3.920919244749133004e+00 3.804287045487311225e+00 3.588314232771619317e+00 3.356558289159951691e+00 3.178422907036318357e+00 3.178422907036318357e+00 3.090251713514049481e+00 3.049979969236082056e+00 3.049979969236082056e+00 3.175023043061462769e+00 3.223796867987628545e+00 3.103888477904983567e+00 3.040736580352202179e+00 3.038098820139192746e+00 3.063743869948456489e+00 3.153523078793762480e+00 3.099337526675750354e+00 3.111843226006469898e+00 3.122936955112542545e+00 3.087611872160204829e+00 3.087611872160204829e+00 3.034872436570640097e+00 3.003207839465180662e+00 2.989751469899925240e+00 3.035277030920325636e+00 3.141894189226921874e+00 3.233304450571127475e+00 2.117353619012530164e+00 2.183124963233154414e+00 9.971985862340891904e-01 -1.471050292844866027e-02 -1.925976277957352767e-01 -1.925976277957352767e-01 -1.377280994972405193e-01 -1.853866569430719369e-01 -5.999967525742957442e-01 -6.929950094757748591e-01 -1.348256354093110287e+00 -1.680796668528438564e+00 -2.178169784780234597e+00 -2.247997922921437741e+00 -2.470852841250674281e+00 -2.723281253391755641e+00 -2.878505892304956681e+00 -2.878505892304956681e+00 -2.717401118558753659e+00 -2.453117207702731672e+00 -2.350275549710858947e+00 -2.256135395979320446e+00 -2.136880558646082395e+00 -2.393356332388441921e+00 -2.393356332388441921e+00 -2.704952263336414031e+00 -3.079795256336734788e+00 -3.335489212981395113e+00 -3.421509262052811806e+00 -3.713056101138508147e+00 -3.971644203263282158e+00 -4.315973979217567091e+00 -4.279271047068070821e+00 -4.510523617166144916e+00 -4.808508902574256894e+00 -5.102598717374229764e+00 -5.102598717374229764e+00 -5.435013424688526662e+00 -5.775396814677869806e+00 -5.997606959621381684e+00 -6.093225474267146780e+00 -6.413631529564575828e+00 -6.657864695333830518e+00 -6.964719758511355607e+00 -7.101199292431225274e+00 -7.325512060815431603e+00 -7.652392585425678462e+00 -7.968063531801931276e+00 -7.968063531801931276e+00 -8.275057730825494673e+00 -8.498005354948730883e+00 -8.702691607008556929e+00 -8.844469898811677666e+00 -9.147726182131343364e+00 -9.349426158479495541e+00
2.545760259360954625e-01 2.482476672057177813e-01 6.749968090034468016e-02 1.701242743384428213e-01 3.850935806156262631e-01 3.850935806156262631e-01 6.163499074774344555e-01 1.352130685070072502e+00 1.678583408249768372e+00 1.963876549186443610e+00 2.151518674226552630e+00 2.264342783522675262e+00 3.588597713881060081e+00 4.405750522680615511e+00 4.755183398777729664e+00 5.471190164433108016e+00 6.129791935227553168e+00 6.129791935227553168e+00 6.652902413703096762e+00 6.975173037058703507e+00 6.975173037058703507e+00 6.881087435031618682e+00 6.724914498049318290e+00 6.557330872217105089e+00 6.538893036281773874e+00 6.078460712009355227e+00 5.829333711585923616e+00 5.523309901705413694e+00 5.432810544622852511e+00 5.198811012346333804e+00 4.898879396537095587e+00 4.595883556939305059e+00 4.595883556939305059e+00 4.298344653300899765e+00 4.035494704744913008e+00 3.804287045487311225e+00 3.708980717214340750e+00 3.438259041647365954e+00 3.316706354609697982e+00 3.131916036093906008e+00 3.153045206119298172e+00 3.172172787380799441e+00 3.061524940056108868e+00 3.199590131415609662e+00 3.199590131415609662e+00 3.107683380766301795e+00 2.989605235411243456e+00 3.038098820139192746e+00 3.048843214206155672e+00 3.144911922301128815e+00 3.105294716782058373e+00 3.148055245114061762e+00 3.127286301372270927e+00 3.098897954449751246e+00 3.098078752807015945e+00 3.097554227098155977e+00 3.074009752178821664e+00 3.042326884323183211e+00 3.059282108848380588e+00 3.156509303357598384e+00 3.220663358289423961e+00 3.142010970011999582e+00 1.911952047699018831e+00 1.911952047699018831e+00 4.674390977748676956e-01 -1.234695013736132885e-01 -2.010606597159906861e-01 -1.656778961317975640e-01 -2.560380235273226335e-01 -3.198316423491523453e-01 -8.318559329968013838e-01 -1.051176674874299444e+00 -1.481995988198095526e+00 -1.915004203139152983e+00 -2.273451084170219794e+00 -2.273451084170219794e+00 -2.550854163751213211e+00 -2.776344925676747177e+00 -2.876499307322896382e+00 -2.792882863635775426e+00 -2.563413410123124514e+00 -2.350275549710858947e+00 -2.223025262304841210e+00 -2.105406844680862033e+00 -2.203915992035793359e+00 -2.463039006647765206e+00 -2.814894517948536734e+00 -2.814894517948536734e+00 -3.161844174902002536e+00 -3.453105088621999386e+00 -3.453105088621999386e+00 -3.799845158016128543e+00 -4.217568244063052418e+00 -4.279271047068070821e+00 -4.324912107140981732e+00 -4.611617739687812190e+00 -4.869234988054648383e+00 -5.184934768965680618e+00 -5.275120053831314770e+00 -5.499571399534505467e+00 -5.897837537241793271e+00 -6.192638602744072074e+00 -6.192638602744072074e+00 -6.546733999431866735e+00 -6.896929322404619533e+00 -7.101199292431225274e+00 -7.263032621222575536e+00 -7.580483660858735817e+00 -7.728935306451406362e+00 -8.075522489530667869e+00 -8.226478493342462173e+00 -8.296870231327424960e+00 -8.675655034619328632e+00 -8.996087136560241504e+00 -8.996087136560241504e+00 -9.323455631394775622e+00
4.233712003724335315e-01 2.482476672057177813e-01 3.251872057791656001e-01 3.660114793651073617e-01 4.764605386815768950e-01 7.907453178189978171e-01 1.444923803552320640e+00 1.395616395125125253e+00 1.941683822545991145e+00 2.173355134451200321e+00 2.173355134451200321e+00 3.029276035765909647e+00 4.137232031361090634e+00 4.405750522680615511e+00 4.978805178601469983e+00 5.727555988938561882e+00 5.898713070031777583e+00 6.522297482799454649e+00 6.785516233140841180e+00 7.031864625196741159e+00 7.032649840470097224e+00 6.924077976774666077e+00 6.851067240784924017e+00 6.686198937229910655e+00 6.405610696759913125e+00 6.000831203097459543e+00 6.000831203097459543e+00 5.718450077068113480e+00 5.328939736631857826e+00 5.328939736631857826e+00 5.029614871912126972e+00 4.687764233716749551e+00 4.510119536461804302e+00 4.430573198203701324e+00 4.168723436000514759e+00 3.943172516293556029e+00 3.623394806617165731e+00 3.524349926173653280e+00 3.362959592977897039e+00 3.164026116822949319e+00 3.148487709266949430e+00 3.148487709266949430e+00 3.055484864294991887e+00 3.147480117048961468e+00 3.193339115636088188e+00 3.112706143685767479e+00 2.972960006118981813e+00 3.049030805498656349e+00 3.089860847103217178e+00 3.068062156907475302e+00 3.085559652795098362e+00 3.147548670832096107e+00 3.112790933496460077e+00 3.112790933496460077e+00 3.197097307347262163e+00 3.118708774140594997e+00 3.074009752178821664e+00 3.074238935250340088e+00 3.104713751128310051e+00 3.156509303357598384e+00 3.199329764654923025e+00 3.080863708582617377e+00 2.965464115937519463e+00 1.508814825730635523e+00 1.569650954454024638e-01 1.569650954454024638e-01 -1.349154477304891631e-01 -2.000127418232560961e-01 -2.000127418232560961e-01 -1.909395124387887333e-01 -5.523938997057209477e-01 -1.051176674874299444e+00 -1.154016655729613650e+00 -1.678788663463037567e+00 -1.979246172721579988e+00 -2.325023709558843521e+00 -2.395165514556560460e+00 -2.617945016827878391e+00 -2.835920123550561556e+00 -2.719108638092287755e+00 -2.719108638092287755e+00 -2.454565092510417212e+00 -2.191551548339620403e+00 -2.105406844680862033e+00 -2.067670636139342211e+00 -2.291775814364890973e+00 -2.550540258273745753e+00 -2.883923525278960565e+00 -2.983821837153635137e+00 -3.205842498586937150e+00 -3.524903860347376572e+00 -3.835306537284688844e+00 -3.835306537284688844e+00 -4.162795301028255679e+00 -4.384337518030530845e+00 -4.611617739687812190e+00 -4.691512983908789458e+00 -5.029071635428040032e+00 -5.275120053831314770e+00 -5.672299008312399415e+00 -5.803476070735267278e+00 -5.968785909773814957e+00 -6.294991991435793466e+00 -6.454311176463968458e+00 -6.750064408855527276e+00 -7.035864776058284420e+00 -7.407204242737675415e+00 -7.407204242737675415e+00 -7.654254211891751147e+00 -8.020351190031995259e+00 -8.226478493342462173e+00 -8.256866724051878492e+00 -8.631976702325752981e+00 -8.810508190550258689e+00 -9.111586161525053740e+00 -9.288541087958279263e+00
6.468273266298423252e-01 4.880800774217375904e-01 4.031365884203703676e-01 8.269408620677273225e-01 8.269408620677273225e-01 1.499435804670810279e+00 1.921656122700706071e+00 1.921656122700706071e+00 1.987101353132651571e+00 2.587893264236294399e+00 2.861750858093509819e+00 3.709597626035958218e+00 4.699017532949427256e+00 4.799230213943260104e+00 5.538431454262069842e+00 5.984111156943626497e+00 6.108777846685121027e+00 6.710376883820254434e+00 6.966283121750473484e+00 6.966283121750473484e+00 7.121289527632306715e+00 7.056058331575111531e+00 6.851067240784924017e+00 6.809350717565863853e+00 6.515523376221599605e+00 6.225321795889301235e+00 5.966063156218735841e+00 5.917727641209776124e+00 5.586558996633595342e+00 5.245311360825744451e+00 4.898605641718017267e+00 4.898605641718017267e+00 4.642919789846123635e+00 4.347129762228888694e+00 4.168723436000514759e+00 4.082011633725023181e+00 3.749695478751131628e+00 3.524349926173653280e+00 3.321569898549790345e+00 3.223769963147045559e+00 3.215838698724547751e+00 3.135990195467575958e+00 3.049444788533875350e+00 3.100864287682798093e+00 3.162881363284547831e+00 3.089900204674697726e+00 3.089900204674697726e+00 3.081840035074558504e+00 3.057172424580631986e+00 3.068062156907475302e+00 3.063805055417748058e+00 3.130933243658693854e+00 3.132767818415532091e+00 3.240189686400341440e+00 3.259105956059287212e+00 3.112971289408552167e+00 3.041319514121545886e+00 3.086609779663725739e+00 3.086609779663725739e+00 3.104454642842179091e+00 3.034151831838165503e+00 3.080863708582617377e+00 3.015698774810188887e+00 1.820147263369769952e+00 1.051436182971315469e+00 -1.273967539635759150e-02 1.247487768880211484e-02 -1.512103811096876804e-01 -2.383876060606554548e-01 -2.211489709451898711e-01 -2.211489709451898711e-01 -6.281410444475081789e-01 -1.239756061138833854e+00 -1.678788663463037567e+00 -1.779121826626216762e+00 -2.142118759316986143e+00 -2.395165514556560460e+00 -2.512337394405578905e+00 -2.758277234019520296e+00 -2.828142870483854932e+00 -2.641833111800638179e+00 -2.518423652605112917e+00 -2.351654457446974433e+00 -2.093510425718459800e+00 -2.117578247846430894e+00 -2.117578247846430894e+00 -2.418667368514624272e+00 -2.705749118104847195e+00 -2.983821837153635137e+00 -3.034332379874924435e+00 -3.357474494390769504e+00 -3.617469763584827636e+00 -3.976000471226421418e+00 -3.939991758487133566e+00 -4.147418775790675305e+00 -4.424881823008443682e+00 -4.777010566216463694e+00 -4.777010566216463694e+00 -5.122341701988675666e+00 -5.550074380397116869e+00 -5.803476070735267278e+00 -5.902464336488378649e+00 -6.205436716253593943e+00 -6.454311176463968458e+00 -6.867773671283959658e+00 -7.004712035538211090e+00 -7.168661042741774736e+00 -7.498239236397552965e+00 -7.896187853642754995e+00 -7.896187853642754995e+00 -8.209699700329526451e+00 -8.493396567658233920e+00 -8.631976702325752981e+00 -8.822697364162984002e+00 -9.107250041398703644e+00 -9.288541087958279263e+00
6.468273266298423252e-01 7.260807675474657552e-01 7.831185211246636246e-01 5.494951232417371045e-01 1.331399407265952961e+00 1.909871249491700285e+00 1.919416188927231870e+00 1.998913074306348348e+00 2.301160084140118300e+00 2.301160084140118300e+00 3.390847521839006173e+00 4.601300161145679191e+00 4.699017532949427256e+00 5.226850979418526499e+00 5.762916466760223955e+00 5.984111156943626497e+00 6.348303750998573136e+00 6.895655530754309481e+00 6.918130052578583822e+00 7.153226872344789378e+00 7.094687832351038281e+00 7.112818070868023312e+00 6.943349184609401981e+00 6.771416289692941959e+00 6.771416289692941959e+00 6.348828517394529136e+00 6.117310602730881897e+00 5.917727641209776124e+00 5.696266856562852254e+00 5.313548230549320017e+00 5.159597191496125390e+00 4.769101753151684164e+00 4.750161118248979797e+00 4.551261047272418203e+00 4.302616320485453727e+00 3.960364217404245046e+00 3.960364217404245046e+00 3.639481971158008644e+00 3.399018413465308086e+00 3.223769963147045559e+00 3.291119166033470211e+00 3.173637387624166362e+00 3.049444788533875350e+00 3.076017351095273522e+00 3.156406620584669476e+00 3.114971621374778898e+00 3.013807388995747072e+00 2.999762943232549439e+00 2.999762943232549439e+00 3.019895182021150148e+00 3.051355016459639025e+00 3.130933243658693854e+00 3.112335021985218830e+00 3.214295170138388613e+00 3.259105956059287212e+00 3.087075241517065471e+00 3.047597558105449966e+00 3.073977727262891868e+00 3.045470906624890617e+00 3.018887966776830467e+00 3.066502533703353350e+00 2.995530170414521631e+00 2.780077153414284741e+00 2.780077153414284741e+00 1.411838547642257913e+00 5.763441382407784586e-01 1.247487768880211484e-02 4.195713465808821596e-02 -2.018851897952603225e-01 -3.171289519822427239e-01 -3.013288178033626252e-01 -4.672635596173153605e-01 -9.042274099512256358e-01 -1.397613200616129703e+00 -1.885004821600589464e+00 -1.885004821600589464e+00 -2.168773532086303302e+00 -2.542751925332018104e+00 -2.758277234019520296e+00 -2.591355779518311753e+00 -2.606911236643834062e+00 -2.518423652605112917e+00 -2.218323470229758509e+00 -2.144156350451059456e+00 -2.042447780074982955e+00 -2.172362182180171075e+00 -2.444876981302449348e+00 -2.444876981302449348e+00 -2.810360298039915605e+00 -3.111700579575540360e+00 -3.111700579575540360e+00 -3.443975339207338227e+00 -3.679103890108857300e+00 -3.987724537937489266e+00 -3.987724537937489266e+00 -4.278556561658220403e+00 -4.603171707658269440e+00 -4.873392316353789333e+00 -4.974989829928897045e+00 -5.415346360295597350e+00 -5.719520608535436423e+00 -5.989064932485653969e+00 -6.129825582134353468e+00 -6.375097131776875869e+00 -6.749997975403866590e+00 -7.051797740229567069e+00 -7.051797740229567069e+00 -7.410198864724632628e+00 -7.884958326068069567e+00 -8.017380463777335819e+00 -8.239872171648860544e+00 -8.539646230860858722e+00 -8.631909216699963139e+00 -9.013418026000215022e+00 -9.106421577385791721e+00 -9.251566864844598115e+00
9.369321676352088124e-01 1.108728986579244236e+00 1.108728986579244236e+00 1.541329757456710636e+00 2.043269378667743830e+00 1.909871249491700285e+00 2.352677686311789973e+00 2.623660923948315293e+00 2.286241347392064860e+00 3.091462274352991813e+00 3.861462490995474894e+00 4.271345045100077620e+00 5.073554692666158772e+00 5.574287627116079946e+00 5.574287627116079946e+00 6.162684457954441974e+00 6.566264363505942114e+00 6.895655530754309481e+00 6.908267176883954974e+00 7.012874450974960538e+00 7.094687832351038281e+00 7.024491395684787420e+00 6.859916554462940574e+00 6.832123155424863370e+00 6.544076013821172211e+00 6.184471097636968118e+00 6.184471097636968118e+00 5.930287593518076328e+00 5.507262451724126429e+00 5.507262451724126429e+00 5.236231810147112142e+00 4.829115498084563640e+00 4.750161118248979797e+00 4.636547031255586759e+00 4.425413761141951063e+00 4.200688866189691950e+00 3.860516437734660578e+00 3.769718371030744919e+00 3.526294070317731233e+00 3.353306113307112035e+00 3.179955449255976507e+00 3.179955449255976507e+00 3.098125796327515946e+00 3.111990355241000650e+00 3.156406620584669476e+00 3.110852335661679291e+00 3.010561086744611536e+00 3.112056748378916105e+00 3.004238772433836857e+00 3.006474022433326621e+00 3.001283209809393782e+00 3.061463611205438973e+00 3.074017995222173560e+00 3.074017995222173560e+00 3.149641969868705260e+00 3.027436668020993871e+00 3.047597558105449966e+00 3.063052487761585230e+00 3.042756870338040542e+00 3.018887966776830467e+00 2.981801831389579771e+00 2.940986452011567387e+00 3.064909293684354719e+00 2.637353416620581648e+00 2.049055440716870180e+00 9.502622902061177435e-01 4.861399455363989430e-01 -1.381000399941118839e-01 -1.672734210398585109e-01 -2.693723495664279710e-01 -3.867007065449084013e-01 -6.921954195898747386e-01 -6.921954195898747386e-01 -1.092830894116199936e+00 -1.707431512524316020e+00 -1.961236193374734871e+00 -2.045617739182827410e+00 -2.351269294240234675e+00 -2.521950740561714976e+00 -2.630843193990916262e+00 -2.603537846154436064e+00 -2.559357904632848513e+00 -2.308514448586044043e+00 -2.058426203554462486e+00 -2.058426203554462486e+00 -2.101436466680242976e+00 -2.311100865253418846e+00 -2.537717001348910983e+00 -2.636981954663261352e+00 -2.917221832531688985e+00 -3.194620944010646113e+00 -3.473996915186293943e+00 -3.498892014891413105e+00 -3.726777147881637386e+00 -4.038359154217557645e+00 -4.380661336282119400e+00 -4.380661336282119400e+00 -4.713965158529608068e+00 -5.103725283532376977e+00 -5.415346360295597350e+00 -5.635565146335605569e+00 -5.892637438040032372e+00 -6.129825582134353468e+00 -6.281446944713774627e+00 -6.614748127814754852e+00 -6.908863941679887155e+00 -7.146222903483194777e+00 -7.330891340696913616e+00 -7.627039583127283251e+00 -8.024860238958421377e+00 -8.383118197582227538e+00 -8.383118197582227538e+00 -8.713482875574857900e+00 -9.022177577401329529e+00 -9.106421577385791721e+00 -9.214592641730916966e+00
1.397094514907308849e+00 1.262559041239136759e+00 1.629122685961443606e+00 2.110690524084687603e+00 2.134161144721573589e+00 2.448276504537903797e+00 2.832788299821076716e+00 2.832788299821076716e+00 3.247236980313056076e+00 3.903962836547811843e+00 3.861462490995474894e+00 4.554254216386294907e+00 5.299304978570011926e+00 5.447057130102206379e+00 5.905618718538624634e+00 6.267446663533251083e+00 6.434859821177015604e+00 6.819864499289519877e+00 6.925651972353906949e+00 6.925651972353906949e+00 6.982469325533242177e+00 6.914101669652341187e+00 6.859916554462940574e+00 6.766688879762876141e+00 6.533109404251030483e+00 6.315912138054155633e+00 6.058259316046962439e+00 5.909798240255939916e+00 5.712321467640387063e+00 5.368374392283399743e+00 5.068055175120825595e+00 4.889129243017443116e+00 4.849539240420386754e+00 4.519537531273720710e+00 4.320517446687835772e+00 4.320517446687835772e+00 3.963699748209796425e+00 3.660606629300720449e+00 3.548341022013453472e+00 3.524996739741701024e+00 3.298136905405542052e+00 3.238177898510437025e+00 3.160705140057986196e+00 3.157830207590489824e+00 3.148722470964078646e+00 3.079227038135643024e+00 3.007314784493476445e+00 3.060737161664076389e+00 2.951483065718417009e+00 2.928855331029429632e+00 2.928855331029429632e+00 2.972906051038052500e+00 2.980532166584182185e+00 3.108501526753905342e+00 3.040177983678122864e+00 3.005640330045407094e+00 3.032200131980686386e+00 3.073629955215412046e+00 2.959453129734246790e+00 2.961659764872641709e+00 2.941508695054471989e+00 2.992811687903970341e+00 2.992811687903970341e+00 2.942244586245942983e+00 2.040639259117901894e+00 9.502622902061177435e-01 7.130837754354593105e-01 -7.022740384694825533e-02 -1.672734210398585109e-01 -3.641556983432370220e-01 -4.586385969990214861e-01 -4.332987730916603164e-01 -7.177578278482270591e-01 -1.341986528029310399e+00 -1.341986528029310399e+00 -1.827551060013445472e+00 -2.145026826245358897e+00 -2.145026826245358897e+00 -2.476615306525975502e+00 -2.600925569506923996e+00 -2.603537846154436064e+00 -2.597471913492303663e+00 -2.380044411264277127e+00 -2.206067855149604906e+00 -2.057406796825280271e+00 -2.030510751180315321e+00 -2.117589572349451998e+00 -2.374472984439955692e+00 -2.692733622364590573e+00 -2.692733622364590573e+00 -3.027866219881431231e+00 -3.293297618055301523e+00 -3.498892014891413105e+00 -3.559186964948574783e+00 -3.866596052139528172e+00 -4.132231300307996236e+00 -4.429332849100076075e+00 -4.554538000705425915e+00 -4.827129107447880152e+00 -5.280618340194077831e+00 -5.663749731052208247e+00 -5.663749731052208247e+00 -6.017594257907018296e+00 -6.424868531788018977e+00 -6.614748127814754852e+00 -6.751771333761714899e+00 -7.140880041008998091e+00 -7.330891340696913616e+00 -7.866719806145884952e+00 -7.982064145234453179e+00 -8.264355688661810362e+00 -8.585895894063483524e+00 -8.825979306410534520e+00 -8.825979306410534520e+00 -9.105593113372879799e+00 -9.328805596038236558e+00
1.672220444970592856e+00 1.672220444970592856e+00 2.063466665046587600e+00 2.531737657444105061e+00 2.527492355807615443e+00 2.953608803481724721e+00 3.412289367823542197e+00 3.380184178681343354e+00 4.056022878660797915e+00 4.666807646061215564e+00 4.435663550659356247e+00 5.024942875631862371e+00 5.549181649741205646e+00 5.549181649741205646e+00 6.062027434799127867e+00 6.476015918814095329e+00 6.476015918814095329e+00 6.637677527423175405e+00 6.813071017301285615e+00 6.864906446221302971e+00 6.807418005917023507e+00 6.831680873867204795e+00 6.776483924316478280e+00 6.626051623580167416e+00 6.515899474936508007e+00 6.286701447837946155e+00 5.999788703682039426e+00 5.723714553743127098e+00 5.723714553743127098e+00 5.423200554017480357e+00 5.145679691581336535e+00 4.889129243017443116e+00 4.946518260454544347e+00 4.596605034012930524e+00 4.509982878925664629e+00 4.176312064055231588e+00 4.066354866867467166e+00 3.872065664231824744e+00 3.603309077604556432e+00 3.476779060075473105e+00 3.476779060075473105e+00 3.290857707230204543e+00 3.161813364243603708e+00 3.157830207590489824e+00 3.139175206398427953e+00 3.064064299534398739e+00 3.007314784493476445e+00 2.978619129956988409e+00 2.932236733578347909e+00 2.979649048655193866e+00 2.960092802975716975e+00 2.896444315157753913e+00 2.993529065667768663e+00 2.986629100482422139e+00 2.973136705344693542e+00 2.973136705344693542e+00 3.024259969926101910e+00 2.956682214125125885e+00 2.959453129734246790e+00 2.829868352463130954e+00 2.869282506975347591e+00 2.951473462036393602e+00 2.882894868578905978e+00 2.950987483673125578e+00 3.018369056931113015e+00 1.576609487798350973e+00 3.850904239612362168e-01 3.850904239612362168e-01 -1.826007564201161393e-01 -2.786253491431223139e-01 -4.586385969990214861e-01 -5.049391715904761879e-01 -4.780470230990990221e-01 -8.877197046463882746e-01 -1.529858203448042797e+00 -1.633661692276258348e+00 -1.937387006913561693e+00 -2.232434211835551796e+00 -2.469598271768571163e+00 -2.469598271768571163e+00 -2.624541367945645298e+00 -2.545063722093027003e+00 -2.380044411264277127e+00 -2.304968984548461108e+00 -2.092084745289152448e+00 -2.030510751180315321e+00 -2.181438009787500576e+00 -2.249122012770334411e+00 -2.461170753070075268e+00 -2.736785748003582874e+00 -2.838871432066520040e+00 -3.062841610984263774e+00 -3.322252110344341869e+00 -3.656886514021190138e+00 -3.656886514021190138e+00 -3.982838384579403090e+00 -4.307337687841655161e+00 -4.554538000705425915e+00 -4.706804103289318419e+00 -5.152074160678474790e+00 -5.433443717148529473e+00 -5.758739831323048897e+00 -5.895493846263325288e+00 -6.176413323552607082e+00 -6.562061032411723893e+00 -6.948402731981484948e+00 -6.948402731981484948e+00 -7.291413816650743840e+00 -7.769558260916735293e+00 -7.982064145234453179e+00 -8.137093139099581762e+00 -8.359082940282725360e+00 -8.650698520217691367e+00 -8.979621433864704017e+00 -8.909802851372161214e+00 -9.134113846163044670e+00
1.614446097434936833e+00 1.903647121414351329e+00 2.319175388966272955e+00 2.507544752482349537e+00 2.962359710686258030e+00 3.497920797518867531e+00 3.497920797518867531e+00 4.019015625303494765e+00 4.963750938740287388e+00 4.666807646061215564e+00 5.053523228094734421e+00 5.340556145368843488e+00 5.459087835762542973e+00 5.893191845755005431e+00 6.039744238075111404e+00 6.367185306268448919e+00 6.516164962516512560e+00 6.564733535409362553e+00 6.564733535409362553e+00 6.767723858983829999e+00 6.745313161091470278e+00 6.831680873867204795e+00 6.669927451690248255e+00 6.563886447030323978e+00 6.515899474936508007e+00 6.130692709631762938e+00 5.936021858135408280e+00 5.899368845366858238e+00 5.580225568075194431e+00 5.437798733219097791e+00 5.289813127518439906e+00 4.954421469543995649e+00 4.812963748882519432e+00 4.812963748882519432e+00 4.586979780479373048e+00 4.289909358603258838e+00 4.066354866867467166e+00 3.962988579998218519e+00 3.696047918706879987e+00 3.697548288117047388e+00 3.416690997804555874e+00 3.313909857266263970e+00 3.267841859318306952e+00 3.206991650314852116e+00 3.219507011072272995e+00 3.219507011072272995e+00 2.995665126138023382e+00 2.979198951333198231e+00 2.932236733578347909e+00 2.969334920278419609e+00 2.919339454793118627e+00 2.896444315157753913e+00 2.980385100829039402e+00 3.000708072743162091e+00 3.008274123147732126e+00 2.996187536998033529e+00 3.052521859106924751e+00 3.052521859106924751e+00 2.868050558646690451e+00 2.735489025744244351e+00 2.869282506975347591e+00 2.902474235224239418e+00 2.926730285728630143e+00 2.950987483673125578e+00 2.854257570056359494e+00 2.010166051912715801e+00 9.621322879447586907e-01 -2.162626280436889536e-01 -2.590763863080399187e-01 -2.454596123918129924e-01 -4.281826554768899395e-01 -5.254337568577496231e-01 -5.254337568577496231e-01 -6.415828628237207898e-01 -1.293535804481649398e+00 -1.633661692276258348e+00 -1.734425526125829009e+00 -2.083108340669831637e+00 -2.283848110267138409e+00 -2.559458517570905922e+00 -2.629520135849549245e+00 -2.638505082482690334e+00 -2.458177016658680714e+00 -2.268173937142296204e+00 -2.268173937142296204e+00 -2.055574805147659667e+00 -2.089013866440828426e+00 -2.249122012770334411e+00 -2.351377362969904183e+00 -2.568425891755947710e+00 -2.838871432066520040e+00 -3.091390767923612781e+00 -3.149526155374038794e+00 -3.365796233452426733e+00 -3.714397179097186807e+00 -4.073752247307355745e+00 -4.073752247307355745e+00 -4.492695409159570552e+00 -4.887805232981358827e+00 -5.152074160678474790e+00 -5.258744471191293179e+00 -5.653014706788323629e+00 -5.895493846263325288e+00 -6.039797077201749964e+00 -6.496388264864835449e+00 -6.968697091783337072e+00 -7.188377103521919054e+00 -7.251936292604573175e+00 -7.664458210383290115e+00 -7.852608889100283207e+00 -8.181517957116303918e+00 -8.149073723296066163e+00 -8.420761009721170254e+00 -8.862740556569185912e+00 -8.970751768121994374e+00 -8.970751768121994374e+00
1.977834485783755092e+00 2.147098107443740300e+00 2.319175388966272955e+00 2.885822467553232684e+00 3.406221798292496494e+00 3.411104889548162156e+00 3.960864735518865754e+00 4.374725283345251015e+00 4.677149795299460067e+00 5.217960824322903868e+00 5.162565600752918371e+00 5.162565600752918371e+00 5.387287661088747903e+00 5.660375174411869992e+00 6.039744238075111404e+00 6.055769576249359964e+00 6.213613871625010887e+00 6.434963484852037396e+00 6.606635352843652775e+00 6.467227954568902426e+00 6.597453180155561370e+00 6.587836908873633490e+00 6.460992081554097766e+00 6.460992081554097766e+00 6.325085833658915746e+00 6.009368843412372208e+00 5.936021858135408280e+00 5.809258774988765417e+00 5.522816535148226791e+00 5.437798733219097791e+00 5.185318256513072654e+00 4.947190838439414762e+00 4.973371167884966582e+00 4.629640151144245763e+00 4.484879504872020917e+00 4.484879504872020917e+00 4.121110109942160982e+00 3.914705297522220739e+00 3.696047918706879987e+00 3.788173568564325411e+00 3.491705885257271103e+00 3.313909857266263970e+00 3.402238536733875662e+00 3.290951236584766626e+00 3.243361728303560731e+00 3.105638632896848605e+00 3.060180409526509493e+00 3.042508302372105344e+00 2.983605664859477535e+00 2.952660223734144829e+00 2.952660223734144829e+00 2.918188882822461139e+00 2.969885982345584985e+00 3.000708072743162091e+00 3.046427014849686365e+00 2.998946700816814026e+00 3.030051533151392196e+00 2.960442976976990437e+00 2.937165290207544022e+00 2.802266644771087556e+00 2.751829406792583921e+00 2.926264933204754115e+00 2.926264933204754115e+00 2.910311638635540543e+00 2.877250997388006937e+00 2.010166051912715801e+00 1.504155749805910380e+00 -1.767955231351128059e-02 -2.590763863080399187e-01 -3.196914427588299912e-01 -3.997320278974376695e-01 -4.925630030370646284e-01 -5.294804055913213681e-01 -8.465938338349301429e-01 -1.029693870143713941e+00 -1.435467809611967072e+00 -1.831909030961238027e+00 -1.899433813001753624e+00 -2.155798643417488503e+00 -2.455758910916848947e+00 -2.669969606650385074e+00 -2.669969606650385074e+00 -2.588853787916832960e+00 -2.367461141742197128e+00 -2.211509081110250907e+00 -2.118616682903953219e+00 -2.005039124247526949e+00 -2.132546860751850293e+00 -2.371670676268290645e+00 -2.400301451541859254e+00 -2.645502140721759599e+00 -2.886565791747083942e+00 -3.186817290298658456e+00 -3.186817290298658456e+00 -3.553989029588432214e+00 -3.949811852438996684e+00 -4.199178580952297679e+00 -4.431982664158097052e+00 -4.808496641447841391e+00 -5.047866857820814346e+00 -5.398563320045441927e+00 -5.521563983388702468e+00 -5.770009418512022314e+00 -6.234486917159300035e+00 -6.707339298630847324e+00 -6.707339298630847324e+00 -7.113678226390004689e+00 -7.396213177166315766e+00 -7.664458210383290115e+00 -7.723153632966112347e+00 -8.001322575460481090e+00 -8.149073723296066163e+00 -8.183435692095699210e+00 -8.723646311651013008e+00 -8.734381323269840181e+00 -9.080404952572910915e+00
2.415311537502942585e+00 2.415311537502942585e+00 3.090531038405618602e+00 3.565117930958224601e+00 3.406221798292496494e+00 3.967566570879854204e+00 4.302069050297177455e+00 4.374725283345251015e+00 5.138150672952336961e+00 5.086537821666645698e+00 5.155568430282135850e+00 5.280611800034615833e+00 5.424238215076507608e+00 5.424238215076507608e+00 5.803815885955859954e+00 5.938281626466850760e+00 5.938281626466850760e+00 6.057151707987957323e+00 6.135689878802075725e+00 6.467227954568902426e+00 6.227979308878460074e+00 6.183977640474092929e+00 6.334152367600088596e+00 6.263862987351894063e+00 6.031329735717839924e+00 6.030739025937763564e+00 5.829678172576443274e+00 5.566512243318961772e+00 5.566512243318961772e+00 5.344250056610740707e+00 5.164140827623729280e+00 4.947190838439414762e+00 4.926561389618512976e+00 4.625118293183112073e+00 4.515583655520648776e+00 4.300927475940459210e+00 4.135537110020846896e+00 4.047053890835630163e+00 3.861813268196173432e+00 3.630090218520368506e+00 3.630090218520368506e+00 3.466644167225432671e+00 3.350211970773462333e+00 3.372794352456455425e+00 3.372794352456455425e+00 3.160219709454006320e+00 3.122952772196695648e+00 3.082519955045943671e+00 3.052397944195938351e+00 3.036361438821405301e+00 2.975738707661541582e+00 2.947723319627156613e+00 2.928006439182101239e+00 3.017853883735353904e+00 2.996218563445221861e+00 3.001705864635594967e+00 3.072255876855294332e+00 2.989842055021070699e+00 2.861114524452674779e+00 2.861114524452674779e+00 2.686477212435751216e+00 2.899859209012544348e+00 2.936235373514715086e+00 2.977900836571235388e+00 2.937730412805232838e+00 3.003740236113825901e+00 1.016092212980383103e+00 4.362248687588181073e-01 -2.118847229586565128e-01 -3.363990956117393627e-01 -4.646111715649572371e-01 -4.646111715649572371e-01 -5.407184134569438250e-01 -6.412912825258791916e-01 -1.029693870143713941e+00 -1.224945459906800593e+00 -1.643203565948379907e+00 -1.899433813001753624e+00 -2.273819854114663919e+00 -2.346766925599981235e+00 -2.526956260150567957e+00 -2.689728573116343391e+00 -2.519748289362818916e+00 -2.519748289362818916e+00 -2.230883256752436594e+00 -2.040003523159230170e+00 -2.005039124247526949e+00 -2.015971708733366619e+00 -2.222919907270628048e+00 -2.400301451541859254e+00 -2.441395740186961483e+00 -2.681204508000444076e+00 -2.976800200403736607e+00 -3.308527831422790388e+00 -3.393580880079677620e+00 -3.679457973775393853e+00 -4.096298834906057174e+00 -4.513218796731001348e+00 -4.513218796731001348e+00 -4.948619461034665434e+00 -5.267782738318397051e+00 -5.521563983388702468e+00 -5.602663546713760212e+00 -6.097088077683849860e+00 -6.425261667707977686e+00 -6.882862781555146192e+00 -6.946688194930357163e+00 -7.217104978253384928e+00 -7.578752829995600848e+00 -7.850434478534886296e+00 -7.850434478534886296e+00 -7.993830487958564213e+00 -8.311892744341497163e+00 -8.723646311651013008e+00 -8.650900109972953445e+00 -9.167336912987066100e+00
2.914433257454018822e+00 3.337212782738428807e+00 4.134070804872616023e+00 3.842840040949544012e+00 4.268913329927972455e+00 4.436189238856396599e+00 4.436189238856396599e+00 4.639439330795652516e+00 5.049497409249419810e+00 5.086537821666645698e+00 5.074132189037360519e+00 5.177461040209076160e+00 5.311864735987585462e+00 5.452361584725249344e+00 5.518972297721312259e+00 5.540605858421713492e+00 5.815371203740631323e+00 5.905026139697426402e+00 5.787779705212715342e+00 6.030776710700097354e+00 6.002090657485032565e+00 5.998377283509928048e+00 5.998377283509928048e+00 5.955910612309715191e+00 5.816759029559548821e+00 5.835321184879308731e+00 5.679090136651531395e+00 5.458258271946094808e+00 5.440770347105550186e+00 5.243474405753051570e+00 5.131809883987910936e+00 4.940118801192064701e+00 4.684842361391931220e+00 4.620596435221978382e+00 4.473747335449352214e+00 4.311945593277658695e+00 4.090883691894728003e+00 4.090883691894728003e+00 3.990256799604639415e+00 3.725609906078167111e+00 3.565055379378530453e+00 3.564411141392930915e+00 3.437375107783763983e+00 3.396004158004195972e+00 3.396807532053424339e+00 3.295303650717760213e+00 3.126532122621353160e+00 3.153203308433828234e+00 3.058155798191465990e+00 3.058155798191465990e+00 3.006998879544738656e+00 2.882951463458162777e+00 2.928006439182101239e+00 3.035490232944118016e+00 3.028335325696819069e+00 3.001705864635594967e+00 3.141542219426719740e+00 3.046200242987618267e+00 2.991248889388772092e+00 2.821390237815934565e+00 2.729660938736658160e+00 2.729660938736658160e+00 2.945793987299680783e+00 2.984285477643137341e+00 2.984285477643137341e+00 3.093070659663239130e+00 1.691596793394206433e+00 4.362248687588181073e-01 2.053854449971477536e-02 -3.210467988733317624e-01 -3.753631660310571272e-01 -5.249002882959942218e-01 -2.826838990959292253e-01 -2.148544396671499823e-01 -7.390348645980562292e-01 -1.344319644150977711e+00 -1.344319644150977711e+00 -1.748406625664495451e+00 -2.120833587818202748e+00 -2.346766925599981235e+00 -2.436039321545297121e+00 -2.633568105717051466e+00 -2.594381673308042924e+00 -2.394663005108895515e+00 -2.328140822759396933e+00 -2.143742365098110447e+00 -2.023026416606243050e+00 -2.063380687865105312e+00 -2.063380687865105312e+00 -2.261650108750788313e+00 -2.466384033734080994e+00 -2.681204508000444076e+00 -2.803233287206289948e+00 -3.186185761796548110e+00 -3.393580880079677620e+00 -3.830295346519851929e+00 -4.020904819300183952e+00 -4.363008429395113019e+00 -4.729214829132597053e+00 -4.827959735361629257e+00 -5.069097825939065771e+00 -5.408915257166263757e+00 -5.802298758236991816e+00 -5.802298758236991816e+00 -6.271270123176652334e+00 -6.678070695709191540e+00 -6.946688194930357163e+00 -7.048877032895341621e+00 -7.414145791819420239e+00 -7.587985162688990926e+00 -7.879401769404754674e+00 -7.890999321101563879e+00 -8.123015131137140799e+00 -8.624989722298620265e+00 -8.786660374135646379e+00 -8.786660374135646379e+00
4.170674194980165339e+00 4.527186106303770607e+00 4.856689143289186994e+00 4.856689143289186994e+00 5.113708813391156127e+00 4.909013205436336236e+00 4.695622897414972741e+00 4.904153378246053130e+00 4.960134652335194794e+00 4.955357588356369192e+00 5.036165817755475338e+00 5.102903419501652493e+00 5.214467674548290077e+00 5.302434171200916424e+00 5.359589565929885779e+00 5.359589565929885779e+00 5.417128535856250870e+00 5.546909525354950965e+00 5.787779705212715342e+00 5.540437246652213155e+00 5.582414597141189816e+00 5.826595124253531210e+00 5.802317619591560671e+00 5.617982114109542735e+00 5.740368099665113633e+00 5.651650775741334343e+00 5.550238212061731957e+00 5.550238212061731957e+00 5.335427167813331373e+00 5.136701094814768886e+00 5.131809883987910936e+00 4.900533967415726444e+00 4.626190206178168118e+00 4.620596435221978382e+00 4.314225317898515932e+00 4.281198098670913055e+00 4.149964110099533698e+00 4.129334695005086431e+00 4.079952038700518813e+00 3.937566542404252523e+00 3.598978911436697903e+00 3.511363159744274487e+00 3.511363159744274487e+00 3.446958552881593363e+00 3.409494896742059300e+00 3.295303650717760213e+00 3.219532371116190284e+00 3.241178055743263009e+00 3.125007580929558770e+00 3.124051830807792030e+00 3.110485642376825677e+00 3.049582498750436521e+00 2.960379484349539680e+00 3.151609255869943560e+00 3.151609255869943560e+00 3.066806557296277269e+00 3.213434918765377457e+00 3.046200242987618267e+00 3.092374905995665557e+00 2.865964299801780690e+00 2.701755414179818349e+00 2.826316892621422383e+00 2.937633060412590424e+00 2.993168949391726841e+00 2.985574950144708861e+00 3.166924322490788590e+00 3.166924322490788590e+00 9.685525263201255619e-01 -2.841435783196599729e-02 -3.210467988733317624e-01 -3.221984705396643833e-01 -4.380337159243815615e-01 -2.826838990959292253e-01 -4.042645844158158086e-01 -5.346410954949682992e-01 -9.333670877631718987e-01 -1.426171669323945235e+00 -1.510762058745943603e+00 -1.851103148904617690e+00 -2.169911607377427387e+00 -2.477392876748017336e+00 -2.477392876748017336e+00 -2.601156660317772040e+00 -2.578288276466043971e+00 -2.328140822759396933e+00 -2.221347795279294601e+00 -2.123140483233539211e+00 -2.010123174648953626e+00 -2.159450361071243218e+00 -2.176093471539119584e+00 -2.315367050133636972e+00 -2.584339279258209832e+00 -2.940690666660153774e+00 -2.940690666660153774e+00 -3.364236386312920768e+00 -3.801050686173206294e+00 -4.020904819300183952e+00 -4.278825193700106055e+00 -4.632336067074085406e+00 -4.827959735361629257e+00 -5.161264837086941171e+00 -5.332128024335354155e+00 -5.498455428316128213e+00 -5.982633560756748459e+00 -6.408535456959580934e+00 -6.408535456959580934e+00 -6.732061830011492276e+00 -7.096868878739865494e+00 -7.414145791819420239e+00 -7.445094568616867470e+00 -7.768037574071035678e+00 -7.890999321101563879e+00 -8.097191621790996052e+00 -8.526333132946227522e+00 -8.755348866673447361e+00 -9.064163129332630575e+00
4.983360064529813727e+00 4.885973455678819910e+00 4.888248052586559034e+00 5.000593931551975402e+00 5.174676989431913121e+00 5.174676989431913121e+00 4.990897121370934997e+00 4.948850596936871682e+00 4.960134652335194794e+00 4.816048597215538685e+00 4.888890953482267321e+00 5.102903419501652493e+00 5.203706308885489129e+00 5.036507624069811229e+00 5.219119236002036644e+00 5.165087220271724178e+00 4.998257435909099655e+00 5.281878013851475373e+00 5.352461791051905671e+00 5.431956930139123507e+00 5.431956930139123507e+00 5.438582641343834290e+00 5.412898779373652047e+00 5.617982114109542735e+00 5.385526630432300621e+00 5.370695867477778052e+00 5.479747533151861028e+00 5.336778341911056600e+00 5.153345767658753296e+00 5.120526101358580995e+00 5.002893106492722453e+00 4.749531264939118813e+00 4.749531264939118813e+00 4.580870650339984529e+00 4.281053206983871817e+00 4.281198098670913055e+00 4.167717706857469118e+00 4.149659518016838078e+00 4.079952038700518813e+00 3.828894387537640220e+00 3.692722256353103027e+00 3.621155399395751040e+00 3.460438108112759092e+00 3.401622722171652846e+00 3.401622722171652846e+00 3.339537999793067868e+00 3.325910471849534922e+00 3.241178055743263009e+00 3.225839034583656506e+00 3.231674077197169481e+00 3.110485642376825677e+00 3.206968329371666648e+00 3.098128346611618067e+00 3.100780504580932462e+00 3.133946444146748611e+00 3.158345957566100815e+00 3.167274017651776852e+00 3.152027822096452159e+00 3.037579519374383974e+00 3.037579519374383974e+00 2.813574185092398761e+00 2.860308189046626648e+00 2.937633060412590424e+00 2.954001503659567707e+00 2.967182537787472096e+00 2.978074090573497923e+00 2.199751161742553140e+00 1.672493297022162428e+00 6.370374670279769225e-01 -2.396512100598508221e-01 -3.791572080312549109e-01 -3.791572080312549109e-01 -2.961365978852258385e-01 -3.288777552131385562e-01 -5.346410954949682992e-01 -6.999925013699599408e-01 -1.165535594158242150e+00 -1.510762058745943603e+00 -1.944796691655714005e+00 -2.074849799569834730e+00 -2.286550849489929149e+00 -2.523912389963674840e+00 -2.530283567648318854e+00 -2.568154915671531313e+00 -2.428597398783800543e+00 -2.190232311924754871e+00 -2.135929161347931426e+00 -2.082781856312498903e+00 -2.042188412332838432e+00 -2.233202224131561664e+00 -2.233202224131561664e+00 -2.515885095856386755e+00 -2.881741197257954745e+00 -3.139423228278242384e+00 -3.329454234050571948e+00 -3.770709793223647743e+00 -3.963594815846674724e+00 -4.345726034430997586e+00 -4.528378613740341230e+00 -4.722685353957704280e+00 -5.057037951558454481e+00 -5.414443781952780199e+00 -5.414443781952780199e+00 -5.887310897879761029e+00 -6.200926387550594221e+00 -6.455069170026291658e+00 -6.526526023430045953e+00 -6.852474340905883032e+00 -7.226485741119356376e+00 -7.500806992832627529e+00 -7.627390994747367259e+00 -7.788168154244562658e+00 -8.154362483334884004e+00 -8.659274459805718749e+00 -8.659274459805718749e+00 -8.961946512501461015e+00
4.934645836144019526e+00 4.885973455678819910e+00 4.811988444755831651e+00 4.821523065323757073e+00 5.108157301131896588e+00 4.975572604418046829e+00 4.803299894035188089e+00 4.868870911567582560e+00 4.814923545038330310e+00 4.814992882273424257e+00 4.814992882273424257e+00 4.843435462364432453e+00 4.914754079822016841e+00 5.036507624069811229e+00 4.884192493413230807e+00 4.850027625944947296e+00 4.998257435909099655e+00 5.096969888867748821e+00 4.885121095791919998e+00 5.155717088929034020e+00 5.175767965006744298e+00 5.212607307328218198e+00 5.212607307328218198e+00 5.232607250221794182e+00 5.197054933359504858e+00 5.197054933359504858e+00 5.211033092443370762e+00 5.141422675311121182e+00 5.153345767658753296e+00 4.994752872126968057e+00 4.849090321723645403e+00 4.769525137919033320e+00 4.562756024810360245e+00 4.523879902746759996e+00 4.430048692223882867e+00 4.273254857335824219e+00 4.176765054862628723e+00 4.176765054862628723e+00 4.139536325597363842e+00 3.928752323288595250e+00 3.692722256353103027e+00 3.666615095982732608e+00 3.501766954328800807e+00 3.468960703444834870e+00 3.409611542919623872e+00 3.383772348868375968e+00 3.326994915083881121e+00 3.341326890677282613e+00 3.261900230021317348e+00 3.261900230021317348e+00 3.242146395774415879e+00 3.207527328091066110e+00 3.166070776217746463e+00 3.166070776217746463e+00 3.239557562596679041e+00 3.227092433894589885e+00 3.279586957900155753e+00 3.265984039189052890e+00 3.156804624237604884e+00 2.985189404665001156e+00 2.823126481716622838e+00 2.900995038728634956e+00 2.898465614680430846e+00 2.979093136180079426e+00 2.948790125430235332e+00 2.959681678216260714e+00 2.908526163575519519e+00 1.088182191535704835e+00 1.088182191535704835e+00 3.187734239386466606e-02 -3.179548184090398855e-01 -3.642130303414130577e-01 -3.197337362135183048e-01 -2.534909260104613038e-01 -4.041897349588453037e-01 -8.181525566744981548e-01 -9.048995189925392868e-01 -1.250125983580240963e+00 -1.780852965458116000e+00 -2.166380268805779608e+00 -2.166380268805779608e+00 -2.446745995041684107e+00 -2.543388396241111238e+00 -2.568154915671531313e+00 -2.478946748286939172e+00 -2.194274707001620861e+00 -2.135929161347931426e+00 -1.988064241189154702e+00 -1.958804618308398915e+00 -2.076260322788880064e+00 -2.314383574733867910e+00 -2.650599539123277282e+00 -2.650599539123277282e+00 -3.092660694759937101e+00 -3.538702400854121688e+00 -3.770709793223647743e+00 -3.923392588536787962e+00 -4.279770644409312652e+00 -4.528378613740341230e+00 -4.646163975340757091e+00 -4.953512389253553749e+00 -5.256455805154766736e+00 -5.609276994123535864e+00 -5.828868564362366556e+00 -5.961569711910652103e+00 -6.236474977659243635e+00 -6.630240238387116847e+00 -6.630240238387116847e+00 -7.038825690419292513e+00 -7.378292946233168337e+00 -7.627390994747367259e+00 -7.685336987387561436e+00 -8.158723263402393400e+00 -8.427676543593836556e+00 -8.724037359211248344e+00 -8.861959239724340520e+00
4.746450467720875643e+00 4.815153459230145927e+00 4.845449095306928911e+00 4.845449095306928911e+00 4.828117410746173732e+00 4.782233625365095442e+00 4.803299894035188089e+00 4.667893602548210730e+00 4.636414697104068949e+00 4.654010161442847071e+00 4.694399618971937471e+00 4.574176775108721671e+00 4.730971808385467270e+00 4.713004042857281917e+00 4.653396750631556777e+00 4.653396750631556777e+00 4.631087964274634317e+00 4.673128996088672160e+00 4.885121095791919998e+00 4.746941253005291017e+00 4.769121332872300556e+00 4.807488739790994003e+00 5.017567824656518738e+00 4.835525546954288600e+00 4.840121688610135031e+00 5.067513281225868305e+00 5.091973311218888298e+00 4.946067008711186652e+00 5.002315937197721496e+00 4.887771493626166475e+00 4.638516308422340195e+00 4.638516308422340195e+00 4.491011165717783804e+00 4.391009907576654214e+00 4.290780371846015129e+00 4.261614732820402374e+00 4.184373714678880418e+00 4.185760812654477192e+00 4.180754344145664270e+00 4.029878762870346520e+00 3.827891358656790644e+00 3.644131046144075903e+00 3.563145287770029590e+00 3.490997141824156103e+00 3.439103128444284341e+00 3.434457459051571959e+00 3.434457459051571959e+00 3.460723751574199092e+00 3.347262107807519094e+00 3.327543875116632854e+00 3.391098090531502240e+00 3.372156763699036386e+00 3.209493079328672671e+00 3.303540409993675375e+00 3.340299679211006012e+00 3.249885357835923916e+00 3.344715446631497002e+00 3.273753156938675968e+00 3.273753156938675968e+00 3.104414509528222510e+00 2.971047018275590368e+00 2.900995038728634956e+00 2.868807769435876232e+00 2.931202501174385855e+00 2.948790125430235332e+00 2.955085547748326658e+00 2.837578757056067325e+00 2.648650234703827877e+00 6.018534204237764307e-01 -2.286329278033329693e-01 -2.286329278033329693e-01 -2.920224410890445155e-01 -3.692365004661113947e-01 -3.692365004661113947e-01 -2.794934331742416900e-01 -5.592244662963888890e-01 -9.048995189925392868e-01 -1.113488176948572272e+00 -1.678265057453256714e+00 -1.930332081093972807e+00 -2.273169097667724792e+00 -2.346742569866023587e+00 -2.506470174674222395e+00 -2.525572071819528475e+00 -2.433223771479213315e+00 -2.433223771479213315e+00 -2.134773315806540950e+00 -1.915938329242135030e+00 -1.958804618308398915e+00 -1.942376590498590572e+00 -2.241300193902629800e+00 -2.447430912454563678e+00 -2.825287852197754468e+00 -3.055320358075551024e+00 -3.295718593628206072e+00 -3.742675575077814898e+00 -4.101580543043152005e+00 -4.101580543043152005e+00 -4.424421160406596165e+00 -4.741987044607506974e+00 -4.953512389253553749e+00 -5.168077307704614931e+00 -5.509708752583926561e+00 -5.828868564362366556e+00 -6.004009413689780139e+00 -6.028379320080107462e+00 -6.299222112622323344e+00 -6.640427857890950136e+00 -7.159313380472618782e+00 -7.159313380472618782e+00 -7.447583572444463229e+00 -7.809439516609261389e+00 -7.809439516609261389e+00 -8.305889397331704060e+00 -8.650167676244310044e+00 -8.861959239724340520e+00
4.863822070896662630e+00 4.813338821111249111e+00 4.676458316563476103e+00 4.654750247722320822e+00 4.704808249131882114e+00 4.509408565993050289e+00 4.601807329092532761e+00 4.514455801671635626e+00 4.491367714334733918e+00 4.491367714334733918e+00 4.499908284461606733e+00 4.431705733140720582e+00 4.431705733140720582e+00 4.389500461644751717e+00 4.346987633245445792e+00 4.521367178187393421e+00 4.308711128745308372e+00 4.239497922610158120e+00 4.431218983199348038e+00 4.593600500830165245e+00 4.389284028423121597e+00 4.570425858200879432e+00 4.622236869939386317e+00 4.600072364320514140e+00 4.600072364320514140e+00 4.769861028569867933e+00 4.839807678799149748e+00 4.946067008711186652e+00 4.870690397712609254e+00 4.751419898904129191e+00 4.695661802050689282e+00 4.493595899998541476e+00 4.417058297331904804e+00 4.466889155153535462e+00 4.286091263252286510e+00 4.192557938945740581e+00 4.192557938945740581e+00 4.223023004486507581e+00 4.115830336384481924e+00 4.029878762870346520e+00 3.966371450596006820e+00 3.718193563761813536e+00 3.563145287770029590e+00 3.471806659907335835e+00 3.468594713968943921e+00 3.428006697943684067e+00 3.577049808384037632e+00 3.447408818737341285e+00 3.447408818737341285e+00 3.417704906951503752e+00 3.476960899081144252e+00 3.476960899081144252e+00 3.390400739323965240e+00 3.371959964050821768e+00 3.340299679211006012e+00 3.347929705433593917e+00 3.410560715878424798e+00 3.380387737291744799e+00 3.267460816915285893e+00 3.190665977312924007e+00 3.047265459949219935e+00 2.905152164425063965e+00 2.853939155705741637e+00 2.853939155705741637e+00 2.931396197064881193e+00 2.860949496744262355e+00 2.837578757056067325e+00 2.669935611935573938e+00 1.233341749014264632e+00 2.109762506763198098e-01 -3.460244498889812337e-01 -2.714724368434506263e-01 -2.941965466590297784e-01 -1.941486014894936996e-01 -3.698593450625136114e-01 -3.698593450625136114e-01 -7.475473154218577054e-01 -1.357142257370484772e+00 -1.678265057453256714e+00 -1.849875554420400858e+00 -2.176849218125060492e+00 -2.346742569866023587e+00 -2.536786556056149777e+00 -2.565719501115278689e+00 -2.541025012056859822e+00 -2.333338496961376407e+00 -2.150920173790632273e+00 -2.034351232971053136e+00 -1.855540256672343791e+00 -2.058726387157260085e+00 -2.058726387157260085e+00 -2.399782483829890900e+00 -2.790611329754236536e+00 -3.055320358075551024e+00 -3.261652425353180007e+00 -3.694409134307538256e+00 -3.883270511755095633e+00 -4.215365776812044274e+00 -4.300954451434362724e+00 -4.534573680932909134e+00 -4.877480013416428228e+00 -5.300036491841950692e+00 -5.300036491841950692e+00 -5.754253129508584585e+00 -5.846411312562053375e+00 -6.028379320080107462e+00 -6.121806651834498680e+00 -6.481145911485125310e+00 -6.851165639719228651e+00 -7.236246708093236890e+00 -7.276885013470395513e+00 -7.556744534776562716e+00 -8.021312005530141676e+00 -8.407540033128247714e+00 -8.407540033128247714e+00 -8.687716688045297175e+00
4.792998305649304847e+00 4.657214759534793025e+00 4.657214759534793025e+00 4.471489379920581264e+00 4.516938174372798542e+00 4.509408565993050289e+00 4.403702211102598518e+00 4.323438491710832388e+00 4.442304503634819213e+00 4.411670389452869934e+00 4.305416949951275996e+00 4.320233678997042581e+00 4.330834109492933237e+00 4.177705524395932457e+00 4.177705524395932457e+00 4.233826538266406203e+00 4.100052635307668503e+00 4.239497922610158120e+00 4.139475968550910601e+00 4.301200265089441643e+00 4.389284028423121597e+00 4.431287661297224290e+00 4.343749648984736034e+00 4.474194557517097159e+00 4.519388825442142377e+00 4.485099230176700758e+00 4.660184805307899580e+00 4.713892194496114740e+00 4.672886523290607386e+00 4.672886523290607386e+00 4.532821118290819129e+00 4.357200225766383994e+00 4.417058297331904804e+00 4.382353853436348423e+00 4.254740523681192599e+00 4.238513224693908121e+00 4.191982374495133001e+00 4.194300054798578259e+00 4.193974127734708901e+00 4.100019433254932899e+00 3.833700558597999297e+00 3.833700558597999297e+00 3.612673568963808535e+00 3.501586399305919084e+00 3.468594713968943921e+00 3.475210331662838215e+00 3.644330526851003338e+00 3.599179604881428851e+00 3.438996430519214886e+00 3.480560594132565022e+00 3.493750478331614673e+00 3.481277358956275769e+00 3.362283330486009358e+00 3.362283330486009358e+00 3.381221668154139159e+00 3.404863152765863266e+00 3.410560715878424798e+00 3.443342716582506569e+00 3.354802748390062206e+00 3.190665977312924007e+00 3.163918869444682702e+00 3.030162512378491435e+00 2.903368532244247291e+00 2.931442974103373622e+00 2.890697946777848415e+00 2.899180567471409731e+00 2.725486275237242850e+00 2.318088649108357657e+00 2.318088649108357657e+00 8.397695814294828809e-01 -2.216870464350402248e-01 -2.714724368434506263e-01 -2.726601686032088523e-01 -2.288450392199765093e-01 -2.283024036603405194e-01 -4.724282045209082792e-01 -5.736420082123018238e-01 -9.686937379871463083e-01 -1.506576676498350587e+00 -1.965657483513534309e+00 -1.965657483513534309e+00 -2.231560582479879873e+00 -2.516022846294130311e+00 -2.565719501115278689e+00 -2.538299108219320033e+00 -2.300586976664368954e+00 -2.150920173790632273e+00 -1.931120943064640549e+00 -1.936849220390183923e+00 -1.969882636349543859e+00 -2.207406082554767668e+00 -2.602954027807760973e+00 -2.602954027807760973e+00 -2.993551880498491080e+00 -3.444283895873098356e+00 -3.781225403249315775e+00 -3.781225403249315775e+00 -4.116489620288891871e+00 -4.453085832250689435e+00 -4.453085832250689435e+00 -4.818222728169367031e+00 -5.161226106059643826e+00 -5.383743138665833428e+00 -5.588968292847683372e+00 -5.719250717405724771e+00 -5.900038702250177458e+00 -6.279816622094957168e+00 -6.402625891977865358e+00 -6.711684844258760663e+00 -7.115027193463923538e+00 -7.409940547851108228e+00 -7.409940547851108228e+00 -7.767021357006842486e+00 -8.218035766547011178e+00 -8.474100496627791301e+00 -8.523618067823461431e+00
4.464632049973929817e+00 4.601369062495135331e+00 4.432083797476419562e+00 4.231581535445794628e+00 4.313195330101997627e+00 4.260551600893887070e+00 4.233144020602727764e+00 4.233144020602727764e+00 4.216275672675569020e+00 4.191455248610655104e+00 4.305416949951275996e+00 4.084330723425705578e+00 4.054358637531544574e+00 4.069012664567570603e+00 3.993172985468103064e+00 3.941182869596430383e+00 4.024472673185833571e+00 4.044777555118420409e+00 4.099475487195545220e+00 4.099475487195545220e+00 4.205310225613616559e+00 4.219331426834862953e+00 4.343749648984736034e+00 4.277889182922896438e+00 4.299918475743495172e+00 4.485099230176700758e+00 4.549966182799291659e+00 4.400739217363152989e+00 4.587590732765518098e+00 4.535104789461065877e+00 4.336355918405915943e+00 4.336355918405915943e+00 4.304985113344070413e+00 4.264884657523498213e+00 4.254740523681192599e+00 4.192948654145206788e+00 4.102778456814002439e+00 4.194300054798578259e+00 4.125236790717300650e+00 4.040151047345563740e+00 3.998548518984234246e+00 3.743051202632637242e+00 3.643107604223951412e+00 3.539164167225970825e+00 3.511723186079583670e+00 3.578675482824346776e+00 3.578675482824346776e+00 3.646269233863411507e+00 3.527037044965493529e+00 3.480560594132565022e+00 3.557959997960267629e+00 3.511392754914129721e+00 3.439354391581448844e+00 3.429634361063821135e+00 3.434367969329645387e+00 3.407370056644836609e+00 3.482447259267345885e+00 3.434144563937307826e+00 3.434144563937307826e+00 3.297352904895204162e+00 3.174524853927857215e+00 3.030162512378491435e+00 2.997068486802110687e+00 2.902014163394532886e+00 2.820589782031163839e+00 2.773306292334400514e+00 2.637843070827380565e+00 2.427481803914079528e+00 1.685640223317567354e+00 2.680540578459698065e-01 -3.023308211159501935e-02 -2.735943043874122793e-01 -2.524021414702521948e-01 -2.635414769504593191e-01 -1.660692562760562319e-01 -4.170400417721252806e-01 -8.093887763647613642e-01 -8.093887763647613642e-01 -1.351620621944695122e+00 -1.827401590377851770e+00 -2.048089010397613485e+00 -2.115963541242996016e+00 -2.424254925062751198e+00 -2.489389974877134204e+00 -2.420306062538960301e+00 -2.302313016858600569e+00 -2.182593930984009223e+00 -1.920007185692876206e+00 -1.983037255975231616e+00 -1.983037255975231616e+00 -2.161502968833493910e+00 -2.560182017544292421e+00 -2.780485474040840010e+00 -2.940574675599537890e+00 -3.347659494036471006e+00 -3.595316265623062613e+00 -3.942285262068264018e+00 -4.032622043545011969e+00 -4.225142691385293858e+00 -4.573135996186263874e+00 -4.902905236025449476e+00 -4.902905236025449476e+00 -5.244932752883524785e+00 -5.545293737208016438e+00 -5.719250717405724771e+00 -5.804337539526677858e+00 -6.178013708289386230e+00 -6.402625891977865358e+00 -6.586003361047915838e+00 -6.993989318179924197e+00 -7.168476546441699959e+00 -7.505459051713175178e+00 -7.594025353902270403e+00 -7.945987367008992663e+00 -8.298121278048620653e+00 -8.612857985984799569e+00
4.464632049973929817e+00 4.246409456095951995e+00 4.137029972256031307e+00 4.231581535445794628e+00 4.227364003946134652e+00 3.992917953684337107e+00 4.144319980882850807e+00 4.091669118263651761e+00 4.071866421792011081e+00 4.071866421792011081e+00 4.071344523739227839e+00 3.909636478742251509e+00 3.909636478742251509e+00 3.863973379402515285e+00 3.836199286049907897e+00 3.941182869596430383e+00 3.914104094686949420e+00 3.897688474182603002e+00 3.981100031308848486e+00 4.129153510715758202e+00 4.012202611580871547e+00 4.086677942777631856e+00 4.119733229352357640e+00 4.127405743488094636e+00 4.127405743488094636e+00 4.202613272792769195e+00 4.251772697031861448e+00 4.400739217363152989e+00 4.253371573895502245e+00 4.268634040138827856e+00 4.347920808463270781e+00 4.197430928806470618e+00 4.185229958781520487e+00 4.148834043436345098e+00 4.188886966688679436e+00 4.091313181334664151e+00 4.014560751741726996e+00 4.087634377871655289e+00 4.053172021199904052e+00 3.952298819770409199e+00 3.952298819770409199e+00 3.728178898058605917e+00 3.559869130471690291e+00 3.530178999137408624e+00 3.571258267572587464e+00 3.605175964596396554e+00 3.644612158254624479e+00 3.660597541459681636e+00 3.614274073272007559e+00 3.552462916515235491e+00 3.610166948307760304e+00 3.567487130250853511e+00 3.455228642390778759e+00 3.451778307325289230e+00 3.467423652424258318e+00 3.467423652424258318e+00 3.554151250417082686e+00 3.503583631816619803e+00 3.408490061987747399e+00 3.392061254757915645e+00 3.285793169900841360e+00 3.141430828351476023e+00 2.985754503338898136e+00 2.912478309608272475e+00 2.820006046658025234e+00 2.685663087924538672e+00 2.510338036800095374e+00 2.510338036800095374e+00 1.878227157140753611e+00 6.926989226064906857e-01 -3.023308211159501935e-02 -1.908336130243111217e-01 -2.870985792007350046e-01 -2.635414769504593191e-01 -2.604380753319486264e-01 -2.842025255515860938e-01 -5.056705901177200868e-01 -1.010399727509637025e+00 -1.522160438071328059e+00 -1.522160438071328059e+00 -1.917834673413555402e+00 -2.201627245167236957e+00 -2.424254925062751198e+00 -2.427202908446223439e+00 -2.422032102733192360e+00 -2.302313016858600569e+00 -2.170338581990387983e+00 -1.922035667052365282e+00 -1.901855283636110672e+00 -2.070018696857576224e+00 -2.120128696583627015e+00 -2.339878561047743499e+00 -2.752383491772174118e+00 -3.132609620429561037e+00 -3.132609620429561037e+00 -3.456637933608874835e+00 -3.810327515734213577e+00 -4.032622043545011969e+00 -4.130003963959541835e+00 -4.518163624589389471e+00 -4.729826668559402592e+00 -5.014613755043717980e+00 -5.106122367101217030e+00 -5.385412106264322318e+00 -5.591400920693192944e+00 -5.958329403964217619e+00 -5.958329403964217619e+00 -6.355709404820437669e+00 -6.696706679734654166e+00 -6.993989318179924197e+00 -7.055708918554466358e+00 -7.358655064787719802e+00 -7.594025353902270403e+00 -7.966166854001567543e+00 -8.107723049581670338e+00 -8.332013408198390536e+00
4.143663841979869034e+00 4.033397412037666108e+00 3.843436222613442421e+00 3.980227783038016831e+00 3.931687723445056903e+00 3.879892133841223334e+00 3.879892133841223334e+00 3.804653048764234491e+00 3.817237528871553653e+00 3.944314669984022359e+00 3.819640236197149097e+00 3.712234141825905276e+00 3.848295723969494375e+00 3.770849299490862894e+00 3.728546341229913796e+00 3.770244030466605167e+00 3.769205597721450474e+00 3.849554714367518393e+00 3.849554714367518393e+00 3.926360355094222765e+00 3.900754700468622271e+00 4.007218991940444397e+00 3.895716809719979246e+00 3.923080630914312028e+00 4.080448126044847967e+00 3.920127315408837632e+00 3.949118427533155451e+00 4.086938333814013724e+00 4.083272537372620192e+00 3.970148892118775308e+00 4.137024912232450724e+00 4.039334685340281617e+00 4.102419807669564378e+00 4.102419807669564378e+00 4.123033409696165386e+00 4.018009384545172757e+00 4.014560751741726996e+00 3.982192220615221157e+00 3.991991407419267723e+00 4.009521454595871504e+00 3.786815072568916030e+00 3.726542248741937513e+00 3.673984921190940778e+00 3.570137185837045202e+00 3.630100374839438704e+00 3.630100374839438704e+00 3.644893789658245176e+00 3.631843256890383120e+00 3.614274073272007559e+00 3.633714537787194665e+00 3.666599865545969728e+00 3.567487130250853511e+00 3.531948562111684176e+00 3.524239532637365002e+00 3.504747088671260169e+00 3.559661891700346192e+00 3.536485587025498756e+00 3.536485587025498756e+00 3.499339618357232506e+00 3.359699234335725038e+00 3.359699234335725038e+00 3.286756339034915264e+00 3.105189224123545699e+00 2.912478309608272475e+00 2.884314992706865421e+00 2.651414075018807548e+00 2.571490747352955797e+00 2.367537167385546759e+00 2.046095539224819237e+00 1.482924095082287508e+00 2.764235801421430772e-01 -3.139566203301978886e-01 -3.139566203301978886e-01 -2.982379146809420734e-01 -1.285513179525203664e-01 -2.842025255515860938e-01 -3.639584108484488767e-01 -8.087200132368888017e-01 -1.193645759673846563e+00 -1.688260107759063988e+00 -1.809740213757276450e+00 -2.000774894194340181e+00 -2.284204855783953381e+00 -2.461161757519442883e+00 -2.461161757519442883e+00 -2.279643918915361667e+00 -2.062104074958475586e+00 -1.922035667052365282e+00 -1.846670683725911921e+00 -1.933149335956727111e+00 -2.120128696583627015e+00 -2.532080035275626084e+00 -2.705779817948370525e+00 -2.888720954093613624e+00 -3.254160752016602931e+00 -3.348503246452340765e+00 -3.565871704080178617e+00 -3.948754466801131624e+00 -4.250163879079105200e+00 -4.250163879079105200e+00 -4.642192711743648559e+00 -4.931473813461259681e+00 -5.106122367101217030e+00 -5.205743683905462049e+00 -5.481717173696978307e+00 -5.731161340370054091e+00 -6.076210794483814404e+00 -6.188568208380148761e+00 -6.460321877837072790e+00 -6.870484945956802036e+00 -7.116332574000199251e+00 -7.116332574000199251e+00 -7.454173568649787640e+00 -7.840621811649704398e+00 -8.107723049581670338e+00 -8.145650398256968572e+00
3.830891456295454578e+00 3.720827455206593193e+00 3.843436222613442421e+00 3.728874030630238146e+00 3.630014050434730244e+00 3.729676649438718350e+00 3.672052591202493055e+00 3.539302773113792711e+00 3.687077271328278005e+00 3.703431848784640046e+00 3.652480192236147172e+00 3.652480192236147172e+00 3.641308360969906843e+00 3.660269120025175127e+00 3.728546341229913796e+00 3.656994796836788630e+00 3.679926991710074535e+00 3.698781138023231829e+00 3.806280972923149264e+00 3.780993747097961766e+00 3.819059836513603923e+00 3.809510676523800488e+00 3.819761870013222982e+00 3.819761870013222982e+00 3.863791212044405121e+00 3.794701703360059408e+00 3.949118427533155451e+00 3.829587996623402990e+00 3.841990643114150838e+00 3.970148892118775308e+00 3.978817985915515720e+00 3.987250929076108008e+00 4.059133871961806861e+00 4.062302837347487205e+00 4.119483959480478852e+00 4.087179999611579184e+00 3.958184520093841474e+00 3.958529680898120517e+00 3.958529680898120517e+00 3.984546927718273235e+00 3.849455780058933740e+00 3.726542248741937513e+00 3.740919332521671414e+00 3.679679700669820086e+00 3.642022295524131259e+00 3.634686928494131219e+00 3.706683617467253722e+00 3.693629283902795102e+00 3.668858145764616108e+00 3.648533219804551031e+00 3.648533219804551031e+00 3.637063074381446270e+00 3.571405205423637597e+00 3.524239532637365002e+00 3.554753613814536362e+00 3.602763821665897481e+00 3.616877577911867814e+00 3.560177453226525124e+00 3.505031539134557228e+00 3.485343432304785161e+00 3.392032381957776455e+00 3.290521930765801795e+00 3.290521930765801795e+00 3.013398344622333802e+00 2.787139271113169947e+00 2.651414075018807548e+00 2.558393717563748559e+00 2.430858125524952840e+00 2.046095539224819237e+00 1.025163461855113534e+00 5.823602337440438870e-01 -7.763679903817945205e-02 -3.614861837592840965e-01 -3.337092101102523967e-01 -2.964375795778430023e-01 -1.643520763970682530e-01 -5.582293982540499355e-01 -5.582293982540499355e-01 -9.998447655407645129e-01 -1.527840606457904649e+00 -1.809740213757276450e+00 -1.883126738533967615e+00 -2.201472658377518599e+00 -2.353408910061000725e+00 -2.418363083425232318e+00 -2.303653523061841568e+00 -2.230888883477891493e+00 -1.969569814780156802e+00 -1.934511852010134980e+00 -1.934511852010134980e+00 -2.131152752406646478e+00 -2.484882273227264182e+00 -2.705779817948370525e+00 -2.815873776024477415e+00 -3.202172869154626955e+00 -3.348503246452340765e+00 -3.722227336539446263e+00 -3.855934366711240013e+00 -4.016364045170028874e+00 -4.419817124809656050e+00 -4.754545391209862970e+00 -4.754545391209862970e+00 -5.037142100462939531e+00 -5.345567068485776119e+00 -5.481717173696978307e+00 -5.706556470727095487e+00 -6.002769253966688368e+00 -6.356216182481544408e+00 -6.356216182481544408e+00 -6.751010899956746414e+00 -7.010596595363457695e+00 -7.216533472025496110e+00 -7.348940738900768821e+00 -7.703339992816136572e+00 -7.889613153694265080e+00 -8.187500747471872842e+00
