8.421263358150632428e+00 7.396138429843127859e+00 7.011714662401070441e+00 6.174567391653944526e+00 5.637391674026309474e+00 4.772446443479723577e+00 4.612278872324970358e+00 4.447117194387145922e+00 4.145593645661405091e+00 3.932468519468647727e+00 3.717976130629641496e+00 3.361378652829619895e+00 3.065224271415750934e+00 3.065224271415750934e+00 2.802314672479116808e+00 2.550782861176638328e+00 2.431422582013909484e+00 2.338839634363472975e+00 1.960736982408739504e+00 1.667542444309420446e+00 1.280430000629151133e+00 1.224668008578537304e+00 1.197863903630350002e+00 1.146781743639802453e+00 1.003810980960309518e+00 1.003810980960309518e+00 6.910950513132995132e-01 4.563654917682400947e-01 2.947972871813522855e-01 1.724186933314468817e-01 -4.840858760041443221e-01 -9.063825632496176343e-01 -1.807137364066052188e+00 -2.065038832438270244e+00 -2.135329378194587235e+00 -2.591214860901705386e+00 -2.716048189212948216e+00 -2.716048189212948216e+00 -2.058045785229682068e+00 -1.881996687488190156e+00 -2.096165001414333595e+00 -2.337138663318542697e+00 -2.413827954060441705e+00 -1.271087706867146228e+00 2.150706915095515759e-01 2.512858750781895023e-01 6.717469168171897875e-01 8.320555532816321653e-01 8.962861997938202929e-01 1.057103645933787917e+00 1.150603191507172163e+00 1.263259790512542668e+00 1.311045054840839885e+00 1.403630034251893477e+00 1.602204305978874421e+00 1.802830732844642903e+00 1.802830732844642903e+00 2.031689050689294174e+00 2.255285969649074573e+00 2.400330653866431518e+00 2.463119994297498838e+00 2.751434513082399391e+00 2.977913078223818566e+00 3.352093077485490902e+00 3.463323598106813339e+00 3.665478287954902381e+00 3.889781590638109687e+00 4.039590118355278037e+00 4.039590118355278037e+00 4.154265117272235130e+00 4.206380099958782814e+00 4.169227313404453739e+00 4.079649996334143935e+00 3.900130738849983736e+00 3.773161132308967325e+00 3.497841303240155852e+00 3.388937108499872064e+00 3.289314420927407667e+00 3.258786020438340536e+00 3.215667611989093455e+00 3.215667611989093455e+00 3.186472933955988740e+00 3.241488987193014815e+00 3.241488987193014815e+00 3.170732377439983374e+00 3.258606433450012219e+00 3.199086270158217449e+00 3.199154452628609313e+00 3.210767684598105465e+00 3.219753495327477566e+00 3.245473312737376492e+00 3.212033725471791890e+00 3.230396779416931707e+00 3.202655270110501107e+00 3.176005171380763326e+00 3.176005171380763326e+00 3.097886041513917554e+00 2.954830190767313347e+00 2.914004165620157849e+00 2.681249862927244099e+00 1.969041606829441404e+00 1.730406116653935733e+00 1.125154098525701141e+00 8.579781808308595270e-01 7.102876738539066759e-01 2.898458767800783376e-01 -6.037477208248534510e-02 -6.037477208248534510e-02 -2.280514210218198209e-02 -4.932128205257803044e-01 -7.271188943714348429e-01 -1.025904709576469731e+00 -1.418282139362698313e+00 -1.571701736277528960e+00 -1.716303328005631013e+00 -1.639543952966587170e+00
8.536472994589757946e+00 7.418808193145252972e+00 6.442689332252633960e+00 6.442689332252633960e+00 5.704120037621153827e+00 4.854751812781496589e+00 4.612278872324970358e+00 4.462072512481165987e+00 4.278665980385843781e+00 3.932468519468647727e+00 3.528768422394333193e+00 3.327010982595783428e+00 3.204235510653164809e+00 2.936321248593424915e+00 2.650019492949244881e+00 2.590941929442716063e+00 2.472617967844522813e+00 2.249640979462820045e+00 1.712107280797970255e+00 1.712107280797970255e+00 1.302622041513348261e+00 1.198987680788961008e+00 1.198987680788961008e+00 1.173556082505222919e+00 1.034012613274832404e+00 9.010530550821344020e-01 7.112424888919306465e-01 4.384310182287001201e-01 3.224163270464812103e-01 1.145419951946100370e-02 -3.863587977264595352e-01 -1.006240001875013057e+00 -1.945717677628572950e+00 -2.308971136636611021e+00 -2.308971136636611021e+00 -2.834384090842760884e+00 -2.625727621250489641e+00 -2.023028451616793344e+00 -1.711226320519843469e+00 -1.803105923150289058e+00 -2.091815136057763702e+00 -2.639133060251381835e+00 -2.940650152666785644e+00 -2.697443477729577488e+00 -1.804789930885246196e+00 3.157388465967810864e-01 3.157388465967810864e-01 7.264055553216646199e-01 9.260704305966935834e-01 1.057103645933787917e+00 1.064511254959527919e+00 1.247263940029883500e+00 1.311045054840839885e+00 1.459246909185594632e+00 1.507528055159032654e+00 1.659635640027173453e+00 1.856571588778635817e+00 1.906988793920539216e+00 2.106916198677887930e+00 2.282295774305905134e+00 2.551215135653440935e+00 2.551215135653440935e+00 2.907696939608313436e+00 3.263610617819415083e+00 3.463323598106813339e+00 3.581023081759242555e+00 3.897958754284752025e+00 3.932974387741678957e+00 4.114549904388708157e+00 4.200680483119928255e+00 4.194825820600964761e+00 4.172162350516958718e+00 3.946497770812612327e+00 3.946497770812612327e+00 3.763171392659574899e+00 3.511766685294710921e+00 3.388937108499872064e+00 3.341068170645637991e+00 3.291006855038679291e+00 3.283457055404679359e+00 3.203626019232364008e+00 3.209298248732411096e+00 3.241023150299998878e+00 3.254469684785523675e+00 3.235989600653360831e+00 3.235989600653360831e+00 3.266078239883502654e+00 3.191161613581499967e+00 3.210767684598105465e+00 3.250308630275675625e+00 3.223249658754114844e+00 3.212033725471791890e+00 3.191279283454199867e+00 3.246381096084963946e+00 3.260182784024033609e+00 3.153070557600829993e+00 3.111248157306127027e+00 3.039822895043540196e+00 2.840824944105170502e+00 2.318337459343509988e+00 2.318337459343509988e+00 1.641766610665684523e+00 1.057844191530753042e+00 8.579781808308595270e-01 6.626788585374187024e-01 2.579903303875579201e-01 -1.125743031197107280e-02 -1.516156577146026418e-01 -1.620471416944780085e-01 -2.705222649457849071e-01 -7.723460065321327006e-01 -1.271176547771756704e+00 -1.271176547771756704e+00 -1.343285106169682219e+00 -1.453867565916707516e+00 -1.639543952966587170e+00
8.536472994589757946e+00 7.522736289945166632e+00 6.524372158455886250e+00 6.242024903270008807e+00 5.770848401216227330e+00 4.937057182083257167e+00 4.627234190418990423e+00 4.373193251885874488e+00 4.454611139843015266e+00 3.995121309377886565e+00 3.477092000704524732e+00 3.172594641039647723e+00 3.172594641039647723e+00 2.929183293210692263e+00 2.705379620562078369e+00 2.590941929442716063e+00 2.490623571946762205e+00 2.287070743766725922e+00 2.081746086550787744e+00 1.355054840646963132e+00 1.283959001339659789e+00 1.245472705005693514e+00 1.198691776118130825e+00 1.122625032673351342e+00 1.122625032673351342e+00 9.525588365969718252e-01 5.717875072484210897e-01 4.384310182287001201e-01 2.937476068484111136e-01 -2.189225738506776764e-02 -3.863587977264595352e-01 -1.764998857308772706e+00 -2.131641736896461747e+00 -2.254595455210996580e+00 -2.490913424709890300e+00 -2.469122459029182703e+00 -2.634455940729854895e+00 -1.773015154254317105e+00 -1.684995231139807315e+00 -1.684995231139807315e+00 -2.111721994749379938e+00 -2.702053171272820187e+00 -2.940650152666785644e+00 -3.209660876749207858e+00 -2.883617043304006256e+00 -2.486566993076076315e+00 -7.104156509091958949e-01 -1.428980279301446998e+00 7.321993837748536071e-01 9.176215972634478302e-01 1.045732028802769831e+00 1.045732028802769831e+00 1.260474692008750175e+00 1.410072771493699140e+00 1.507528055159032654e+00 1.527409764593487207e+00 1.716982145273993288e+00 1.906988793920539216e+00 2.108001855559868076e+00 2.124297062317763718e+00 2.352076602830759811e+00 2.725742301413113022e+00 3.054723216723459700e+00 3.054723216723459700e+00 3.405163090698386519e+00 3.742306680614335690e+00 3.897958754284752025e+00 3.962466526899961039e+00 4.151912484234675738e+00 4.200680483119928255e+00 4.232787848512689521e+00 4.191522394137162877e+00 4.103890371393760894e+00 3.920149869850074076e+00 3.781524834402358870e+00 3.736078343382058797e+00 3.432552098376821625e+00 3.384522045240045518e+00 3.384522045240045518e+00 3.289941177901565705e+00 3.236413503422661098e+00 3.209298248732411096e+00 3.212866364909495509e+00 3.240100948916474266e+00 3.267698509840136101e+00 3.305955164429200455e+00 3.281796821795148311e+00 3.236479217688324361e+00 3.194677351272279253e+00 3.245488936356434539e+00 3.245488936356434539e+00 3.173800967500795434e+00 3.240372275603983443e+00 3.246381096084963946e+00 3.271843868467028127e+00 3.156702481347792411e+00 3.111248157306127027e+00 2.969623322916604913e+00 2.856046538972397908e+00 2.514650402804532447e+00 1.910837310694501134e+00 1.316305158833824152e+00 1.316305158833824152e+00 8.011272367939948902e-01 4.661563000330389284e-01 4.661563000330389284e-01 4.518700561118979553e-02 -7.828630966933403101e-02 -1.620471416944780085e-01 -3.121436722464363545e-01 -8.062070431584769103e-01 -1.058255259148513927e+00 -1.267182368662212344e+00 -1.142996731357218243e+00 -1.277244351703663350e+00 -1.392330932302580315e+00
8.651682631028883463e+00 7.209374527813240618e+00 7.209374527813240618e+00 6.308440100970921449e+00 5.808604586454118923e+00 4.937057182083257167e+00 4.642189508513011376e+00 4.371518587402113631e+00 4.454611139843015266e+00 4.164763420081611933e+00 3.659919887470656885e+00 3.394182354130778734e+00 3.070302664997098585e+00 2.961480508304265236e+00 2.850618486131031748e+00 2.604646832996559525e+00 2.398644774104298882e+00 2.398644774104298882e+00 2.196148272953854175e+00 1.534998913029080647e+00 1.283959001339659789e+00 1.257351216994224252e+00 1.194210542144223508e+00 1.171291650085890090e+00 1.054451603631053391e+00 9.999475767130430182e-01 7.954275274604590829e-01 4.452837592131019262e-01 1.334801072393091981e-01 1.334801072393091981e-01 -6.657271820185447497e-01 -1.685013065487438011e+00 -2.131641736896461747e+00 -2.241471611138240227e+00 -2.278263797864570783e+00 -2.469122459029182703e+00 -2.338075023065283808e+00 -1.705512276958068174e+00 -1.651135811994463465e+00 -1.831630540101105487e+00 -2.420574682707716807e+00 -2.420574682707716807e+00 -3.084148873150617476e+00 -3.552630200216609691e+00 -3.552630200216609691e+00 -3.273912379608806766e+00 -3.268523585496381223e+00 -1.428980279301446998e+00 -1.993921259894549269e+00 3.090924717551217782e-01 7.974938021023596502e-01 1.155456400609645273e+00 1.184046743478986530e+00 1.293909054914082368e+00 1.411414857331046768e+00 1.529640678134870591e+00 1.529640678134870591e+00 1.759767153504113057e+00 1.992496050824069442e+00 2.124297062317763718e+00 2.308798679201274684e+00 2.680830003549822926e+00 2.864495640658438980e+00 3.174923142599995973e+00 3.337266457046970558e+00 3.513751937234319556e+00 3.905019788496851163e+00 4.069588338751112921e+00 4.069588338751112921e+00 4.251397591789497277e+00 4.206364124990271236e+00 4.191522394137162877e+00 4.127944515933010372e+00 3.912199030258444399e+00 3.781524834402358870e+00 3.541898799769271911e+00 3.476167088253770743e+00 3.397130868977318308e+00 3.316007135796831040e+00 3.259518844249091440e+00 3.259518844249091440e+00 3.232755981635710540e+00 3.211484064740662170e+00 3.211484064740662170e+00 3.253329773971087135e+00 3.259746909093039324e+00 3.281796821795148311e+00 3.279274382512777919e+00 3.236981835631152826e+00 3.262908520039514038e+00 3.239305973802461658e+00 3.270385003045586103e+00 3.286068739289972562e+00 3.291241078488955640e+00 3.211529501459504221e+00 3.160334405094754828e+00 3.124610273098336499e+00 2.984416455065896034e+00 2.529871997671760298e+00 2.529871997671760298e+00 1.822712537935661681e+00 1.236011474066377458e+00 9.887390320854470005e-01 7.443919850288706064e-01 4.159251753019819198e-01 2.294654476346709715e-01 1.167256593250831642e-02 -9.101886819893603708e-02 -1.302301538686491678e-01 -5.541588271684398936e-01 -1.084277794698065289e+00 -1.084277794698065289e+00 -1.043373500701212153e+00 -1.038204500685736331e+00 -1.193374732720636544e+00 -1.194537992382542768e+00
7.637945926384510642e+00 7.637945926384510642e+00 6.604761516054932002e+00 6.374104708646610717e+00 5.837576764811531760e+00 5.019362551385031068e+00 4.491983148669207893e+00 4.491983148669207893e+00 4.418905661149733710e+00 3.918010632062416398e+00 3.659919887470656885e+00 3.448532761396517543e+00 3.056702539089544590e+00 2.961480508304265236e+00 2.768140938008823326e+00 2.664443924584300571e+00 2.482250877486325447e+00 2.306236079002701445e+00 1.855766714607762546e+00 1.855766714607762546e+00 1.302507730137744790e+00 1.212086029964559941e+00 1.212086029964559941e+00 1.157319288584234496e+00 1.075673539028095149e+00 9.999475767130430182e-01 8.564861863417331245e-01 4.753119291323096851e-01 2.884376001319242655e-01 -1.491334611823525169e-01 -6.726398454638909952e-01 -1.185739835718539359e+00 -2.030639983075944066e+00 -2.328043957304132050e+00 -2.328043957304132050e+00 -2.225460434315284175e+00 -1.995888473701415311e+00 -1.705512276958068174e+00 -1.590278291463047555e+00 -1.876482630548040875e+00 -2.132598162160106448e+00 -2.781046344694868111e+00 -3.221317237785520593e+00 -3.413954703510912125e+00 -3.476452630768891883e+00 -3.722046073547427447e+00 -3.722046073547427447e+00 -3.245270564713109707e+00 -2.435469681917754592e+00 3.090924717551217782e-01 2.149024532565139145e-01 9.621526955362180722e-01 1.184046743478986530e+00 1.293797438865141203e+00 1.272237941976480435e+00 1.391903913566830964e+00 1.560575372711244135e+00 1.630592470527909121e+00 1.894739331955288764e+00 2.090864973348482092e+00 2.464310494312791366e+00 2.635490413667076481e+00 2.792051449820925679e+00 3.098465958469011294e+00 3.451702774733073298e+00 3.451702774733073298e+00 3.881520995859418566e+00 4.089860679422436363e+00 4.185768749202480876e+00 4.292654115019526984e+00 4.202671107280056439e+00 4.203498746559735544e+00 4.044730072890042827e+00 3.904248190666814722e+00 3.799878276145143730e+00 3.568217442492631619e+00 3.455683929063692261e+00 3.455683929063692261e+00 3.370721420707544880e+00 3.274795213373546954e+00 3.264148447034215916e+00 3.256213714539009985e+00 3.200567747310540057e+00 3.225732213047425301e+00 3.251886220616720280e+00 3.272373989861579346e+00 3.240281529795505211e+00 3.238809211288021572e+00 3.237233144602567059e+00 3.237233144602567059e+00 3.315072191061603668e+00 3.329315453984511564e+00 3.329315453984511564e+00 3.360710335088100464e+00 3.244760458481685816e+00 3.160334405094754828e+00 3.138676160295351014e+00 2.999209587215187600e+00 2.871268133839626202e+00 2.182365028524576367e+00 1.815382024853759102e+00 1.505135440340841013e+00 9.325746864032667949e-01 5.662919494930507280e-01 5.662919494930507280e-01 2.172187040825065973e-01 -7.525526301131785223e-02 -9.101886819893603708e-02 -1.386853860545193273e-01 -4.328899263949617660e-01 -8.105681860729615495e-01 -9.694502010683933024e-01 -8.202270825911576191e-01 -9.069662395232331864e-01 -1.075874826114079363e+00 -1.241231592887770185e+00
7.753155562823634384e+00 7.753155562823634384e+00 6.677946153839126708e+00 6.374104708646610717e+00 5.904305128406375225e+00 5.101667920686804969e+00 4.657144826607032329e+00 4.362631570976559736e+00 4.404054086457045436e+00 4.391415212078532804e+00 3.671856784287773401e+00 3.276234990028698668e+00 3.276234990028698668e+00 2.991885993859610515e+00 2.830902255455568728e+00 2.664443924584300571e+00 2.476096505544429949e+00 2.265911691510632320e+00 2.147303206505665418e+00 1.549419299598399968e+00 1.299882757416983114e+00 1.257242543108080479e+00 1.181904680065173130e+00 1.112786389788489538e+00 1.112786389788489538e+00 1.028911542397369594e+00 6.887078416445866491e-01 2.854711966315939820e-01 2.854711966315939820e-01 -1.456421665232760787e-01 -1.227634856871024915e+00 -1.227634856871024915e+00 -1.936095047375231193e+00 -2.292793822428673689e+00 -2.244612365070032922e+00 -2.022478201261239672e+00 -1.749019047603446619e+00 -1.617200157938163851e+00 -1.663120410391826454e+00 -1.908136679448554140e+00 -2.153156551621640435e+00 -2.860039518116916923e+00 -3.628814467081626027e+00 -3.628814467081626027e+00 -4.254116987026473673e+00 -4.600950467406274669e+00 -4.081500954051714203e+00 -4.342430041355139103e+00 -3.681393153375065008e+00 -2.373358370054769129e+00 6.798702749110427934e-01 7.970785135986391268e-01 1.028902197824659748e+00 1.150535710991166027e+00 1.285388845274544112e+00 1.285388845274544112e+00 1.423603636655619065e+00 1.689620782339517291e+00 1.894739331955288764e+00 2.031803274363188638e+00 2.454676063831196409e+00 2.635490413667076481e+00 2.917368229162089488e+00 3.060492692983626029e+00 3.242213920704942964e+00 3.637456247374648122e+00 4.009589036171880672e+00 4.009589036171880672e+00 4.209050701549180928e+00 4.295214414517524837e+00 4.295214414517524837e+00 4.197709065439507725e+00 4.055170318592450585e+00 3.904248190666814722e+00 3.809411231663507813e+00 3.572539551856871221e+00 3.515052939552075095e+00 3.481670638365138792e+00 3.373464999363737782e+00 3.305053734693315093e+00 3.281643573971336103e+00 3.204676781139378594e+00 3.204676781139378594e+00 3.224325884558265187e+00 3.274674755637878132e+00 3.272373989861579346e+00 3.274165026229443498e+00 3.209430825997900527e+00 3.189924457240166156e+00 3.245959552858215247e+00 3.289948885037061288e+00 3.339826238738786479e+00 3.318451925314974460e+00 3.325243547637559249e+00 3.325243547637559249e+00 3.195650903311229030e+00 3.121839365336981587e+00 2.999209587215187600e+00 2.977077404178568809e+00 2.121936761957817552e+00 1.815382024853759102e+00 1.144148793368984451e+00 8.487975749870939612e-01 6.891096443045812148e-01 3.771095610737693060e-01 1.846017714962863432e-01 4.481378335718858019e-02 -1.515785834321717040e-01 -2.921660758204674413e-01 -2.921660758204674413e-01 -6.044380300136793505e-01 -8.557558445145628800e-01 -8.202270825911576191e-01 -9.629858004588642828e-01 -1.033057221545641724e+00 -1.144634988475422999e+00
7.868365199262656873e+00 7.407034393225622182e+00 6.751130791623091376e+00 6.439769316324113646e+00 5.973215325057665837e+00 4.672100144701053281e+00 4.672100144701053281e+00 4.429776989319044844e+00 4.528440616097904936e+00 4.528440616097904936e+00 3.719278350644574349e+00 3.401360013054946840e+00 3.012715039803904205e+00 3.041302676177730646e+00 2.909308389292538877e+00 2.708639597659005638e+00 2.365316891519263720e+00 2.202107863092569229e+00 2.138351212118971834e+00 1.555647495102008726e+00 1.266669301604947950e+00 1.266669301604947950e+00 1.175844907155057850e+00 1.122311719807158603e+00 1.071246645107414519e+00 1.051892133955808495e+00 7.115967019718257847e-01 5.312328899910881974e-01 1.060410564499428832e-01 -2.394507537143068243e-01 -9.869876402703552376e-01 -1.713294643159277042e+00 -2.087773127459986000e+00 -2.087773127459986000e+00 -2.207875579740054661e+00 -1.947302107434710550e+00 -1.749019047603446619e+00 -1.671468738423444567e+00 -1.699139767376151688e+00 -1.908136679448554140e+00 -2.548743799227577878e+00 -2.875175300370485409e+00 -3.275486565125976579e+00 -4.031215638125937417e+00 -4.440298059743328807e+00 -4.573684796259440688e+00 -4.546426319640467284e+00 -4.116388834608976310e+00 -4.116388834608976310e+00 -3.085445321260992024e+00 -9.343308381474673130e-01 7.970785135986391268e-01 7.745145292018574823e-01 1.015759597323827368e+00 1.143085052511238375e+00 1.341426161374860593e+00 1.427905332098814206e+00 1.506697827855813632e+00 1.807948295098835478e+00 2.228487741664964439e+00 2.228487741664964439e+00 2.638847394610840169e+00 2.927424260628299191e+00 3.060492692983626029e+00 3.238152458030879366e+00 3.590780775224090338e+00 3.830900222765809993e+00 4.080745943394172848e+00 4.140163944996201550e+00 4.252462231340235377e+00 4.174754800154328649e+00 4.113269192841507049e+00 4.113269192841507049e+00 3.908128624777198024e+00 3.703155087845080295e+00 3.572539551856871221e+00 3.480705232403997318e+00 3.402881429103320698e+00 3.373464999363737782e+00 3.267136821523035195e+00 3.257375666516313828e+00 3.239885455494996069e+00 3.229848166036129342e+00 3.241776525414747478e+00 3.263267471920979546e+00 3.294144674003546047e+00 3.297649334101909524e+00 3.297649334101909524e+00 3.208228473885872400e+00 3.215528772587064044e+00 3.289948885037061288e+00 3.282146038455844295e+00 3.288546429312450670e+00 3.327791864643893760e+00 3.232507648172364245e+00 3.172856659374614363e+00 3.158335478347544800e+00 3.114309489217874205e+00 2.574824542596930499e+00 2.574824542596930499e+00 1.740199594107933567e+00 1.068527315254298893e+00 8.487975749870939612e-01 6.189312351575388949e-01 2.927210601337830731e-01 1.846017714962863432e-01 -9.282748003869334408e-02 -1.284461805443094795e-01 -2.351530402813600262e-01 -6.146937957749373238e-01 -7.896518260156576430e-01 -7.896518260156576430e-01 -9.385350025359812109e-01 -1.048097261140463310e+00 -1.033057221545641724e+00 -1.181842059309793358e+00
7.868365199262656873e+00 7.505864325931596248e+00 6.751130791623091376e+00 6.505433924001611246e+00 6.055520694359454836e+00 5.183973289988564659e+00 4.521893784857248022e+00 4.375336546473576504e+00 4.397565472363231365e+00 4.029653444789371264e+00 3.625526231972104441e+00 3.625526231972104441e+00 3.261508548558660348e+00 3.051592248032813259e+00 2.909308389292538877e+00 2.685932872072423816e+00 2.385999851639436287e+00 2.202107863092569229e+00 2.033088146526515594e+00 1.670473801374785294e+00 1.451735957019502532e+00 1.216784182058307184e+00 1.191874589448382871e+00 1.154357249955299647e+00 1.118944188846381582e+00 9.135333247093392339e-01 9.135333247093392339e-01 5.122655099574299209e-01 3.911622434115069602e-02 -2.394507537143068243e-01 -8.887948558210310157e-01 -1.622548067104235603e+00 -1.864252317684171434e+00 -2.195294416833213358e+00 -2.074235545075849174e+00 -2.003259381103565495e+00 -1.825750647630169254e+00 -1.642943787180276560e+00 -1.642943787180276560e+00 -1.918066293594117733e+00 -2.563607823285874776e+00 -2.875175300370485409e+00 -3.286341540457816457e+00 -4.146919019092531578e+00 -4.440298059743328807e+00 -4.678878983684106707e+00 -4.535157255153260181e+00 -4.234372181463264440e+00 -3.688570972261929981e+00 -2.785152422332547228e+00 -2.785152422332547228e+00 5.672941363328520836e-02 8.761537884523011854e-01 1.015759597323827368e+00 1.090995972095996080e+00 1.353268667409125880e+00 1.427905332098814206e+00 1.502744935846458629e+00 1.699044672351275098e+00 1.963572976208146859e+00 2.357373705108284589e+00 2.467060214717092137e+00 2.732131453997393766e+00 3.038335430980118268e+00 3.432383384024008777e+00 3.432383384024008777e+00 3.777643390886405772e+00 4.046164767596172496e+00 4.140163944996201550e+00 4.166463458560714983e+00 4.166160729870624913e+00 4.143261795367756406e+00 4.026834799008677912e+00 3.902544820627865008e+00 3.801785933487788149e+00 3.560535749294476027e+00 3.383759905671962276e+00 3.383759905671962276e+00 3.322555827406926454e+00 3.250548603744386256e+00 3.257375666516313828e+00 3.202272179682220887e+00 3.269349891311023271e+00 3.241776525414747478e+00 3.271759929713367931e+00 3.295258660255164784e+00 3.278339166036624341e+00 3.216728900972806393e+00 3.225834717690815978e+00 3.225834717690815978e+00 3.250786391624813643e+00 3.263872257567859592e+00 3.263872257567859592e+00 3.269397030194014953e+00 3.226860414174790748e+00 3.172856659374614363e+00 3.135541234410930134e+00 3.083925739810994937e+00 2.883514804107025320e+00 2.042134297199391213e+00 1.665511682049587661e+00 1.003900782869302954e+00 7.858574078934832396e-01 4.174358057049794568e-01 2.423799406440723114e-01 1.208082219161828313e-01 -5.845322768454166984e-02 -2.725623016888844563e-01 -2.725623016888844563e-01 -8.859085153941876900e-01 -9.325067393336090582e-01 -8.825597065685922837e-01 -9.166760825790064571e-01 -1.036459355692165074e+00 -1.110800424494306604e+00 -1.328467943051167888e+00
7.983574835701782391e+00 7.983574835701782391e+00 6.824315429407285194e+00 6.037761855596754934e+00 6.037761855596754934e+00 5.266278659290366093e+00 4.536849102951269863e+00 4.375336546473576504e+00 4.395890807879469619e+00 4.094498969595385951e+00 3.810930468592166331e+00 3.479129655945311317e+00 3.385759309154611429e+00 3.184164949972332348e+00 2.889340514510566393e+00 2.556995589656311907e+00 2.556995589656311907e+00 2.218068397874057407e+00 1.853456549751133275e+00 1.670473801374785294e+00 1.494155947138750218e+00 1.237117191201913435e+00 1.191874589448382871e+00 1.177866257162808239e+00 1.186079936867469042e+00 1.091503570191333150e+00 6.999311026148961057e-01 2.719996631723725633e-01 2.719996631723725633e-01 -3.856469025613261103e-01 -1.412101415565791385e+00 -1.412101415565791385e+00 -1.797093227278112604e+00 -2.084415680253991265e+00 -2.074235545075849174e+00 -1.984040560945891762e+00 -1.902482247656891667e+00 -1.775759773736934610e+00 -1.749761783629445233e+00 -1.950352761409250180e+00 -2.231798394472697122e+00 -2.885338225598399031e+00 -3.758755175512139779e+00 -3.758755175512139779e+00 -4.544312503781830159e+00 -4.701343700307045737e+00 -4.535157255153260181e+00 -4.077071596554321609e+00 -3.582746950368176364e+00 -3.245783357985563722e+00 -1.500934038004933413e+00 -1.279594517162278455e+00 1.089040068605608980e-01 9.268730080126166282e-01 1.232844471413660825e+00 1.232844471413660825e+00 1.432943230365637532e+00 1.577584539594103052e+00 1.699044672351275098e+00 1.871411617514411541e+00 2.263320266679960113e+00 2.467060214717092137e+00 2.851961320155727009e+00 3.015747611940102324e+00 3.233403463635547759e+00 3.544193936859632021e+00 3.901122979829015236e+00 3.901122979829015236e+00 4.078301915105197573e+00 4.171059875720307453e+00 4.159420698735950772e+00 4.091302223368710855e+00 3.998499279424905239e+00 3.797047132792070734e+00 3.797047132792070734e+00 3.548531946732080833e+00 3.322942996681709893e+00 3.339574426148991915e+00 3.259513124184900246e+00 3.242353960775626653e+00 3.243201922637330981e+00 3.187052155078680560e+00 3.293619134491248435e+00 3.259672280722111903e+00 3.280459531764243319e+00 3.299390773931916154e+00 3.299390773931916154e+00 3.227381993542307814e+00 3.201471276894814810e+00 3.186404774485384728e+00 3.204549894480118954e+00 3.200807264129691188e+00 3.260416551900149784e+00 3.310317910617718518e+00 3.221245799655967801e+00 3.150062415437999253e+00 3.098225809447246348e+00 2.703056091371821346e+00 2.703056091371821346e+00 1.928811672922375209e+00 1.294943533743844855e+00 1.003900782869302954e+00 7.412812381065989609e-01 3.867174437827357592e-01 2.423799406440723114e-01 7.983655314865036046e-02 -7.175201542076450334e-01 -2.551220474344211286e-01 -7.403314479867875164e-01 -1.122581853667755869e+00 -1.017528918668189730e+00 -9.205485405224316242e-01 -9.714214970205714561e-01 -9.714214970205714561e-01 -1.145893047735744297e+00 -1.384325216437998218e+00
8.098784472141126400e+00 7.601132926420909541e+00 6.897500067191479012e+00 6.534675100063173758e+00 6.137826063661227849e+00 5.348584028592140882e+00 4.702010780889095187e+00 4.386642743107465492e+00 4.377304093156059395e+00 4.377304093156059395e+00 3.802854438475389287e+00 3.486072990287378381e+00 3.385759309154611429e+00 3.135499865981635548e+00 2.944373308088151564e+00 2.750038277881432514e+00 2.439634580263443375e+00 2.271703126498064496e+00 2.050136944108679415e+00 1.678077762304564402e+00 1.317838092902714919e+00 1.317838092902714919e+00 1.206245429268102409e+00 1.228578622159503198e+00 1.186079936867469042e+00 1.122624423155777595e+00 6.908301996242820486e-01 4.863288805204529774e-01 -4.422327374280041190e-02 -6.801246692510510838e-01 -1.145624228283244062e+00 -1.637169845915248168e+00 -1.977479440252554177e+00 -1.977479440252554177e+00 -1.946567425884577540e+00 -2.013666978734358182e+00 -1.902482247656891667e+00 -1.854962878833335882e+00 -1.771630804429985773e+00 -2.234570022324447791e+00 -2.578471847344172119e+00 -2.920326037580560641e+00 -3.802812949283678190e+00 -4.262622400059124850e+00 -4.648326947820331512e+00 -4.731027218291144365e+00 -4.523888190666052189e+00 -3.706365693164158870e+00 -3.306034888025219498e+00 -3.406121394710134975e+00 -2.586596354690251509e+00 -2.487507129880658141e+00 -2.487507129880658141e+00 8.707598673445668958e-01 1.232369236718163119e+00 1.349369289462136967e+00 1.439516096179068949e+00 1.622667728951695310e+00 1.681468891333383731e+00 2.077136401879300820e+00 2.227984029365793095e+00 2.418347509601816547e+00 2.765958090313407336e+00 3.181021269934539930e+00 3.181021269934539930e+00 3.533737759105627596e+00 3.822300951967791072e+00 4.009011524228087708e+00 4.016439885214193595e+00 4.115158348850867398e+00 4.159420698735950772e+00 4.012182913195639244e+00 3.972223060671646433e+00 3.896961016478531548e+00 3.704878497795059733e+00 3.399036387595946174e+00 3.399036387595946174e+00 3.277183292781297830e+00 3.198174912199386988e+00 3.198174912199386988e+00 3.229512081452050154e+00 3.166366695853335855e+00 3.293619134491248435e+00 3.303065227618867894e+00 3.329346478232432460e+00 3.292378410332638339e+00 3.301003016339532081e+00 3.267305795162949167e+00 3.247678065437314299e+00 3.164763689717319028e+00 3.170972269969491997e+00 3.170972269969491997e+00 3.240219330607248871e+00 3.302855092107798374e+00 3.221245799655967801e+00 3.127268171501384586e+00 3.030453309688095231e+00 3.001076593498267719e+00 2.214373457282235336e+00 1.748276591211660236e+00 1.518343427187480277e+00 9.315462707068098425e-01 5.555963020396242902e-01 5.555963020396242902e-01 1.817601297042798769e-01 -4.432356385324169312e-01 -7.175201542076450334e-01 -4.404760538512615398e-01 -1.189893060477786202e+00 -1.122581853667755869e+00 -9.171273465417499882e-01 -9.613841961911520073e-01 -9.562644235588677599e-01 -1.074948396233842418e+00 -1.254715803154518028e+00 -1.254715803154518028e+00
8.213994108580251918e+00 7.623802689722822379e+00 6.897500067191479012e+00 6.557946893898079388e+00 6.187861560022110297e+00 5.348584028592140882e+00 4.551804421045290816e+00 4.401598061201486445e+00 4.391137631531539576e+00 4.042796885557839559e+00 3.586275623764755061e+00 3.491787323715376701e+00 3.295766934129614079e+00 3.079117362246440059e+00 2.814074706905202561e+00 2.814074706905202561e+00 2.497811803753545945e+00 2.144267396099306833e+00 2.144267396099306833e+00 1.641284115724896520e+00 1.294857656444761806e+00 1.249994480208639791e+00 1.220108262520450237e+00 1.165774334808683754e+00 1.253974704528125983e+00 8.903669952822930167e-01 6.206640545227333217e-01 4.199507082082368781e-01 -1.076609001916785657e-01 -1.274983151466067888e+00 -1.274983151466067888e+00 -1.795980375342492996e+00 -2.085372805841955834e+00 -2.138633847857129844e+00 -2.116651876528869991e+00 -1.971289415434723136e+00 -1.817497840596224767e+00 -1.709800506557865862e+00 -1.777497292104071702e+00 -1.869155411340628348e+00 -2.494770353646559968e+00 -3.171412631847459807e+00 -3.171412631847459807e+00 -4.126960360471896294e+00 -4.501053311379132005e+00 -4.731027218291144365e+00 -4.356528781378649740e+00 -3.719993724459156770e+00 -3.306034888025219498e+00 -3.178333644277041348e+00 -2.819337673470343475e+00 -2.939620608923803946e+00 -6.910370886916519240e-01 1.076395428266863963e+00 1.076395428266863963e+00 1.269995739396155843e+00 1.502995714206111666e+00 1.502995714206111666e+00 1.701639290484266542e+00 2.030611465238111535e+00 2.227984029365793095e+00 2.389753148195332688e+00 2.726440881646798431e+00 2.928409676943058315e+00 3.383137314128563666e+00 3.470784032649760764e+00 3.677346266311962708e+00 3.976710012380987980e+00 4.057013202908806626e+00 4.057013202908806626e+00 4.166158387623517534e+00 4.018634598859347484e+00 3.972223060671646433e+00 3.898434490996471879e+00 3.728914050099640498e+00 3.546407211931935866e+00 3.272784562690163490e+00 3.258723412182991552e+00 3.230072414342642695e+00 3.264306751037523657e+00 3.206945340064881744e+00 3.206945340064881744e+00 3.277372366663721781e+00 3.299444150219815519e+00 3.329346478232432460e+00 3.342450156946495721e+00 3.287801560505415832e+00 3.267305795162949167e+00 3.230149185970715209e+00 3.241434190730876796e+00 3.220558171304186423e+00 3.216656073494071677e+00 3.208072903740054382e+00 3.236182608233574065e+00 3.188112934408130261e+00 3.003229902213513824e+00 3.003229902213513824e+00 2.763278586768739498e+00 2.059090455575004697e+00 1.748276591211660236e+00 1.414455068114863323e+00 8.299784197526778318e-01 6.794714600445355135e-01 3.403729512494552134e-01 9.471276676441565956e-02 -6.329109655151961625e-03 -1.422768583074252857e-01 -8.470333933468459087e-01 -8.470333933468459087e-01 -1.245680689140274744e+00 -9.427138925005918990e-01 -9.613841961911520073e-01 -1.036834507091886515e+00 -1.157710678016475647e+00 -1.216091268164374295e+00 -1.440495092964526602e+00
8.213994108580251918e+00 7.646472453024947491e+00 6.970684704975443680e+00 6.171218582786671902e+00 6.187938806545123072e+00 5.430889397893900572e+00 4.566759739139312657e+00 4.392541478911947905e+00 4.392541478911947905e+00 4.068745206250943269e+00 3.690652267226805172e+00 3.491787323715376701e+00 3.432035383810523754e+00 3.138388577022140247e+00 2.964533959380119654e+00 2.646517572451627220e+00 2.479481352707896047e+00 2.351058433145176707e+00 1.908015275343920347e+00 1.428721403165531534e+00 1.428721403165531534e+00 1.261797255031179343e+00 1.198459008637882572e+00 1.165774334808683754e+00 1.128493142540962335e+00 8.682121657972690087e-01 6.206640545227333217e-01 1.751261745671960357e-01 -2.222689409337656463e-01 -9.038721007963361753e-01 -1.536571633995967634e+00 -1.811019267124852172e+00 -1.964807469046452537e+00 -2.153046789076069611e+00 -2.083914956863591073e+00 -2.083914956863591073e+00 -1.895083741347793449e+00 -1.854905674113091596e+00 -1.777497292104071702e+00 -1.975334849238400636e+00 -2.439238366175620953e+00 -2.824831506934911474e+00 -3.626500385272317217e+00 -4.059545934098985676e+00 -4.478940198762256131e+00 -4.519108858602475465e+00 -4.245811593968731756e+00 -4.245811593968731756e+00 -3.402971339267341300e+00 -3.016635583661352982e+00 -2.819337673470343475e+00 -2.407315108366600231e+00 -2.536082933669388528e-01 8.410114213618198331e-01 1.031759403409874931e+00 1.097796804332917819e+00 1.336659189484113330e+00 1.586417825009145188e+00 1.834433831698131456e+00 1.834433831698131456e+00 2.195616657503889790e+00 2.538928851284647070e+00 2.726440881646798431e+00 2.896315362862813103e+00 3.231394562205307075e+00 3.470784032649760764e+00 3.635599283890698086e+00 3.956154223032090300e+00 4.017681087945198293e+00 4.112061207782467420e+00 4.183439211619573328e+00 4.088390187591929070e+00 4.003283305740972686e+00 3.804513315109691263e+00 3.804513315109691263e+00 3.568487373968132204e+00 3.247044009320889213e+00 3.258723412182991552e+00 3.256291874661665808e+00 3.301503806980511602e+00 3.258711736239518153e+00 3.209570753370963203e+00 3.243886335374252194e+00 3.287555411057522026e+00 3.295823072820763144e+00 3.308154559258941418e+00 3.308154559258941418e+00 3.263466778399816359e+00 3.233191329664139246e+00 3.241434190730876796e+00 3.229242565139851528e+00 3.210882836365973159e+00 3.208072903740054382e+00 3.230990392515439513e+00 3.114309465663875898e+00 3.063254497122946063e+00 2.826068757030179235e+00 2.344578597261197661e+00 2.344578597261197661e+00 1.640394071916396745e+00 1.054483225019994697e+00 8.299784197526778318e-01 5.864224545055861659e-01 2.250145234476902956e-01 9.471276676441565956e-02 2.468072569336474814e-02 -5.120806463161471367e-01 -6.183406313849244551e-01 -9.014554006721683388e-01 -9.558774079974911020e-01 -9.531278566852579015e-01 -1.018303908909852673e+00 -1.113343293682825141e+00 -1.204432221624027299e+00 -1.274028166548639485e+00 -1.456578953713945079e+00
8.329203745019270855e+00 7.646472453024947491e+00 7.043869342759636609e+00 6.237946946381745406e+00 6.187938806545123072e+00 5.513194767195673585e+00 4.581715057233333610e+00 4.416553379295508286e+00 4.497125694000766671e+00 4.068965433164135170e+00 3.850732411934649768e+00 3.480798817623622643e+00 3.125049184328906993e+00 3.125049184328906993e+00 2.897336083055046085e+00 2.603475114559886006e+00 2.479481352707896047e+00 2.311593206170068804e+00 1.922254627481237765e+00 1.663810509495087686e+00 1.303486247541908449e+00 1.263423201302207977e+00 1.221734208791478871e+00 1.192126132263866989e+00 1.092849713749708407e+00 1.092849713749708407e+00 6.059875367902237686e-01 -2.490639986100977865e-01 -2.222689409337656463e-01 -6.779845313691028608e-01 -1.538751375179342240e+00 -1.811019267124852172e+00 -2.072401077660219748e+00 -2.107377722395417319e+00 -2.125397260494363394e+00 -2.031165564108067922e+00 -1.943770995069662000e+00 -1.943770995069662000e+00 -1.930860587422444485e+00 -2.104478058603508561e+00 -2.439238366175620953e+00 -2.802130786260604189e+00 -3.660448684413544207e+00 -4.059545934098985676e+00 -4.392987711898094005e+00 -4.595700129327559225e+00 -4.567040791110006381e+00 -4.039347644789088143e+00 -3.810614899513306675e+00 -3.320803531976291634e+00 -2.714536512811795088e+00 -1.277227942861150600e+00 -1.277227942861150600e+00 8.004615048938747979e-01 9.370724401351088195e-01 1.097796804332917819e+00 1.280983616611804488e+00 1.525612143250494324e+00 1.682320982294940759e+00 1.994375198674756877e+00 2.166725846984789872e+00 2.368743663513737108e+00 2.708803332500661742e+00 3.024357342119015968e+00 3.024357342119015968e+00 3.443581958846922308e+00 3.764806627139802853e+00 3.956154223032090300e+00 4.021031021283272722e+00 4.111585553024021955e+00 4.183439211619573328e+00 4.063415895716037340e+00 4.033942413225343415e+00 3.919288206303088273e+00 3.734811247956215219e+00 3.412534345658125190e+00 3.412534345658125190e+00 3.246688069970177892e+00 3.278023255370817957e+00 3.315392416771428596e+00 3.287992762186591200e+00 3.252774810888591439e+00 3.248320468237602121e+00 3.248320468237602121e+00 3.263171739102037172e+00 3.285658796704117535e+00 3.288925836715583806e+00 3.263300155804344627e+00 3.236233473357563728e+00 3.245809508776107410e+00 3.222262806150769432e+00 3.146555358944261194e+00 3.183455413960660341e+00 3.152295220709383727e+00 2.994653123582922571e+00 2.994653123582922571e+00 2.781082790078449829e+00 2.178700731297478210e+00 1.892898619417366257e+00 1.507255593429250862e+00 9.190161871924430459e-01 7.392941925048053253e-01 3.729384641381139898e-01 1.783744464378646533e-01 8.313241298843129790e-02 -2.618229310036571111e-01 -9.864432353057988045e-01 -9.864432353057988045e-01 -1.079186015719149516e+00 -9.724338789361396396e-01 -9.531278566852579015e-01 -9.383955466810519619e-01 -1.097455783310319788e+00 -1.204432221624027299e+00 -1.212603792326701457e+00 -1.472662814463363778e+00
8.444413381458511836e+00 7.669142216326860328e+00 6.604490481569264659e+00 6.604490481569264659e+00 6.188016053068101208e+00 4.723952732126585730e+00 4.581715057233333610e+00 4.431508697389528351e+00 4.480060233390534385e+00 4.068965433164135170e+00 3.668050381554940120e+00 3.527309013590950837e+00 3.313579510484081947e+00 2.999577765251771666e+00 2.738247917814052190e+00 2.738247917814052190e+00 2.501441786720681737e+00 2.215584909271002267e+00 2.215584909271002267e+00 1.679649757323335546e+00 1.280538607759546421e+00 1.263423201302207977e+00 1.223360155062507504e+00 1.233837370171226411e+00 1.160298090062513277e+00 8.374411776912104033e-01 5.340725184804686609e-01 3.748929289757745309e-01 -3.194233960684600970e-01 -1.133700121804439798e+00 -1.133700121804439798e+00 -1.789068798509506397e+00 -2.059429349478483218e+00 -2.107377722395417319e+00 -2.134652511333032354e+00 -2.069424063382797385e+00 -1.983562638781801724e+00 -2.005779828864587166e+00 -2.084223882740817491e+00 -2.063699745440270128e+00 -2.433580199462146876e+00 -3.200785791059258756e+00 -3.200785791059258756e+00 -3.991394812025185423e+00 -4.445466684267548096e+00 -4.595700129327559225e+00 -4.712615624141546888e+00 -4.428775696140742291e+00 -3.438558391110710488e+00 -2.955454977387232951e+00 -2.692292124062398706e+00 -5.252605609576408430e-01 1.938563975292430519e-01 8.553848608044753998e-01 1.140496391528387887e+00 1.158285485695527139e+00 1.450216508306309215e+00 1.556755921172671808e+00 1.691626698575604992e+00 1.993195983039503627e+00 2.339580858035362532e+00 2.339580858035362532e+00 2.684689783539899288e+00 3.081751022232106507e+00 3.254231604883417006e+00 3.425266028814917263e+00 3.742805227927640477e+00 3.927354404863732551e+00 4.047436402474880346e+00 4.109060583465289795e+00 4.171436845977851249e+00 4.113125048229896663e+00 3.957244763014882594e+00 3.957244763014882594e+00 3.738409805719576706e+00 3.430798748804676279e+00 3.241549164632231417e+00 3.224231477200498297e+00 3.307084411815507607e+00 3.315392416771428596e+00 3.326073723530417414e+00 3.288673391353389874e+00 3.224753652330343723e+00 3.224515310742002150e+00 3.324205953965008842e+00 3.324205953965008842e+00 3.305682249328964595e+00 3.299924324320072877e+00 3.236233473357563728e+00 3.238679352466952821e+00 3.100286692876471850e+00 3.146555358944261194e+00 3.170688435952865092e+00 3.075349719920740910e+00 3.041114927925049560e+00 2.913257968310055013e+00 2.716487998279153881e+00 2.431264573635826043e+00 1.764111006648134250e+00 1.125828903004195247e+00 1.125828903004195247e+00 6.282809707499646956e-01 2.999621653021275480e-01 1.783744464378646533e-01 4.331728688814927980e-02 -6.399547836141750157e-01 -8.838080444354471377e-01 -1.266057265683405930e+00 -1.922919893164423799e+00 -1.481839927283728597e+00 -9.928656687685006865e-01 -9.907713833189044639e-01 -9.907713833189044639e-01 -1.179168051216955337e+00 -1.339137452967093189e+00 -1.472662814463363778e+00
8.444413381458511836e+00 7.691811979628999651e+00 7.117053980544053360e+00 6.305080435243119119e+00 6.188093299590643248e+00 5.595500136497447485e+00 4.596670375327352787e+00 4.389192149944425303e+00 4.389192149944425303e+00 4.075130332580182646e+00 3.680615384147558622e+00 3.527309013590950837e+00 3.379262626743604336e+00 3.057415562827976885e+00 2.938079123840229734e+00 2.691290367271295114e+00 2.547645452515709508e+00 2.282211379402214746e+00 2.041876691686570044e+00 1.424219490123533660e+00 1.364088000196487016e+00 1.234236039962812059e+00 1.196698925308522288e+00 1.233255570113908961e+00 1.233255570113908961e+00 7.951728267720240551e-01 3.288714586886775093e-01 8.533122280062831189e-02 -4.639254324157688902e-01 -1.239974098999231167e+00 -1.553403178081715907e+00 -1.695996920076233039e+00 -1.950210654773742336e+00 -2.048381320703097419e+00 -1.910537778308950774e+00 -1.860441910381809727e+00 -1.933532284893042963e+00 -2.032763197499045216e+00 -2.027059245127971199e+00 -2.027059245127971199e+00 -2.424125945943179428e+00 -3.302969661167036719e+00 -3.744002056452049310e+00 -4.096705275117924039e+00 -4.599757952731819088e+00 -4.686954609614461198e+00 -4.891972723965661629e+00 -4.755401490087591831e+00 -4.350017363535640946e+00 -3.062784692754433102e+00 -1.656537934643208088e+00 -1.656537934643208088e+00 4.705512240150596659e-01 9.298394165255688959e-01 1.140496391528387887e+00 1.266970835967847098e+00 1.451198715746740087e+00 1.556755921172671808e+00 1.850032596237165095e+00 1.989325170611779603e+00 2.174041643955658465e+00 2.489743646377075237e+00 2.867850075067387650e+00 2.867850075067387650e+00 3.269403175724971966e+00 3.609684410926448983e+00 3.609684410926448983e+00 3.873846837828591294e+00 4.035588764974927578e+00 4.109060583465289795e+00 4.126900892998492054e+00 4.098614751644002574e+00 4.043862029983094075e+00 3.804669704547957831e+00 3.739835359493568490e+00 3.622638202720000145e+00 3.264804081318357198e+00 3.243877486471291594e+00 3.243877486471291594e+00 3.309687459603012805e+00 3.325152763880143247e+00 3.288673391353389874e+00 3.254816526373247143e+00 3.258486178861184523e+00 3.242635101221681637e+00 3.285170278880522154e+00 3.279759904587495445e+00 3.257307157085585381e+00 3.243974564461996835e+00 3.163939068613981664e+00 3.163939068613981664e+00 3.145281322735645535e+00 3.153904737332630326e+00 3.075349719920740910e+00 3.016130331974478551e+00 2.903464681999127883e+00 2.716487998279153881e+00 1.990721621438367173e+00 1.621588786961539297e+00 1.431007120812566979e+00 7.868805738515795012e-01 5.534545978595672988e-01 4.196044181764705394e-01 5.723466565264800909e-02 -3.583201360888770837e-01 -3.583201360888770837e-01 -1.106261809955851660e+00 -1.799148854509809325e+00 -1.922919893164423799e+00 -1.609502876208487976e+00 -1.085840186047280387e+00 -1.079404680079565804e+00 -1.204823631027054587e+00 -1.254075542847990388e+00 -1.251022844412689849e+00 -1.546778483625062650e+00
8.559623017897740382e+00 7.190238618328248066e+00 7.190238618328248066e+00 6.372537946858722435e+00 5.677805505799207175e+00 5.677805505799207175e+00 4.611625693421371963e+00 4.387517485460663558e+00 4.465208658697846111e+00 4.205331326521650759e+00 3.721503159266097871e+00 3.561018366944055824e+00 3.236748234543547653e+00 3.005366745651232740e+00 2.994821317896823487e+00 2.711162901457885965e+00 2.433495746208570676e+00 2.433495746208570676e+00 2.003340464400159782e+00 1.518792887211076081e+00 1.364088000196487016e+00 1.263000948021839376e+00 1.201285485458569502e+00 1.259947046705107265e+00 9.756392854617932375e-01 7.180230008096775141e-01 5.114232844633771480e-01 1.089812253599173678e-02 -8.716279698844131563e-01 -8.716279698844131563e-01 -1.594752763604187606e+00 -1.822999272241317303e+00 -1.950210654773742336e+00 -2.057488761544415290e+00 -1.877068354108426762e+00 -1.860441910381809727e+00 -1.983551473362221040e+00 -1.980636669366582447e+00 -2.017471296936880876e+00 -2.169179995978322228e+00 -2.411271404191460910e+00 -2.642197849376962004e+00 -3.670593366025204141e+00 -4.427827555955616390e+00 -4.427827555955616390e+00 -4.712878582278134942e+00 -4.796297835820370281e+00 -4.755401490087591831e+00 -4.403259749323698458e+00 -3.334003761171746127e+00 -2.723107523644032746e+00 -4.139025721328050689e-01 4.787128257465043668e-01 7.225207419121781882e-01 1.078669363987051266e+00 1.355846185223209099e+00 1.355846185223209099e+00 1.566159470236432316e+00 1.815268523475283002e+00 1.989325170611779603e+00 2.102116569746149910e+00 2.448425631675664516e+00 2.658814948393293243e+00 3.042958851153717781e+00 3.216343518146302927e+00 3.443665503159772268e+00 3.706877022710606706e+00 3.987972467044421876e+00 3.987972467044421876e+00 4.090674698249705088e+00 4.117516909615893006e+00 4.098614751644002574e+00 3.992796629590068314e+00 3.797437736340881109e+00 3.739835359493568490e+00 3.483836566048907901e+00 3.333494031811402358e+00 3.267483711499235444e+00 3.264834835688407821e+00 3.269519556260798598e+00 3.309950550032404681e+00 3.295343331795358655e+00 3.285737299410616430e+00 3.285737299410616430e+00 3.279295850199415163e+00 3.254286035780174835e+00 3.279759904587495445e+00 3.242537059029481306e+00 3.243783943921998869e+00 3.237108596034806052e+00 3.123234309849745927e+00 3.129128064572920032e+00 3.137350463860859584e+00 3.072804168155856441e+00 2.978024986768745830e+00 2.978024986768745830e+00 2.838542518778451207e+00 1.895120783259664154e+00 1.621588786961539297e+00 1.243338609343476842e+00 7.382974142748200963e-01 5.534545978595672988e-01 1.997141333143122588e-01 -1.342384853320207072e-01 -2.947538667744211693e-01 -8.893834845434831493e-01 -1.566820924623309796e+00 -1.566820924623309796e+00 -1.959365391825781400e+00 -1.338381600056389731e+00 -1.085840186047280387e+00 -1.100236929453132451e+00 -1.193294017774927385e+00 -1.254075542847990388e+00 -1.287334423933619965e+00 -1.552506674459919633e+00
8.674832654336761095e+00 7.714481742930912489e+00 6.651034069239996960e+00 6.439995458473870116e+00 6.188170546113185289e+00 4.888563470730119320e+00 4.461419333577568480e+00 4.461419333577568480e+00 4.450357084005158725e+00 4.021974010232371555e+00 3.721503159266097871e+00 3.553525129124101678e+00 3.157089956934050257e+00 3.005366745651232740e+00 2.856907935840871993e+00 2.615593375238225882e+00 2.524544560723398057e+00 2.287009563346016350e+00 2.011822551162861572e+00 1.734748887204354384e+00 1.402109422420064977e+00 1.207843681001820491e+00 1.207843681001820491e+00 1.227514617505007122e+00 9.377773476714187373e-01 7.180230008096775141e-01 4.799148267760801057e-01 -5.506256434934660160e-02 -4.922993725817768618e-01 -1.381820968132518868e+00 -1.634228762072037044e+00 -1.723626285374530109e+00 -1.951988418211018983e+00 -1.878430173796513447e+00 -1.878430173796513447e+00 -1.901670293576689819e+00 -1.918822446996087283e+00 -1.980636669366582447e+00 -2.053110050118084118e+00 -2.221857692699933384e+00 -2.411271404191460910e+00 -3.215546813039728669e+00 -3.597184675598359416e+00 -4.062353301237731529e+00 -4.659267615265259010e+00 -4.792693867174803835e+00 -4.792693867174803835e+00 -4.661295199395504518e+00 -3.994650986247092916e+00 -3.334003761171746127e+00 -3.088599949381522158e+00 -7.748262581559669515e-01 4.787128257465043668e-01 6.727570323145258824e-01 1.054527786548698165e+00 1.243938224396987202e+00 1.454615288118634941e+00 1.562575440946715633e+00 1.688876069203832708e+00 1.922981211769633436e+00 2.221900205082313118e+00 2.221900205082313118e+00 2.630488397776414189e+00 2.994420633379783148e+00 3.216343518146302927e+00 3.327957416178966898e+00 3.645494076415883633e+00 3.817655223778724682e+00 4.023229524058046458e+00 4.072288813034118604e+00 4.080198006866012861e+00 4.060532286209963537e+00 3.893282342454466249e+00 3.893282342454466249e+00 3.721204051728824957e+00 3.530304800129377973e+00 3.333494031811402358e+00 3.304727025823996023e+00 3.254843491909807707e+00 3.269519556260798598e+00 3.304010715045167856e+00 3.293570733827476005e+00 3.280105279462667500e+00 3.310389376054775123e+00 3.257334828328772858e+00 3.257334828328772858e+00 3.252006701237418973e+00 3.231524283268522701e+00 3.231524283268522701e+00 3.230270479152749452e+00 3.138764134507793457e+00 3.105030440124335378e+00 3.105030440124335378e+00 3.066964556818659204e+00 2.988578127820998631e+00 2.948538347434309870e+00 2.796709401836333875e+00 1.775977889937969678e+00 1.476641514453170378e+00 9.269718357437907175e-01 6.225576704686033302e-01 4.716349674050213103e-01 4.617270327493187831e-02 -4.970253099195915958e-01 -4.970253099195915958e-01 -1.115019759283117473e+00 -1.823052040446149213e+00 -1.988984470881446365e+00 -1.935388154481143763e+00 -1.478411736642913699e+00 -1.174715701923934930e+00 -1.136284447573490786e+00 -1.178755663368663553e+00 -1.242545929595863186e+00 -1.423186350100299258e+00 -1.740939185424620117e+00
8.674832654336761095e+00 7.737151506233265863e+00 6.692602129342094308e+00 6.439995458473870116e+00 6.188247792636634159e+00 4.970868840031879010e+00 4.626581011515393804e+00 4.365462418151606627e+00 4.435505509312472228e+00 4.207514015544791874e+00 3.777750400724191771e+00 3.374784886134514217e+00 3.374784886134514217e+00 3.042062522593059537e+00 2.733729820758676876e+00 2.615593375238225882e+00 2.538575394232653437e+00 2.291807747289817510e+00 2.011822551162861572e+00 1.537189918728528504e+00 1.402593593923832538e+00 1.284556081579657283e+00 1.205872045608616716e+00 1.157531694533159738e+00 1.157531694533159738e+00 7.081179964605168742e-01 2.490473197181474752e-01 2.490473197181474752e-01 -6.726385625469660789e-01 -1.474985596439409630e+00 -1.634228762072037044e+00 -1.769758729707206157e+00 -1.942658132806689419e+00 -2.080804442538559229e+00 -1.822663384249294083e+00 -1.893197882302442903e+00 -1.931581081071201966e+00 -1.890195914138426359e+00 -2.089996468730320078e+00 -2.089996468730320078e+00 -2.402474132823225972e+00 -3.124398271698351603e+00 -3.597184675598359416e+00 -4.001240846981876764e+00 -4.697928674866474807e+00 -4.717653437577483011e+00 -4.689865359766421271e+00 -4.558562045051788303e+00 -4.390603563016354016e+00 -3.648177313329131533e+00 -2.465057732557014436e+00 -2.465057732557014436e+00 4.751027207829667254e-01 8.764673765792865279e-01 1.054527786548698165e+00 1.219996185300662672e+00 1.456501486242115728e+00 1.562575440946715633e+00 1.744680875804593523e+00 1.821835539871504928e+00 2.173852590614704372e+00 2.395744288532277722e+00 2.812551163877164306e+00 2.940674006295437071e+00 3.147304153939598503e+00 3.462770578606813032e+00 3.629008470033957767e+00 3.783129869443025317e+00 4.015794255976784299e+00 4.042297813049128052e+00 4.042297813049128052e+00 4.021911108971267801e+00 3.849660881895756059e+00 3.790205768133804831e+00 3.692811765096649435e+00 3.564810871173768270e+00 3.402339031928771185e+00 3.250741565977329550e+00 3.250689652568314436e+00 3.224622930682437882e+00 3.284021723326941089e+00 3.306103189061183389e+00 3.306103189061183389e+00 3.364071074080287715e+00 3.326453457637978950e+00 3.235373806458129664e+00 3.226899220767308840e+00 3.194176591781717534e+00 3.248894642808637823e+00 3.193730615093212766e+00 3.158291002543920367e+00 3.115907308624443761e+00 3.093467423313264408e+00 3.029070913280826005e+00 3.029070913280826005e+00 2.969543118685597172e+00 2.062566059966250975e+00 1.775977889937969678e+00 1.277687416383424202e+00 7.363634681750945710e-01 6.225576704686033302e-01 3.955474872439659895e-01 4.832005197865962137e-02 -2.008335774145083574e-01 -9.051188032144877882e-01 -1.326118617080557671e+00 -1.592266220229428209e+00 -2.122995775197323187e+00 -1.761350485000793054e+00 -1.761350485000793054e+00 -1.292139979835862595e+00 -1.121968165506683102e+00 -1.178755663368663553e+00 -1.249351908351965967e+00 -1.476922487346909119e+00 -1.688455381392293342e+00
8.790042290776002076e+00 7.338515845952105821e+00 7.338515845952105821e+00 6.507452970089473432e+00 5.842416244402770076e+00 5.842416244402770076e+00 4.641536329609413869e+00 4.360996786165348027e+00 4.435505509312472228e+00 4.239249693720945622e+00 3.802722894548499433e+00 3.504426432676734926e+00 3.125007796741630983e+00 2.998499635363041982e+00 2.904950010918771142e+00 2.664382372292610768e+00 2.556718391317532202e+00 2.556718391317532202e+00 2.179819589954451686e+00 1.592470211593157270e+00 1.402593593923832538e+00 1.252052323800045830e+00 1.217214722601235311e+00 1.210993885086560473e+00 9.553814695866735818e-01 6.997209232349019814e-01 4.581687693748566215e-01 -1.469951562949751156e-01 -1.169737573361488980e+00 -1.498755150898674060e+00 -1.591000858061628387e+00 -1.754071784101938869e+00 -1.947393768784684953e+00 -1.947393768784684953e+00 -1.749033428836714421e+00 -1.763199464309152420e+00 -1.854093420629953304e+00 -1.823567214629423061e+00 -1.951543977554652809e+00 -2.198492746450923185e+00 -2.253809730487998042e+00 -2.788821389486204172e+00 -3.380223586611276865e+00 -4.263062069802564302e+00 -4.483839594310756738e+00 -4.836326211263873631e+00 -4.727085982438387290e+00 -4.472573244172697748e+00 -4.472573244172697748e+00 -4.077796223376576101e+00 -3.341386337983927479e+00 -1.852291988272218415e+00 -1.339084836559674807e+00 9.094229807798894782e-01 1.064789791882256420e+00 1.326426299151292953e+00 1.387600277792011783e+00 1.489375991811877409e+00 1.667571368819818600e+00 1.969974680193217642e+00 1.969974680193217642e+00 2.326181638171071597e+00 2.740467959366723161e+00 2.940674006295437071e+00 3.067641278387080117e+00 3.428898451707299344e+00 3.629008470033957767e+00 3.930768242143548363e+00 3.994977765932896219e+00 4.037503451219041750e+00 4.050120236961275211e+00 3.921564835990287268e+00 3.921564835990287268e+00 3.745413909726567958e+00 3.623249269165636832e+00 3.623249269165636832e+00 3.437331766335644634e+00 3.271921278961572810e+00 3.250689652568314436e+00 3.211018975872339976e+00 3.258086167618045259e+00 3.270400320344561962e+00 3.299517808202760971e+00 3.308918965595664119e+00 3.317051797918566525e+00 3.225838186043552547e+00 3.192349053302435458e+00 3.192349053302435458e+00 3.281792259882668983e+00 3.218799914925937422e+00 3.158291002543920367e+00 3.167836598213632282e+00 3.102241038400408879e+00 3.068351655605083828e+00 2.983796865183844460e+00 2.617400495706486030e+00 2.386783732320801210e+00 1.556112931091375273e+00 9.201797668211747494e-01 9.201797668211747494e-01 5.478480291112853839e-01 2.202936614714027797e-01 4.832005197865962137e-02 -3.948393640199104326e-01 -1.064949767009957027e+00 -1.326118617080557671e+00 -1.985638456052797984e+00 -2.171689176343965411e+00 -2.040404606440966884e+00 -1.506211282434817944e+00 -1.151925160900162837e+00 -1.151925160900162837e+00 -1.206870006663254946e+00 -1.369709328797486636e+00 -1.369709328797486636e+00 -1.716941796107679163e+00
8.905251927215230623e+00 7.437345778658302820e+00 6.774284955545347486e+00 6.574910481704848486e+00 5.924721613704543088e+00 5.053174209333681333e+00 4.491329969765610386e+00 4.428142204507834023e+00 4.420653934619784842e+00 4.054651456900208117e+00 3.609309079619309912e+00 3.609309079619309912e+00 3.185106891797301998e+00 2.950233156766437936e+00 2.950233156766437936e+00 2.751423611313387863e+00 2.467462047665130775e+00 2.324732802376388463e+00 2.000500736355278253e+00 1.611211163850671202e+00 1.328837038005097337e+00 1.260056096844836215e+00 1.250581488739487490e+00 1.207569438749214852e+00 9.182495986902510232e-01 4.536681669071850331e-01 4.536681669071850331e-01 -3.058298843077904006e-01 -1.406509443735719511e+00 -1.498755150898674060e+00 -1.684732395894749546e+00 -1.685789688284077048e+00 -1.700159618142414564e+00 -1.811632239656494558e+00 -1.661707564178810603e+00 -1.722991112506121691e+00 -1.802924766294937253e+00 -1.871163407264542666e+00 -1.871163407264542666e+00 -2.082246380374582095e+00 -2.426880239809559914e+00 -2.788821389486204172e+00 -3.229433368937666415e+00 -4.097746316212191431e+00 -4.483839594310756738e+00 -4.722585342474681980e+00 -4.677008703229532216e+00 -4.622880613652732507e+00 -4.449742645464224822e+00 -3.838145716287788556e+00 -3.838145716287788556e+00 -2.979846087585703795e+00 -4.225262807417568545e-01 -4.225262807417568545e-01 1.011687705114213021e+00 1.270662972487961007e+00 1.387600277792011783e+00 1.442016218824897944e+00 1.617651852314553107e+00 1.757749089663923181e+00 2.133130574802342139e+00 2.274695513038694550e+00 2.484095519349099224e+00 2.854722954596404350e+00 3.189257151881173424e+00 3.189257151881173424e+00 3.592754932976460314e+00 3.877522958326746760e+00 3.994977765932896219e+00 4.054630974328664372e+00 3.995122589468445451e+00 3.992326610252976415e+00 3.833912664037747220e+00 3.705399245410686326e+00 3.652354105687284136e+00 3.558346417735904321e+00 3.358351476622492005e+00 3.358351476622492005e+00 3.250328015871581488e+00 3.257922560097513909e+00 3.258086167618045259e+00 3.244090230080433734e+00 3.287597268012961926e+00 3.308918965595664119e+00 3.260792624468370704e+00 3.192634636843430851e+00 3.210922852282082740e+00 3.232102937182513624e+00 3.316946508670861160e+00 3.272735344590710138e+00 3.219476544546827856e+00 3.161068775425281085e+00 3.161068775425281085e+00 3.087158879832369252e+00 2.812849966558903070e+00 2.617400495706486030e+00 2.164986414173426521e+00 1.440962235340655262e+00 1.148917385428835924e+00 6.909343986872291676e-01 4.529503702582589608e-01 3.249788046884228843e-01 -1.877819519099260537e-01 -8.058017772000604095e-01 -8.058017772000604095e-01 -1.455463382377744974e+00 -2.095585763699869375e+00 -2.171689176343965411e+00 -2.332336616801200968e+00 -1.465143382467797295e+00 -1.251072079868842390e+00 -1.176413937890038230e+00 -1.254862846316805891e+00 -1.291771847819826791e+00 -1.493759622954940802e+00 -1.847821434811184105e+00
7.891515222570744115e+00 7.891515222570744115e+00 6.855967781747213330e+00 6.188402285683062054e+00 6.188402285683062054e+00 5.135479578635455233e+00 4.506285287859632227e+00 4.428142204507834023e+00 4.411889705938019546e+00 4.083018380841402006e+00 3.807718466485313868e+00 3.429527551157470544e+00 3.344859047820513354e+00 3.160514420553809600e+00 2.920543752673863125e+00 2.624326178787661057e+00 2.624326178787661057e+00 2.306240120223945755e+00 1.873576990620990701e+00 1.611211163850671202e+00 1.427022125597961377e+00 1.293422862983088395e+00 1.250581488739487490e+00 1.118190397324228424e+00 9.048255500352424541e-01 7.048847514012651638e-01 1.865340042008518384e-01 -2.532127092379935496e-01 -9.445445069417586215e-01 -1.735527021272904591e+00 -1.640887769642952687e+00 -1.640887769642952687e+00 -1.638414034016636878e+00 -1.631902761444582239e+00 -1.661707564178810603e+00 -1.614266715575567002e+00 -1.770329624180228212e+00 -1.825702188519509273e+00 -1.961501544100274330e+00 -2.095572881788296815e+00 -2.195865944826918437e+00 -2.699604867276498954e+00 -3.632793427596783253e+00 -3.632793427596783253e+00 -4.264802172793898727e+00 -4.594066616627682897e+00 -4.677008703229532216e+00 -4.710925549446160154e+00 -4.673955729242183388e+00 -4.341524224433362278e+00 -3.590292623205257883e+00 -3.370111933448058927e+00 -2.240149133820172445e+00 4.641908690523653958e-01 1.111931507286340715e+00 1.111931507286340715e+00 1.334642520519526476e+00 1.490442883633869675e+00 1.617651852314553107e+00 1.759311148526309099e+00 2.084155545579064572e+00 2.274695513038694550e+00 2.406533628183492812e+00 2.767663123465193831e+00 2.991329290275336561e+00 3.392644914649801446e+00 3.561022586798588296e+00 3.704449155953849271e+00 3.998886867998064254e+00 4.015090253909463058e+00 4.015090253909463058e+00 3.958087420061954909e+00 3.818420336651909608e+00 3.705399245410686326e+00 3.610484887048928115e+00 3.533512578252786529e+00 3.466355488853568811e+00 3.282985642148552152e+00 3.246909957922187839e+00 3.209226330296954366e+00 3.225750965629249567e+00 3.277571980591023948e+00 3.277571980591023948e+00 3.217408747821160375e+00 3.172631352273197702e+00 3.192634636843430851e+00 3.212710623827466527e+00 3.263493885552750218e+00 3.316946508670861160e+00 3.266986954204354809e+00 3.175840106311035083e+00 3.219893911768892281e+00 3.146309494273643814e+00 3.065584998777509007e+00 3.065584998777509007e+00 2.565808898777471203e+00 1.711812036065085252e+00 1.440962235340655262e+00 9.657497396378320609e-01 6.021475148593988802e-01 4.529503702582589608e-01 2.015991604451120023e-01 -4.557211198122899654e-01 -9.958134691618818479e-01 -1.224780730805426376e+00 -1.631359159483090071e+00 -2.152846269289283132e+00 -2.231883677681823386e+00 -2.229927713754132235e+00 -1.736015337850740359e+00 -1.215485923947417612e+00 -1.239293906002370438e+00 -1.334191787287687392e+00 -1.334191787287687392e+00 -1.529010746936954268e+00 -1.870965563649326979e+00
8.006724859009878514e+00 8.006724859009878514e+00 6.937650607950006432e+00 6.642367993320451802e+00 6.007026983006316989e+00 5.217784947937186502e+00 4.671446965797457551e+00 4.495287622850318243e+00 4.337610116805712401e+00 4.337610116805712401e+00 3.798962400528876238e+00 3.465690297836116152e+00 3.344859047820513354e+00 3.229207771733663357e+00 3.024129958960930953e+00 2.824228068874296227e+00 2.550390212557276826e+00 2.422999685901314759e+00 2.173175111712565055e+00 1.723078285093488482e+00 1.338819991779216956e+00 1.338819991779216956e+00 1.283948254877739448e+00 1.104766348669219855e+00 9.048255500352424541e-01 7.411096708615920736e-01 2.691684177844771986e-01 -2.532127092379935496e-01 -1.583259129575727009e+00 -1.431775915353000972e+00 -1.621885931606691145e+00 -1.665512571720146218e+00 -1.578655009885594263e+00 -1.578655009885594263e+00 -1.574284937218953573e+00 -1.671004979443433403e+00 -1.770329624180228212e+00 -1.825915400739715588e+00 -1.976087711339916897e+00 -2.095572881788296815e+00 -2.125280939679258463e+00 -2.624298028431715224e+00 -3.123510374151609703e+00 -3.924263707606924001e+00 -4.199872603028972584e+00 -4.457892655748919353e+00 -4.677132203005508693e+00 -4.811810793037443190e+00 -4.811810793037443190e+00 -4.605252225490150231e+00 -3.883136684786526516e+00 -3.370111933448058927e+00 -2.960615844567988209e+00 9.751323041501350208e-02 9.596691505897955166e-01 1.214899645824629060e+00 1.283504034227061608e+00 1.379979824908501573e+00 1.611115497794822771e+00 1.913177271942905433e+00 1.913177271942905433e+00 2.231339249650115875e+00 2.532949091848418544e+00 2.767663123465193831e+00 2.895013647799341339e+00 3.355901264060832556e+00 3.561022586798588296e+00 3.900495747484769016e+00 3.986307953830269923e+00 4.020026814783866698e+00 3.960883399277423500e+00 3.882821038434407512e+00 3.793639853693508091e+00 3.692514695219510035e+00 3.453595829804258610e+00 3.490874431101809616e+00 3.495379211371492545e+00 3.293439742950267313e+00 3.219052189190539703e+00 3.219052189190539703e+00 3.193415763640452987e+00 3.261199153335401224e+00 3.264085779894847050e+00 3.137968276460620931e+00 3.279467856441896423e+00 3.177403224987885189e+00 3.231325030347513838e+00 3.243968480066119486e+00 3.352341158898543227e+00 3.211271175447198090e+00 3.135621231225174999e+00 3.135621231225174999e+00 3.103369788180898148e+00 3.090750285887959858e+00 2.988864100819958569e+00 2.553565601253788842e+00 1.505635951077194390e+00 1.219759052240472874e+00 7.535522703442635306e-01 5.173466784896265658e-01 3.194838994323718206e-01 -1.777324810822431544e-01 -9.473279439900181842e-01 -9.473279439900181842e-01 -1.413888162106714308e+00 -2.035429805902723821e+00 -2.152846269289283132e+00 -2.292726532431485609e+00 -2.485490197605198848e+00 -1.736015337850740359e+00 -1.365825327499166519e+00 -1.365632975428349605e+00 -1.334012967541685857e+00 -1.548753902976850672e+00 -1.681697063067038034e+00 -1.722571483741988985e+00
8.006724859009878514e+00 7.635005644070685271e+00 6.937650607950006432e+00 6.709825504935826856e+00 6.089332352308048257e+00 5.217784947937186502e+00 4.521240605953653180e+00 4.386391290227298789e+00 4.410215041454258689e+00 4.092603765451762854e+00 3.693965607449940514e+00 3.693965607449940514e+00 3.408943671058840330e+00 3.143732078592517354e+00 3.143732078592517354e+00 2.953670422090033387e+00 2.560846513375374833e+00 2.422999685901314759e+00 2.183730330198062397e+00 1.882604489677420334e+00 1.550853421709237567e+00 1.340040685239228369e+00 1.329612581412316308e+00 1.246187136085591174e+00 9.541924202191780502e-01 6.280380938583278727e-01 6.280380938583278727e-01 1.338705617546906146e-01 -4.160279977584852018e-01 -1.431775915353000972e+00 -1.090821559102383542e+00 -1.339310224240007230e+00 -1.508186736381584847e+00 -1.517759129198831491e+00 -1.549977975139362751e+00 -1.646432962982552706e+00 -1.820127814760658769e+00 -1.978983372112170791e+00 -1.978983372112170791e+00 -2.105091343691598560e+00 -2.208640345285069806e+00 -3.001551528854298212e+00 -3.001551528854298212e+00 -3.738162844132650875e+00 -4.494960200212300805e+00 -4.643415734180546650e+00 -4.806287742052186118e+00 -4.869596037830922874e+00 -4.799470709193529139e+00 -4.649711248821866150e+00 -4.228372680239908199e+00 -4.037958790023800759e+00 -2.649343823746232118e+00 -5.502336152458668916e-01 7.610550640037150316e-01 1.112869601810068998e+00 1.343142642352193938e+00 1.343142642352193938e+00 1.550801420816877219e+00 1.845958600852155573e+00 2.046704239830484440e+00 2.139988012689966190e+00 2.469284669294356860e+00 2.677218146383064656e+00 3.087779740480066870e+00 3.282599158916266635e+00 3.509439697480732701e+00 3.841501847416395776e+00 3.946645869950174745e+00 3.946645869950174745e+00 3.933778899732697454e+00 3.851635557848775981e+00 3.793639853693508091e+00 3.593871439929190004e+00 3.411069119565786512e+00 3.490874431101809616e+00 3.351439518317355315e+00 3.185356347001180310e+00 3.226972578246132262e+00 3.215284559319380620e+00 3.213063533681495887e+00 3.213063533681495887e+00 3.256228170068578009e+00 3.207021403827340134e+00 3.279467856441896423e+00 3.202762990951417255e+00 3.201445850543446436e+00 3.243968480066119486e+00 3.275125661215816386e+00 3.258682147508154436e+00 3.158886148356748080e+00 3.139126565930594470e+00 3.181982077514565965e+00 3.141273357378919773e+00 2.677515834197386368e+00 1.831018115092042597e+00 1.831018115092042597e+00 1.064341837972450522e+00 5.996180201453746861e-01 5.173466784896265658e-01 2.555674619349087018e-01 -2.785099678589867400e-01 -6.532436450728850152e-01 -1.380874503328654468e+00 -1.593329829536648923e+00 -1.770410658671718096e+00 -2.215753315882309948e+00 -2.436170479966206504e+00 -2.436170479966206504e+00 -1.976355298122594251e+00 -1.374572365269052687e+00 -1.365632975428349605e+00 -1.457004453014764778e+00 -1.552585041512362984e+00 -1.681697063067038034e+00 -2.011067351062197694e+00
8.121934495449004032e+00 8.121934495449004032e+00 7.019333434152340345e+00 6.239627456873620304e+00 6.239627456873620304e+00 5.300090317238960402e+00 4.536195924047674133e+00 4.386391290227298789e+00 4.408540376970497832e+00 4.119493656768721479e+00 3.759090044662294794e+00 3.534626839740167892e+00 3.431303411834867312e+00 3.153936898437852854e+00 3.056723273970316956e+00 2.714116853387405826e+00 2.534099503808177278e+00 2.361052140762952778e+00 2.089249870378568907e+00 1.701433909860906146e+00 1.701433909860906146e+00 1.438565809731872758e+00 1.280878707414883966e+00 1.123681162486197760e+00 9.948616831685772599e-01 6.381917400871830459e-01 4.354530132946113907e-01 2.974817611509348314e-01 7.542142302372298324e-02 -3.742559300009835610e-01 -8.655116749801528009e-01 -7.855375210296290378e-01 -1.148563806569945722e+00 -1.464329864336904929e+00 -1.674595894241204919e+00 -1.674595894241204919e+00 -1.875118948997869017e+00 -2.010752371073173617e+00 -2.031340090336593462e+00 -2.088736952010498360e+00 -2.201955317248767585e+00 -2.426476000568076330e+00 -3.380432465196521186e+00 -3.759841701936180058e+00 -4.222469683800689211e+00 -4.694847816019511733e+00 -4.903730089241545187e+00 -4.903730089241545187e+00 -4.779542236956618950e+00 -4.380597232317922973e+00 -4.228372680239908199e+00 -3.828438907840563843e+00 -2.542228476812377735e+00 -5.502336152458668916e-01 9.039685121529509315e-01 1.001940197072675787e+00 1.175756739110366045e+00 1.401922594936891198e+00 1.645793048227165656e+00 1.645793048227165656e+00 1.944473826586824661e+00 2.259035860248895577e+00 2.259035860248895577e+00 2.631281510920348232e+00 3.049221733809529322e+00 3.282599158916266635e+00 3.440112649580560511e+00 3.719874108841233262e+00 3.876250906374423710e+00 3.904488527944300014e+00 3.848655615484824821e+00 3.862661092847253563e+00 3.646093296894452607e+00 3.475863422892034649e+00 3.475863422892034649e+00 3.355776699212642544e+00 3.225917622727210166e+00 3.185356347001180310e+00 3.191022467802373974e+00 3.218859529001243835e+00 3.210566551754047371e+00 3.258211024373669051e+00 3.252320451685095204e+00 3.194079194809479993e+00 3.323554026239725179e+00 3.194706490334812798e+00 3.194706490334812798e+00 3.200657136694399441e+00 3.278573066063893648e+00 3.258682147508154436e+00 3.181767347069434315e+00 3.192563003640868757e+00 3.181982077514565965e+00 2.874399632077780709e+00 2.490702559822064899e+00 2.132683885687832959e+00 1.272074103811680734e+00 7.883905874925577484e-01 7.883905874925577484e-01 4.250558460088653678e-01 -3.706568325427375687e-02 -3.706568325427375687e-02 -7.314588846057208382e-01 -1.433256176425376616e+00 -1.593329829536648923e+00 -1.852991125290084806e+00 -2.276114963280703840e+00 -2.360354525849770457e+00 -2.507312179430253529e+00 -2.132913801224990191e+00 -1.846352408277883494e+00 -1.485521710229933401e+00 -1.543389687683150324e+00 -1.543389687683150324e+00 -1.702818354296592451e+00 -1.952580286664575837e+00
8.237144131888129550e+00 8.237144131888129550e+00 7.094869718323847607e+00 6.306355820468925621e+00 6.171637721609822158e+00 5.382395686540734303e+00 4.551151242141694198e+00 4.394050469275865289e+00 4.424129469542412707e+00 4.152015257817502913e+00 3.967801746789045403e+00 3.634738256809606938e+00 3.298073576593122169e+00 3.298073576593122169e+00 2.943958971868412267e+00 2.711455035319533025e+00 2.534099503808177278e+00 2.523695929619119926e+00 2.135126511818793649e+00 1.909738046412287948e+00 1.548061787087267493e+00 1.455658416522235932e+00 1.347103131506050211e+00 1.177950828152529050e+00 8.356164355591839676e-01 8.356164355591839676e-01 4.858230837876131858e-01 2.281824842964718658e-01 7.542142302372298324e-02 -7.378306467574924365e-03 -4.300681734165606729e-01 -7.855375210296290378e-01 -1.329177166189958736e+00 -1.424627491964271409e+00 -1.548699554425256419e+00 -1.817240454825637563e+00 -1.930110083235079488e+00 -2.000765507458173165e+00 -2.029811446913310835e+00 -2.129645766290314768e+00 -2.129645766290314768e+00 -2.427704564867683157e+00 -3.426462088051132504e+00 -3.759841701936180058e+00 -4.233048819886216840e+00 -4.746279897858476815e+00 -4.865858184277375820e+00 -4.882930486564153405e+00 -4.787497790786403584e+00 -4.526031259461853473e+00 -4.182281777206345197e+00 -3.441780077597995646e+00 -3.441780077597995646e+00 -1.043594567476345158e+00 9.189576519366637886e-01 1.001940197072675787e+00 1.113232365328442386e+00 1.344100498403622002e+00 1.493483344828971937e+00 1.742345423745383703e+00 1.813368489254094662e+00 2.065350089522210997e+00 2.402331687283773221e+00 2.827387516005167356e+00 2.827387516005167356e+00 3.206830283380461388e+00 3.563084366011148418e+00 3.719874108841233262e+00 3.760056419583622134e+00 3.836314451880217469e+00 3.848655615484824821e+00 3.705553315390933911e+00 3.563328266937688227e+00 3.523486070462475084e+00 3.373336652930099433e+00 3.209891167873347939e+00 3.222759439748029475e+00 3.111698180897846111e+00 3.195132508110650527e+00 3.195132508110650527e+00 3.230678918171159264e+00 3.259124538837655294e+00 3.252320451685095204e+00 3.256076493470999367e+00 3.364319229986446835e+00 3.193804685668719667e+00 3.178617341155046017e+00 3.204287289729698340e+00 3.231175130831791087e+00 3.228860512094619661e+00 3.178169540261902348e+00 3.178169540261902348e+00 3.188194488274381566e+00 2.803043091165873690e+00 2.490702559822064899e+00 2.054560217281419465e+00 1.095668730001870816e+00 9.157530951523349394e-01 5.300439694004055458e-01 3.784510373032279884e-01 1.698934477729947545e-01 -3.736952386011413441e-01 -1.189370644202043081e+00 -1.189370644202043081e+00 -1.677053171677404197e+00 -2.112543910025510563e+00 -2.276114963280703840e+00 -2.427982519268055306e+00 -2.518673669183978170e+00 -2.132913801224990191e+00 -2.296881721956041122e+00 -1.830482522615179519e+00 -1.648109169062947688e+00 -1.693501816900202961e+00 -1.708679067502885784e+00 -1.898780332774235635e+00
8.352353768327255068e+00 7.832665509483290656e+00 6.843080436026001578e+00 6.843080436026001578e+00 6.253943090911596059e+00 4.694212405867450144e+00 4.551151242141694198e+00 4.401709648324432678e+00 4.497038092656089781e+00 4.152015257817502913e+00 3.831348684186036913e+00 3.665795444650600032e+00 3.477618621894738915e+00 3.080477279381376832e+00 3.012440484065839641e+00 2.858769342724473361e+00 2.695401216233733521e+00 2.360863887427975261e+00 2.360863887427975261e+00 1.977982828941935001e+00 1.576892804638682311e+00 1.455658416522235932e+00 1.364593681599784336e+00 1.235195434971751327e+00 1.041468115465918221e+00 6.646889282459514936e-01 5.620942618675508484e-01 4.134911169108218543e-01 1.718054543892264807e-01 -1.150029754311830965e-01 -1.150029754311830965e-01 -6.857928539334476881e-01 -1.145459873745806156e+00 -1.424627491964271409e+00 -1.564136987645028842e+00 -1.855889365081078823e+00 -1.930110083235079488e+00 -2.084295602213530163e+00 -2.083028988861935105e+00 -2.075548501609203456e+00 -2.197553613649835924e+00 -2.896795904507949437e+00 -2.896795904507949437e+00 -3.765313065987418106e+00 -4.559055430973630862e+00 -4.746279897858476815e+00 -4.927533771745733482e+00 -4.896264935297383936e+00 -4.787497790786403584e+00 -4.626079431251126195e+00 -4.033737848668277337e+00 -3.820822830660711045e+00 -2.913177154527369250e+00 -1.177353313706271276e+00 5.404150906183513570e-01 1.037095309934481513e+00 1.224524533584208763e+00 1.224524533584208763e+00 1.423937794926262601e+00 1.589530941103831641e+00 1.813368489254094662e+00 1.881157631036822986e+00 2.323990106939347378e+00 2.591523720563813526e+00 3.011331520870433209e+00 3.136923380856746046e+00 3.374008322542940697e+00 3.597568090831400056e+00 3.732847173075620972e+00 3.732847173075620972e+00 3.784050917506945666e+00 3.586027800200118687e+00 3.563328266937688227e+00 3.463968691748142259e+00 3.294275804812490716e+00 3.209891167873347939e+00 3.100395727137065016e+00 3.097980301030547334e+00 3.155072357358615243e+00 3.219996275056484780e+00 3.254195458870823288e+00 3.243450104311785154e+00 3.248348516618641657e+00 3.268288882103334902e+00 3.235584256849349138e+00 3.235584256849349138e+00 3.155170829630999041e+00 3.199510432584350639e+00 3.199510432584350639e+00 3.241224081383313305e+00 3.196275774100752365e+00 3.194128558767400872e+00 3.206346971246274435e+00 3.188406334225386551e+00 2.593034597693248067e+00 1.391832040168982321e+00 8.920518435487043707e-01 7.170152715677268196e-01 4.984740873253323823e-01 1.894968882076603356e-01 1.894968882076603356e-01 -4.487481169698908090e-01 -1.232702513046999071e+00 -1.465109402607393640e+00 -1.692006158653599046e+00 -2.095586304869378136e+00 -2.336476610679096844e+00 -2.513471338685945078e+00 -2.569629083041014006e+00 -2.546051050786102721e+00 -2.437694692697571774e+00 -2.055461733132197377e+00 -2.055461733132197377e+00 -1.624402524956408911e+00 -1.830999893842371273e+00 -1.898780332774235635e+00
8.352353768327255068e+00 7.931495442189262945e+00 7.168054356107811387e+00 6.373084184063769086e+00 6.336248460213384170e+00 5.464701055842494881e+00 4.566106560235713374e+00 4.405191048002976117e+00 4.405191048002976117e+00 4.184536858866290565e+00 3.859598065359970409e+00 3.665795444650600032e+00 3.472050968605092436e+00 3.127825775116408025e+00 3.012440484065839641e+00 2.870872731897258667e+00 2.818527709610703980e+00 2.690626547689206394e+00 2.210021246319878951e+00 1.811816224253190555e+00 1.811816224253190555e+00 1.300848110661593005e+00 1.277167004142854445e+00 1.235195434971751327e+00 1.090482846300685260e+00 7.295305474733666529e-01 5.620942618675508484e-01 3.986907049612406495e-01 2.247761891282039903e-01 7.102146928746047583e-02 -2.759878511075211649e-01 -8.823013975316031932e-01 -1.090603889132762294e+00 -1.404119434471455818e+00 -1.721737885639382792e+00 -1.721737885639382792e+00 -1.936795127898544688e+00 -2.123060520035135568e+00 -2.083028988861935105e+00 -2.044725773762936072e+00 -2.182730060362191082e+00 -2.423201490863494456e+00 -3.366920617810649663e+00 -3.714851353666595024e+00 -4.223199805135450013e+00 -4.799593441236670088e+00 -4.898781193696114755e+00 -4.898781193696114755e+00 -4.802164579234601938e+00 -4.252052658343030700e+00 -3.883849747886768178e+00 -3.883849747886768178e+00 -2.988056078019240669e+00 -3.659590187606235334e-01 9.056536747289130052e-01 9.118086836679498708e-01 1.126766581814903745e+00 1.262720504531492205e+00 1.481753311879707047e+00 1.563538255173975600e+00 1.663162256960932561e+00 2.091540085732277010e+00 2.269225394929365702e+00 2.524850038526349927e+00 2.914217963608285444e+00 3.252474953449914885e+00 3.252474953449914885e+00 3.461811301212800451e+00 3.573456058419191894e+00 3.716698776010718408e+00 3.613236482851757359e+00 3.453307374437152522e+00 3.469759313655373933e+00 3.351401895742330161e+00 3.274894045756844729e+00 3.189555513194699543e+00 3.144896295354261184e+00 3.191452735982028166e+00 3.191452735982028166e+00 3.250064028440978081e+00 3.258371448971368878e+00 3.243450104311785154e+00 3.256480902983020620e+00 3.264420655246405012e+00 3.167328411090818641e+00 3.175310189341140177e+00 3.134118100814020647e+00 3.185127582714187611e+00 3.213103564350390684e+00 3.226337251426071084e+00 3.226337251426071084e+00 3.217730464123431222e+00 3.251968739178483503e+00 3.188406334225386551e+00 2.109470268735898379e+00 1.221530792461661630e+00 8.920518435487043707e-01 6.937033838398322105e-01 5.031881655806528242e-01 3.758921180931282247e-01 -1.523796378558905928e-01 -5.520606887914643046e-01 -8.738461459415636234e-01 -1.462677501152142012e+00 -1.880972993109399249e+00 -1.880972993109399249e+00 -2.287108566908583107e+00 -2.532849693463353091e+00 -2.569629083041014006e+00 -2.631848393925155349e+00 -2.556082060086595220e+00 -2.450008718850460010e+00 -1.985276811914872042e+00 -2.009869977888540049e+00 -1.755799203811514886e+00 -1.971060890127594556e+00
8.467563404766380586e+00 8.467563404766380586e+00 7.241238993891775166e+00 6.439812547658842590e+00 6.336248460213384170e+00 5.547006425144296315e+00 4.581061878329734327e+00 4.415900200391909891e+00 4.499118793670270122e+00 4.217058459915064006e+00 4.097390593291454941e+00 3.711049013502878857e+00 3.414814205805861480e+00 3.414814205805861480e+00 3.166593824906848820e+00 2.951309362793572255e+00 2.818527709610703980e+00 2.504056604792461282e+00 2.311612576183996737e+00 1.927727322090416084e+00 1.653860977635941865e+00 1.404275444369692760e+00 1.249352648651867126e+00 1.226438624709581315e+00 9.266555604682571445e-01 8.136121669531550804e-01 6.073048921759469643e-01 3.395469537748423972e-01 1.308432053689888297e-01 1.308432053689888297e-01 -5.032547819685021517e-01 -1.374915937262048082e+00 -1.398642739720652006e+00 -1.659487986767157253e+00 -1.689414432049826775e+00 -1.850400908822198653e+00 -1.972474246721310553e+00 -2.164234856658568518e+00 -2.115270019007416291e+00 -2.010239437182514077e+00 -2.169102414157532355e+00 -2.345844511328423643e+00 -3.253316791659980112e+00 -4.096837324931347446e+00 -4.096837324931347446e+00 -4.803801437120946538e+00 -4.974694183292041494e+00 -4.914147275393688119e+00 -4.786115784434737286e+00 -4.387099572659320046e+00 -4.094729291699453100e+00 -3.558569110428812188e+00 -3.020935459302920290e+00 -2.602437358557426084e+00 -5.072393774831516211e-01 9.787703053488137073e-01 9.787703053488137073e-01 1.180386795127992050e+00 1.398614265514723121e+00 1.563538255173975600e+00 1.643599339548019955e+00 2.043810394604739233e+00 2.269225394929365702e+00 2.696147987908115606e+00 2.806707307734559009e+00 3.020339128104895021e+00 3.286353681798773962e+00 3.523420853854821733e+00 3.523420853854821733e+00 3.528197678364428214e+00 3.449864552020359909e+00 3.453307374437152522e+00 3.341157153264429081e+00 3.287515197514021104e+00 3.274894045756844729e+00 3.206047679456812460e+00 3.152861258461141070e+00 3.182507753013139151e+00 3.209543810616416692e+00 3.244907156952964833e+00 3.254652108900498497e+00 3.250126330475743952e+00 3.264288612032975934e+00 3.264288612032975934e+00 3.254909210188942303e+00 3.181942259238102366e+00 3.134118100814020647e+00 3.151006359993456130e+00 3.201341733189446259e+00 3.221234776481407103e+00 3.209940688133005260e+00 3.218365288118308243e+00 3.218175928162175126e+00 2.673275258641706564e+00 1.551009741374619111e+00 1.551009741374619111e+00 7.529596465827887997e-01 5.786205044356573790e-01 5.031881655806528242e-01 3.885107544687502745e-01 -2.323143757397338471e-01 -5.520606887914643046e-01 -1.191406909664325608e+00 -1.463735171427483994e+00 -1.713268995811864315e+00 -2.009514067131824788e+00 -2.355128761399263304e+00 -2.355128761399263304e+00 -2.595283039904371591e+00 -2.638106867254581989e+00 -2.638106867254581989e+00 -2.627722481499775498e+00 -2.275966177656008949e+00 -2.009869977888540049e+00 -2.206965658814434850e+00 -2.023963367980087025e+00
8.582773041205619791e+00 7.964815766112732121e+00 6.974409651380554465e+00 6.506540911253916093e+00 6.418553829515158071e+00 4.757764390075208460e+00 4.430855518485930844e+00 4.430855518485930844e+00 4.481808506860585517e+00 4.188272799135003943e+00 3.914810090146248811e+00 3.743599233878005084e+00 3.504240158647950576e+00 3.337382623761049771e+00 3.211444556056271438e+00 2.956282688525064373e+00 2.710899616815129143e+00 2.431710893114359617e+00 2.412732359256900327e+00 2.248428346998052607e+00 1.725021880133947860e+00 1.272266672594153158e+00 1.272266672594153158e+00 1.213700554750917426e+00 9.985514198485831994e-01 8.136121669531550804e-01 6.914119567917154097e-01 3.899020820967434853e-01 2.685505151322076789e-01 -8.801285074443829237e-02 -5.231643254964157830e-01 -9.958693216989471519e-01 -1.719636875958021616e+00 -1.640037946487585163e+00 -1.640037946487585163e+00 -1.890068428667315725e+00 -2.160637125911699652e+00 -2.164234856658568518e+00 -2.207174599635771894e+00 -2.041506628870534357e+00 -2.169102414157532355e+00 -2.693011038313010808e+00 -3.178978282960342128e+00 -3.680353571115308142e+00 -4.420986986909682948e+00 -4.862552552472019229e+00 -4.862552552472019229e+00 -4.948830828527776227e+00 -4.725040034621862617e+00 -4.725040034621862617e+00 -4.191843738492807780e+00 -3.434093682663213798e+00 -3.020935459302920290e+00 -2.727216603669415207e+00 -2.040145023421447323e+00 -1.076837965444883416e-01 1.026486374797579426e+00 1.078762675498646573e+00 1.235643510714048876e+00 1.508080023009584103e+00 1.820852098939647945e+00 1.820852098939647945e+00 2.223176846993454525e+00 2.601425089499881604e+00 2.806707307734559009e+00 2.900149654500217444e+00 3.139506767747982430e+00 3.325446461012538713e+00 3.412174341351504214e+00 3.339750540657313138e+00 3.442361314253802096e+00 3.317534887273749789e+00 3.262942131537290180e+00 3.262942131537290180e+00 3.247834491027599135e+00 3.170375862276416434e+00 3.152861258461141070e+00 3.237728274488349101e+00 3.247818410071757977e+00 3.244907156952964833e+00 3.254579143269936470e+00 3.247148016889788380e+00 3.242568371432493102e+00 3.253856589326318272e+00 3.232266588495584791e+00 3.258042045966781597e+00 3.144391893290177098e+00 3.149620907721948804e+00 3.149620907721948804e+00 3.204755434480711873e+00 3.181903310299849519e+00 3.218365288118308243e+00 3.203829013581485530e+00 2.158283464550201369e+00 1.850590139466592676e+00 1.003589486519363971e+00 6.344209960468135678e-01 6.375935338512486172e-01 4.536858833480813535e-01 7.076572121083762879e-02 7.076572121083762879e-02 -6.031861025312110769e-01 -1.256051585530305603e+00 -1.463735171427483994e+00 -1.716284809477160778e+00 -1.974903883929379322e+00 -2.187034171830090301e+00 -2.455573182629789741e+00 -2.518006529070807797e+00 -2.657716386345389203e+00 -2.709747288667762266e+00 -2.638072035741324317e+00 -2.638072035741324317e+00 -2.446519749473555994e+00 -2.296593371728823829e+00 -2.023963367980087025e+00
8.582773041205619791e+00 7.987485529414872332e+00 7.018410925092445574e+00 6.506540911253916093e+00 6.500859198816931972e+00 4.840069759376969039e+00 4.596017196423755280e+00 4.388130272005626331e+00 4.466956932167896355e+00 4.249580060963851658e+00 3.970118875265514546e+00 3.634442871679988141e+00 3.634442871679988141e+00 3.373346562322728115e+00 3.062834919438128800e+00 2.956282688525064373e+00 2.855713933596574439e+00 2.506277885861704746e+00 2.412732359256900327e+00 2.085720072282733373e+00 1.924389724932620727e+00 1.528429944132047913e+00 1.236614578693203459e+00 1.201560273325036121e+00 1.146650571457896728e+00 8.977192315689235258e-01 5.669815544326861634e-01 5.669815544326861634e-01 3.077624667237915390e-01 -1.988013826216202679e-02 -5.231643254964157830e-01 -9.583158002483933569e-01 -1.530582900009184844e+00 -1.796977127777170447e+00 -1.725585711987508430e+00 -2.003840618674948892e+00 -2.079333953840714067e+00 -2.248211643049494946e+00 -2.136441492603748937e+00 -2.136441492603748937e+00 -2.099256267023175582e+00 -2.683380020965918433e+00 -3.178978282960342128e+00 -3.692350642521902593e+00 -4.506736695876846888e+00 -4.848203977014930999e+00 -5.052628949017166526e+00 -4.971233435238133325e+00 -4.861379422350094792e+00 -4.434947855928227156e+00 -3.904599130152215825e+00 -3.904599130152215825e+00 -3.215702178078797768e+00 -2.636294026431696302e+00 -2.040145023421447323e+00 -1.406905730420609624e+00 8.819592087382589485e-01 1.078762675498646573e+00 1.321709678223279116e+00 1.404443250382853670e+00 1.648533290746377000e+00 2.018271036083832737e+00 2.188860029345321756e+00 2.380621982192051345e+00 2.710639663938037014e+00 2.998625416235674024e+00 2.998625416235674024e+00 3.193417895855323430e+00 3.278510886072989461e+00 3.339750540657313138e+00 3.278057459467839330e+00 3.198439970122925580e+00 3.209554316850944389e+00 3.220074022853952833e+00 3.218426251265368077e+00 3.178947720587234294e+00 3.150562419771699485e+00 3.283254011795270877e+00 3.283254011795270877e+00 3.237535591633792453e+00 3.254369337659010153e+00 3.247148016889788380e+00 3.230959718106490186e+00 3.248315282189668363e+00 3.232266588495584791e+00 3.221709768389190209e+00 3.146670167602572121e+00 3.123435004016696936e+00 3.164970893570592470e+00 3.141468968849832955e+00 3.141468968849832955e+00 3.187126986511819027e+00 2.439667827328504845e+00 1.470674214995596474e+00 1.470674214995596474e+00 8.079878422990376396e-01 5.258900049716810354e-01 5.258900049716810354e-01 4.004705256452657514e-01 -1.296717331805767592e-02 -2.754418283204105866e-01 -5.800446225555668800e-01 -1.243241963681148476e+00 -1.486858627441538960e+00 -1.811752626704508540e+00 -2.035751326862097699e+00 -2.103444957951805083e+00 -2.406956453507500981e+00 -2.652787217143936616e+00 -2.652787217143936616e+00 -2.817268837274022886e+00 -2.857170643530706933e+00 -2.694371385899680504e+00 -2.796646192940369424e+00 -2.500570516383952668e+00 -2.223436943545417765e+00
8.697982677644745308e+00 8.010155292716785169e+00 7.387608269460163690e+00 6.573269274849222299e+00 5.711617163747829906e+00 5.711617163747829906e+00 4.610972514517777121e+00 4.356791540481715685e+00 4.466956932167896355e+00 4.282101662012625987e+00 4.064853494123531696e+00 3.813287128375232982e+00 3.501040360818085784e+00 3.368425903697264800e+00 3.220354649433545546e+00 2.980329267335105836e+00 2.691783678277594127e+00 2.691783678277594127e+00 2.443085670924665997e+00 2.200136892828026269e+00 1.924389724932620727e+00 1.718588376072158752e+00 1.315985456179108892e+00 1.201560273325036121e+00 1.070206341881261292e+00 9.706429004775205538e-01 7.732792665456925674e-01 4.627024171720589552e-01 2.051020556105604964e-01 2.051020556105604964e-01 -4.286014200788361150e-01 -1.222204856649261151e+00 -1.530582900009184844e+00 -1.498507417463758928e+00 -1.817447372646825432e+00 -2.003840618674948892e+00 -2.119838487382194714e+00 -2.275754326323845333e+00 -2.230293694578968200e+00 -2.142815056419327568e+00 -2.122860920795063056e+00 -2.348072626041396216e+00 -3.221878504982392588e+00 -4.062425836348544372e+00 -4.062425836348544372e+00 -4.759455742973258019e+00 -5.028885259241304695e+00 -4.971233435238133325e+00 -4.749488290674939606e+00 -4.310873228976618954e+00 -4.003717407150507945e+00 -3.822904242037894029e+00 -3.758447528904266477e+00 -3.117378792544979849e+00 -2.314390920175945165e+00 -3.931087216538106666e-01 -3.931087216538106666e-01 9.665023309232775306e-01 1.209200688190961159e+00 1.404443250382853670e+00 1.526114046864709861e+00 1.978618440625962815e+00 2.289953092900430143e+00 2.500294976974864358e+00 2.650985993565232235e+00 2.940494893533684095e+00 3.031523054708356923e+00 3.341777943387671534e+00 3.241855166817028788e+00 3.219795712800324949e+00 3.197886482666985053e+00 3.171944620556427896e+00 3.157559774292943100e+00 3.198862334355187631e+00 3.172112454551961669e+00 3.172112454551961669e+00 3.149799959298484886e+00 3.287644081430987519e+00 3.252446061790506437e+00 3.190026197514869821e+00 3.220630876724885461e+00 3.234019395707289135e+00 3.226902001127119668e+00 3.219495749168970189e+00 3.201876163521596208e+00 3.144201884223615018e+00 3.159302775075622627e+00 3.159302775075622627e+00 3.193263141487752144e+00 3.156407950515292882e+00 3.141832268101931724e+00 3.081341232745455461e+00 2.102365136427080561e+00 1.814536130150825155e+00 1.024453443511846196e+00 6.447421496153684650e-01 5.320524465892904065e-01 3.903472778306431579e-01 2.044880886354513150e-01 2.044880886354513150e-01 -3.560246115287873936e-01 -9.766392293353256537e-01 -1.243241963681148476e+00 -1.494853737852051223e+00 -1.801858477361365285e+00 -2.035751326862097699e+00 -2.255875571349890585e+00 -2.382324554236955549e+00 -2.521468639351549079e+00 -2.726329154402661548e+00 -2.790731015722927477e+00 -2.846586941285792260e+00 -2.931894273671600271e+00 -2.765069757416160456e+00 -2.765069757416160456e+00 -2.564661920400607364e+00
8.813192314083984513e+00 8.010155292716785169e+00 7.041682718927351203e+00 6.639997638444064876e+00 6.583164568118691662e+00 4.922375128678742051e+00 4.460766154673972750e+00 4.460766154673972750e+00 4.452105357475210745e+00 4.201400297641670889e+00 4.201400297641670889e+00 3.921990011740604576e+00 3.535074080100122806e+00 3.368425903697264800e+00 3.250715883339344803e+00 3.005007727813719498e+00 2.911453640902262219e+00 2.602840326610788679e+00 2.457547288591634072e+00 2.316327881777247910e+00 1.890075972870965071e+00 1.429305980655014574e+00 1.429305980655014574e+00 1.237210647761459059e+00 1.086951691716604662e+00 9.706429004775205538e-01 8.357881857896102273e-01 5.777868805798922480e-01 4.032685916476934085e-01 5.013583918696977448e-02 -2.974461469448855255e-01 -1.386339709612338211e+00 -1.442700385616589420e+00 -1.667850704051634381e+00 -1.892719784244682124e+00 -2.021105778817552601e+00 -2.219512072338091002e+00 -2.165854335745424297e+00 -2.165854335745424297e+00 -2.022450916275497335e+00 -2.381886991260548925e+00 -2.761780160781257543e+00 -3.226331683887811774e+00 -4.025988979598588813e+00 -4.336903625392242390e+00 -4.959746877823467237e+00 -4.872474752176390922e+00 -4.810981521425665264e+00 -4.623162852010069379e+00 -4.593293979323843423e+00 -4.405437196512737685e+00 -4.166514687227706126e+00 -3.814289357330281405e+00 -3.814289357330281405e+00 -3.038397527242477025e+00 -1.628485490888825549e+00 6.518592441660975290e-02 5.447320233636792075e-01 1.154084114276642037e+00 1.341633496799273573e+00 1.662058005843894515e+00 1.771246103747251555e+00 2.069193189972078351e+00 2.426052718144521947e+00 2.775778080251008362e+00 2.775778080251008362e+00 3.022713454669136546e+00 3.245593400457979616e+00 3.241855166817028788e+00 3.169641469461501160e+00 3.165760074983456906e+00 3.171944620556427896e+00 3.192341360439065134e+00 3.194014550876327796e+00 3.184168929323957897e+00 3.150369705591009595e+00 3.208051030672404824e+00 3.208051030672404824e+00 3.205388104026271279e+00 3.175776120614396625e+00 3.220630876724885461e+00 3.212480776759349510e+00 3.222248604568110242e+00 3.219495749168970189e+00 3.212089497210820266e+00 3.161036654993157669e+00 3.138414401125512843e+00 3.179309663370135208e+00 3.195285456371271149e+00 3.202819128952454353e+00 3.158493531186042702e+00 2.424663618162816281e+00 2.424663618162816281e+00 1.535779062998541056e+00 8.495138505986189470e-01 6.447421496153684650e-01 4.491151189059396920e-01 4.242756259820335552e-01 3.311915977650053966e-01 -2.471950132974616576e-02 -3.407203118625359295e-01 -6.870987364109649720e-01 -1.216471899706789150e+00 -1.670123161773903853e+00 -1.670123161773903853e+00 -1.996674570294829865e+00 -2.250884720808890460e+00 -2.382324554236955549e+00 -2.441656924094584014e+00 -2.675678747700620086e+00 -2.790731015722927477e+00 -2.893943459736661339e+00 -2.955963457578864251e+00 -3.021420036187722591e+00 -2.808524879718482303e+00 -2.810944331571417987e+00
