2.752683286027298060e+00 2.340038842872474767e+00 1.866337686512339777e+00 1.866337686512339777e+00 1.699117203434500567e+00 1.625878505603686408e+00 1.625602757515237196e+00 1.640612939198915710e+00 1.685291147386494881e+00 1.678581028163668609e+00 1.697056627204435841e+00 1.741187571549105639e+00 1.749825605889760993e+00 1.754427537234277024e+00 1.708401234921670842e+00 1.708401234921670842e+00 1.628250150965640408e+00 1.524061377845734588e+00 1.506062117688664159e+00 1.492321643140411824e+00 1.640470554374079626e+00 1.759159717246854271e+00 1.394145829547732696e+00 9.896953198550280106e-01 3.309142555786234730e-01 1.062436713378052400e-02 2.051729114490860595e-01 2.051729114490860595e-01 4.588410408778674510e-02 1.394243834352875411e-01 1.793209789135208343e-01 2.035963788416939035e-01 3.168845788871928471e-01 3.713099294481508883e-01 1.222078088858223471e-01 3.455964233426934290e-02 -9.651231613030807066e-02 -5.227577061880134268e-01 -6.422945231256562693e-01 -1.065979224803742520e+00 -1.727407446245019740e+00 -2.328580455288244089e+00 -2.328580455288244089e+00 -2.704936947088449894e+00 -2.919227822808288408e+00 -3.056556754774050866e+00 -3.094465584198462516e+00 -3.231641938740630327e+00 -3.245576209228859810e+00 -3.229551332606481751e+00 -3.193731460476421091e+00 -3.089872220212164233e+00 -2.923173576473758306e+00 -2.716111374338808560e+00 -2.716111374338808560e+00 -2.523950907211662376e+00 -2.524146398531025071e+00 -2.804204266798633327e+00 -3.002035576549925366e+00 -3.769353617173219817e+00 -4.439486964318766660e+00 -5.158416002201884787e+00 -5.317382801149888927e+00 -5.937958724009444467e+00 -6.553201665346902516e+00 -7.059830414773505147e+00 -7.059830414773505147e+00 -7.375373813212252827e+00 -7.659658950974290725e+00 -7.864816126171482402e+00 -7.864816126171482402e+00 -8.029176140041748511e+00 -8.179347098237746749e+00 -8.179347098237746749e+00 -8.353721084626753779e+00 -8.492628554316960177e+00 -8.613086999824275836e+00 -8.665345277913610644e+00 -8.799899443877869487e+00 -8.867019060389072393e+00 -8.976898230072997364e+00 -8.988040940651774946e+00 -9.078848157334224567e+00 -9.149118830393881296e+00 -9.261106146176386389e+00 -9.261106146176386389e+00 -9.317409820997404779e+00 -9.400471611871459743e+00 -9.419332014917866758e+00 -9.483163339640316991e+00 -9.670084162768409541e+00 -9.699290860418386728e+00 -9.721973035847542022e+00 -9.701145219288981991e+00 -9.766992284207564268e+00 -9.841625597478632415e+00 -9.845508507336518278e+00 -9.845508507336518278e+00 -9.858750225608355677e+00 -9.848714709895800112e+00 -9.842280615965814050e+00 -9.885546711255971175e+00 -9.935638164870429279e+00 -9.936439972645933594e+00 -1.000672979247493188e+01 -1.010794227396502976e+01 -1.003487819262960379e+01 -1.013858540020775578e+01 -1.012977179418362361e+01 -1.011082794572785559e+01 -1.021516142809153926e+01 -1.034034178310825247e+01 -1.034034178310825247e+01 -1.032125968699271823e+01 -1.030302975366765850e+01 -1.030620852550169353e+01
2.575380940840749311e+00 2.569222300957551219e+00 2.219284421934539786e+00 1.761924093780495859e+00 1.663353272699892305e+00 1.663353272699892305e+00 1.625993793251383934e+00 1.661491464241047655e+00 1.685291147386494881e+00 1.703869757296689658e+00 1.746516088730293070e+00 1.741187571549105639e+00 1.794211084978543091e+00 1.795259291288218595e+00 1.790730223874144489e+00 1.746204417537269959e+00 1.727257033030592082e+00 1.630845525117504913e+00 1.541344812015261301e+00 1.536949034926443636e+00 1.536949034926443636e+00 1.674916829642263849e+00 1.752744317294744558e+00 9.896953198550280106e-01 1.167143321776175746e+00 3.353241435235789769e-01 9.026859827790970070e-02 1.606179887360880132e-01 1.333628000478719322e-01 2.962730391853610895e-02 1.948031659232319079e-01 2.310872322551039137e-01 2.310872322551039137e-01 3.655362210105738696e-01 2.752185279604809631e-01 3.455964233426934290e-02 -6.466953406732955933e-02 -3.432902085651678981e-01 -7.692364814185688182e-01 -1.245437379716555881e+00 -1.400609872090261110e+00 -2.095085235178301364e+00 -2.433086270699519105e+00 -2.775099650995371370e+00 -2.794254372694251920e+00 -2.976919409893459711e+00 -3.190962771582782409e+00 -3.218272657467379005e+00 -3.257892308859010821e+00 -3.275856139701014413e+00 -3.146189803206409952e+00 -3.146189803206409952e+00 -2.992331973463701278e+00 -2.787249531090803867e+00 -2.628011057037834775e+00 -2.583222828373784807e+00 -2.482968333073458655e+00 -2.683193670460562341e+00 -3.202686278692421951e+00 -3.380699597081375352e+00 -3.994819880896189890e+00 -4.732216404362652895e+00 -5.546172706852683376e+00 -5.546172706852683376e+00 -6.251014162957956977e+00 -6.736246216087296901e+00 -7.095974327018442551e+00 -7.117185791612953061e+00 -7.479847714960143890e+00 -7.682021748831845187e+00 -7.910988854244337176e+00 -7.943619137394195562e+00 -8.087210909631847855e+00 -8.219784286348932767e+00 -8.382006094952238584e+00 -8.382006094952238584e+00 -8.561356961485287798e+00 -8.671413796429161991e+00 -8.799899443877869487e+00 -8.833990312086847041e+00 -8.907411645870432437e+00 -8.988040940651774946e+00 -9.080157402167069236e+00 -9.143209063897486999e+00 -9.147915610446775148e+00 -9.255360921583418943e+00 -9.294331801350704580e+00 -9.363755669923516933e+00 -9.415441550830404793e+00 -9.508488932297236573e+00 -9.508488932297236573e+00 -9.705771592332954611e+00 -9.694149000898240942e+00 -9.701145219288981991e+00 -9.695649109479976602e+00 -9.836299632800200143e+00 -9.801570149605282722e+00 -9.838510745669033497e+00 -9.867842820370700707e+00 -9.873925660345449273e+00 -9.884982885594554958e+00 -9.963316593584352177e+00 -9.963316593584352177e+00 -9.978843526267198172e+00 -1.009020840253689144e+01 -1.010794227396502976e+01 -1.011480387869068309e+01 -1.016843821323639574e+01 -1.012977179418362361e+01 -1.019300663697977782e+01 -1.025263078433890840e+01 -1.030720179784773194e+01 -1.030123892966846100e+01 -1.028592972318194931e+01 -1.028592972318194931e+01 -1.027307504498588919e+01
2.782907576290789109e+00 2.569222300957551219e+00 2.442951810945282354e+00 1.915777586431112400e+00 1.697527436990087235e+00 1.621546283557092405e+00 1.635029837265347785e+00 1.682693046491585687e+00 1.699706049359976934e+00 1.735186534568059935e+00 1.792054005830050478e+00 1.773390868021173183e+00 1.810146483243378235e+00 1.856941113858641579e+00 1.856941113858641579e+00 1.814392966164616761e+00 1.731087913726063299e+00 1.640352163625515169e+00 1.639058840098594816e+00 1.553654775997258319e+00 1.552025492707591159e+00 1.677755321459772464e+00 1.686225927422019488e+00 1.822635799451068017e+00 1.047831563639121999e+00 9.523523098810868781e-01 3.046693331056272158e-01 2.437136034808213281e-01 1.301083578811637054e-01 1.301083578811637054e-01 1.217670185944424860e-01 2.845853533946333114e-01 3.563458612548100479e-01 3.791190116522386022e-01 4.397590126829806212e-01 1.809978632163175283e-01 -1.155295062941313067e-01 -1.161761484722246690e-01 -3.768130419730534864e-01 -9.262597965977596992e-01 -1.641059838952960259e+00 -1.641059838952960259e+00 -2.246441335905730252e+00 -2.645563781032131079e+00 -2.794254372694251920e+00 -2.904346162677293730e+00 -3.181014927482111787e+00 -3.218272657467379005e+00 -3.271258266009742677e+00 -3.306398648393552353e+00 -3.278678505607288685e+00 -3.127516934315691444e+00 -2.921957022653491443e+00 -2.921957022653491443e+00 -2.712251948448462180e+00 -2.544068888490809144e+00 -2.482968333073458655e+00 -2.511784489598055004e+00 -2.819142841883845563e+00 -3.380699597081375352e+00 -3.550294210015700447e+00 -4.273533477113536705e+00 -4.898408105196310203e+00 -5.737952215916640064e+00 -5.947370616035732027e+00 -6.333585228048991489e+00 -6.818080117509149218e+00 -7.247356301799250389e+00 -7.247356301799250389e+00 -7.541075654442856546e+00 -7.783321863829174347e+00 -7.943619137394195562e+00 -7.979044599876221611e+00 -8.183037456785756447e+00 -8.276660438388804053e+00 -8.442126345375044139e+00 -8.496677248089326895e+00 -8.641850849586203864e+00 -8.796718242507369112e+00 -8.948842694792304542e+00 -8.948842694792304542e+00 -8.984608140213804717e+00 -9.068987904515667609e+00 -9.143209063897486999e+00 -9.136932052511456348e+00 -9.259353804685403588e+00 -9.294331801350704580e+00 -9.396868556969327102e+00 -9.411551086742944605e+00 -9.482498876054680892e+00 -9.634175052127586625e+00 -9.684940361271024756e+00 -9.684940361271024756e+00 -9.674024367006971659e+00 -9.772401686843656066e+00 -9.772401686843656066e+00 -9.812253615458608635e+00 -9.825638152634590838e+00 -9.867842820370700707e+00 -9.877616864738223867e+00 -9.927685155223294089e+00 -9.927326359200900896e+00 -9.979319252585758804e+00 -1.002757473384446563e+01 -1.005980450002870263e+01 -1.020483711865612975e+01 -1.017516590048166236e+01 -1.017516590048166236e+01 -1.018588498263553177e+01 -1.022006626947304930e+01 -1.025263078433890840e+01 -1.023252198165282323e+01 -1.019768354264241950e+01 -1.023216614941139468e+01 -1.025111757254297373e+01 -1.025794443063034755e+01
2.981512855524266481e+00 2.787795128824591018e+00 2.274260513548005402e+00 2.070427045357232654e+00 1.743450118545168515e+00 1.602631444840803887e+00 1.663154987682122110e+00 1.663154987682122110e+00 1.702274741336695207e+00 1.769135946748883637e+00 1.792054005830050478e+00 1.820029871913525721e+00 1.881417179862461930e+00 1.867082763676670254e+00 1.864756576846525959e+00 1.882581514791963784e+00 1.827445861032141794e+00 1.751449153993326124e+00 1.640327888147229851e+00 1.640327888147229851e+00 1.496426090377544815e+00 1.511342515656740826e+00 1.686225927422019488e+00 1.743000310936577701e+00 1.857671591182973758e+00 9.523523098810868781e-01 3.540644069137707795e-01 3.405197959694446497e-01 2.208414960079571610e-01 1.620380428559607122e-01 1.944354965863785423e-01 1.944354965863785423e-01 3.529327415334258533e-01 4.888213902739979577e-01 4.888213902739979577e-01 3.488488411892943786e-01 3.247742790829157705e-02 -1.161761484722246690e-01 -1.913868200454948432e-01 -6.090094062252494611e-01 -1.074107375984531654e+00 -1.857981458800075147e+00 -1.992066434421369436e+00 -2.404782571917809531e+00 -2.710253060244979473e+00 -3.000460520638804418e+00 -3.000460520638804418e+00 -3.209067006177414694e+00 -3.306005546403210982e+00 -3.306398648393552353e+00 -3.340995793598464658e+00 -3.201794261231160732e+00 -3.058756164617300932e+00 -2.879601911765188316e+00 -2.871127351284159079e+00 -2.642494749535906351e+00 -2.440123523548917817e+00 -2.420387350475839305e+00 -2.420387350475839305e+00 -2.992222306643186780e+00 -3.683842197538769625e+00 -4.273533477113536705e+00 -4.479594946263342869e+00 -5.326739179042080607e+00 -5.947370616035732027e+00 -6.390015226769268253e+00 -6.446387006031216949e+00 -6.977109960811260336e+00 -7.300036478945997054e+00 -7.677228668461108185e+00 -7.677228668461108185e+00 -7.824479444885608537e+00 -7.999710895650556708e+00 -7.999710895650556708e+00 -8.239616755729683106e+00 -8.343942568490831491e+00 -8.496677248089326895e+00 -8.591737885634522343e+00 -8.702634609488699269e+00 -8.815970115010882679e+00 -8.896639960346847786e+00 -8.932069425604694857e+00 -9.083467456779757754e+00 -9.106285489993652504e+00 -9.227383726473876280e+00 -9.227383726473876280e+00 -9.265395385382225513e+00 -9.378725247157252198e+00 -9.411551086742944605e+00 -9.461350087148385768e+00 -9.588554763889053589e+00 -9.711416320267403535e+00 -9.666324965948939862e+00 -9.722345528468569142e+00 -9.668528257197968045e+00 -9.793689113578706085e+00 -9.898059072442309869e+00 -9.898059072442309869e+00 -9.877849462887541065e+00 -9.893809603432353939e+00 -9.927685155223294089e+00 -9.955049731034071314e+00 -9.995377755151199750e+00 -1.002757473384446563e+01 -1.017368701259885277e+01 -1.022135242391586551e+01 -1.019760384285494581e+01 -1.019404285377784092e+01 -1.016360377748240751e+01 -1.018283336906640635e+01 -1.020519019201044308e+01 -1.020028731042425107e+01 -1.013213201953920439e+01 -1.015551605645997135e+01 -1.020393929845456604e+01 -1.028728812600379072e+01
2.981512855524266481e+00 3.030594232271098143e+00 2.484055574112752574e+00 2.070427045357232654e+00 1.668950827350308197e+00 1.667226276721017086e+00 1.632068997701481727e+00 1.687689203770121438e+00 1.768255546085572449e+00 1.768255546085572449e+00 1.836352537690628006e+00 1.857682884643188093e+00 1.857682884643188093e+00 1.940450705867429182e+00 1.924172843782827158e+00 1.882581514791963784e+00 1.912012760058505068e+00 1.860160431405730952e+00 1.745226763142007309e+00 1.600437785642023769e+00 1.589860517224599423e+00 1.475161706097604775e+00 1.607413888843012062e+00 1.769614536949203565e+00 1.769614536949203565e+00 1.668018611555776909e+00 7.869963648145522628e-01 3.405197959694446497e-01 4.504289904032121594e-01 1.650949295989303234e-01 6.441537923086000650e-02 3.829599307109160522e-01 3.845509496646393743e-01 3.399298812800385927e-01 5.252114888039132179e-01 2.614358063947912481e-01 2.614358063947912481e-01 -2.470278403676003792e-02 -2.897236185494326266e-01 -6.090094062252494611e-01 -7.817541119836757257e-01 -1.434192478318718766e+00 -1.992066434421369436e+00 -2.453183270882457467e+00 -2.532240795248170251e+00 -2.806217323417747433e+00 -3.105819159034505006e+00 -3.104969944276818161e+00 -3.247610494625225552e+00 -3.362987804085873389e+00 -3.304665803569859062e+00 -3.304665803569859062e+00 -3.147323161359777188e+00 -2.972609875284606851e+00 -2.871127351284159079e+00 -2.753752871119602652e+00 -2.520892640860540546e+00 -2.361742145126796366e+00 -2.490049594403989985e+00 -2.659805692790122134e+00 -3.115811958143780203e+00 -3.829180702138784032e+00 -4.706342975588732713e+00 -4.706342975588732713e+00 -5.393289753337480619e+00 -5.951440794106828136e+00 -6.446387006031216949e+00 -6.572694454756372373e+00 -7.054338929927649104e+00 -7.413898252157308910e+00 -7.648930368084945641e+00 -7.625710628309971817e+00 -7.844061139077411760e+00 -8.051066479281100641e+00 -8.248215576183774544e+00 -8.248215576183774544e+00 -8.379635671208140124e+00 -8.611482014065265034e+00 -8.702634609488699269e+00 -8.709533916780376472e+00 -8.821927567998200104e+00 -8.994979017412465083e+00 -8.994979017412465083e+00 -9.048629362871409398e+00 -9.168597472454255382e+00 -9.218498338275939119e+00 -9.226421936448442551e+00 -9.336627233952569327e+00 -9.382688283208068469e+00 -9.498119054267734285e+00 -9.541438549801172897e+00 -9.700723421871554564e+00 -9.654700854384905995e+00 -9.746973556453731646e+00 -9.746973556453731646e+00 -9.795172638801325604e+00 -9.875775961420391269e+00 -9.843503434011555697e+00 -9.897003960017265456e+00 -9.909302139144987365e+00 -9.940040280195667322e+00 -1.001546132654696208e+01 -9.971325082753008218e+00 -1.001834515603702869e+01 -1.011836026773190156e+01 -1.014388882463954467e+01 -1.014388882463954467e+01 -1.013212502314309305e+01 -1.013114630395818239e+01 -1.017525002791006017e+01 -1.015230217724759143e+01 -1.014643594937504645e+01 -1.013213201953920439e+01 -1.015358785366012029e+01 -1.016039802009734672e+01 -1.026435081758771872e+01
3.237189645878078892e+00 2.886751570978322690e+00 2.886751570978322690e+00 2.280891324633652850e+00 1.862419393221913300e+00 1.667226276721017086e+00 1.659778887951291804e+00 1.720040765051848553e+00 1.741517081599825545e+00 1.816530241185933425e+00 1.879621806149587293e+00 1.866844766279067924e+00 1.901664844294768786e+00 1.958802077400560782e+00 1.958802077400560782e+00 1.949058430351729321e+00 1.917217659618405179e+00 1.860160431405730952e+00 1.868316905035339426e+00 1.745828798593769715e+00 1.589860517224599423e+00 1.589895232077151999e+00 1.638116049594132484e+00 1.651782729566510399e+00 1.755084725360662290e+00 1.655088823210016269e+00 1.407702030883060562e+00 8.519508918993536906e-01 4.975352566458283166e-01 4.975352566458283166e-01 1.569113503028245482e-01 3.161609490422707114e-01 3.845509496646393743e-01 4.739980821540689115e-01 5.156250951206446942e-01 4.485250521353048025e-01 1.833017134861458231e-01 1.144685120572923875e-01 -7.261949482495375086e-02 -4.177802246533840469e-01 -9.544988177421021014e-01 -9.544988177421021014e-01 -1.541729859444357809e+00 -2.101309653984651860e+00 -2.532240795248170251e+00 -2.618599975015924564e+00 -2.955309183436499954e+00 -3.104969944276818161e+00 -3.349960693542986867e+00 -3.371433012105292448e+00 -3.352913235910673251e+00 -3.277331815193079922e+00 -3.102040735703887275e+00 -3.023006824726025332e+00 -2.892322559433763818e+00 -2.663185241869968412e+00 -2.398980973403867623e+00 -2.398980973403867623e+00 -2.320569744793730571e+00 -2.795830620871893490e+00 -2.795830620871893490e+00 -3.482480624461119945e+00 -4.264108573101008659e+00 -4.884737034863273486e+00 -4.984116047401203176e+00 -5.569337118411190168e+00 -6.074309302292808077e+00 -6.613181278448783118e+00 -6.678696210494011964e+00 -7.160209311314367220e+00 -7.458665069646253087e+00 -7.692164959677048941e+00 -7.692164959677048941e+00 -7.906247715463243786e+00 -8.140804300774933111e+00 -8.221583684195916675e+00 -8.337878773642742658e+00 -8.501037579291104151e+00 -8.619469186525986260e+00 -8.731862837743809891e+00 -8.754191758707245086e+00 -8.856409228013394141e+00 -8.985713025808179211e+00 -9.072454361471525175e+00 -9.072454361471525175e+00 -9.174925214515024408e+00 -9.266626009290941823e+00 -9.336627233952569327e+00 -9.356104352120427237e+00 -9.483376842119550787e+00 -9.541438549801172897e+00 -9.672156717302829776e+00 -9.643949743989667311e+00 -9.705436488442042986e+00 -9.776132809770803789e+00 -9.807785442131670806e+00 -9.824812188165511273e+00 -9.819161524429919297e+00 -9.909993824296890352e+00 -9.909993824296890352e+00 -9.946253489189672337e+00 -1.000965177700440734e+01 -9.971325082753008218e+00 -9.987324678180470983e+00 -1.005692483217365663e+01 -1.014914036024867805e+01 -1.012574396662852649e+01 -1.007020719250834162e+01 -1.008699467579635112e+01 -1.010243284037983358e+01 -1.011151740268451427e+01 -1.011151740268451427e+01 -1.008352457609366049e+01 -1.009989180855793123e+01 -1.016039802009734672e+01 -1.020718668507277371e+01
3.503844846191469298e+00 3.264634257723073585e+00 2.727383405464737010e+00 2.457257038921442760e+00 2.163541310092998327e+00 1.734966261835814594e+00 1.680220050502693852e+00 1.680220050502693852e+00 1.774545613041999648e+00 1.868690158712149607e+00 1.879621806149587293e+00 1.909827963682817265e+00 1.934718031408696026e+00 1.952478123318412084e+00 1.967718498986059217e+00 2.004563957740288060e+00 1.976808740018970667e+00 1.947926965399208399e+00 1.874287469010314622e+00 1.891219811545515217e+00 1.732122384935604664e+00 1.622318627727766582e+00 1.557676206858146895e+00 1.557676206858146895e+00 1.615721920598491623e+00 1.615686091840081051e+00 1.217239183327686991e+00 1.410312310063538632e+00 1.137708885628021527e+00 5.173543947562821987e-01 1.442193680834889524e-01 2.331524022852858036e-01 4.518674918038491084e-01 4.761782409124056259e-01 3.885016425187391986e-01 4.670465092949833696e-01 3.073772128940686077e-01 2.063959338827130174e-02 2.063959338827130174e-02 -2.165451514238475594e-01 -5.498626368713723789e-01 -1.047665211294709797e+00 -1.160299565801828692e+00 -1.783664360924860137e+00 -2.273532986867572880e+00 -2.694271124708987664e+00 -2.773014130685253598e+00 -2.991080283315700417e+00 -3.265685279507850147e+00 -3.396224595258851675e+00 -3.396224595258851675e+00 -3.349069058371568541e+00 -3.153691090018287291e+00 -3.023006824726025332e+00 -2.942719508875183188e+00 -2.731747927732078196e+00 -2.586620744094127566e+00 -2.319612789193428171e+00 -2.229748840524517384e+00 -2.421939189081967037e+00 -2.967865204000299961e+00 -3.681146509707573067e+00 -3.681146509707573067e+00 -4.438174429469404103e+00 -5.052174938345854294e+00 -5.569337118411190168e+00 -5.701023731082250023e+00 -6.201876700717548374e+00 -6.678696210494011964e+00 -6.864357373347087510e+00 -7.260327585176739262e+00 -7.437383070404401053e+00 -7.734531245011476486e+00 -7.807161747150954234e+00 -8.000414205539312817e+00 -8.158071027673861053e+00 -8.358891074311546987e+00 -8.358891074311546987e+00 -8.516093039200265835e+00 -8.664127028452853096e+00 -8.754191758707245086e+00 -8.776520679670676728e+00 -8.940578409437492269e+00 -9.004114083187682027e+00 -9.114768874441603330e+00 -9.132889765313057850e+00 -9.182441278924773798e+00 -9.294909734967692572e+00 -9.377857386977355603e+00 -9.377857386977355603e+00 -9.508503477211338151e+00 -9.661463818906980805e+00 -9.643949743989667311e+00 -9.688527448415516830e+00 -9.783098944357897508e+00 -9.807785442131670806e+00 -9.843547547619261096e+00 -9.857170782362143058e+00 -9.919943280217765391e+00 -9.924794674857619015e+00 -9.963949157377715693e+00 -9.963949157377715693e+00 -9.954001439884120117e+00 -1.000466827848872597e+01 -1.005692483217365663e+01 -1.007665908860713699e+01 -1.007137340258418057e+01 -1.007020719250834162e+01 -1.001511465249778432e+01 -1.003277644726082052e+01 -1.008331985060391389e+01 -1.008269992018520611e+01 -1.003109600212667374e+01 -1.005055854406712967e+01 -1.012464621395339748e+01 -1.017034306998113813e+01
3.508821418891611810e+00 3.508821418891611810e+00 2.931905695352715391e+00 2.425601742129217531e+00 2.096257890781298538e+00 1.885780341613198408e+00 1.714294422864344192e+00 1.750685337630522254e+00 1.821890837178161693e+00 1.932689661752917676e+00 1.922456721117089984e+00 1.931777709357597406e+00 1.989139058193101217e+00 1.966734570019798900e+00 2.011245081767127907e+00 2.041604719979436489e+00 2.041604719979436489e+00 2.035227594167250853e+00 1.995317705942072140e+00 1.891219811545515217e+00 1.872830397245514034e+00 1.718937194711849692e+00 1.672596492208036967e+00 1.473078597658607158e+00 1.520493551015578149e+00 1.601672282215832688e+00 1.692674137934252032e+00 1.648113132462412089e+00 1.648113132462412089e+00 1.281502221798201946e+00 2.525684690071707816e-01 2.331524022852858036e-01 2.902681022576906189e-01 4.171198811170295784e-01 3.885016425187391986e-01 4.923533938452268055e-01 4.089945997467357985e-01 2.365391745082577879e-01 -4.797615584992132032e-02 -1.714570768814927815e-01 -1.714570768814927815e-01 -6.467560378979078095e-01 -1.290329696321980135e+00 -1.783664360924860137e+00 -1.978633969881975929e+00 -2.476187570809285088e+00 -2.773014130685253598e+00 -2.834545801077874572e+00 -3.110935861097400057e+00 -3.335492177273060577e+00 -3.375328341247455732e+00 -3.374549084917696895e+00 -3.305001781809955741e+00 -3.095860198621030790e+00 -2.886718615432105395e+00 -2.886718615432105395e+00 -2.655461503159107117e+00 -2.337154910584954948e+00 -2.229748840524517384e+00 -2.305318719267372529e+00 -2.691005608579815966e+00 -3.149065937911349256e+00 -3.845825626165179756e+00 -4.026818746790985060e+00 -4.570243719439172736e+00 -5.183705052473369435e+00 -5.762917038382245671e+00 -5.762917038382245671e+00 -6.362177278467134656e+00 -6.954559200686768250e+00 -7.260327585176739262e+00 -7.266266248635181668e+00 -7.615240036839571403e+00 -7.807161747150954234e+00 -8.002644462375526402e+00 -7.998693052469119102e+00 -8.221385462948386902e+00 -8.358133424557255609e+00 -8.534545687059003072e+00 -8.534545687059003072e+00 -8.686455949416288291e+00 -8.806661587253268308e+00 -8.806661587253268308e+00 -8.963071233960206996e+00 -9.062824438094178703e+00 -9.132889765313057850e+00 -9.137003489935988654e+00 -9.254388783580280275e+00 -9.309609328465718647e+00 -9.428185121128050739e+00 -9.497666685307308398e+00 -9.604413872653324802e+00 -9.632012950840486809e+00 -9.745533198327889224e+00 -9.745533198327889224e+00 -9.820398245462010678e+00 -9.811319133818129146e+00 -9.857170782362143058e+00 -9.941421861458193732e+00 -9.940859846046656401e+00 -9.952466698183677352e+00 -9.988209375883982943e+00 -9.936677797015233793e+00 -9.963671834836558716e+00 -9.995489396615413469e+00 -1.003417561212830833e+01 -1.003417561212830833e+01 -1.000828936187359375e+01 -9.994132226891984772e+00 -1.003277644726082052e+01 -1.000273307066236228e+01 -1.002012939748930265e+01 -1.003109600212667374e+01 -1.005342219893554834e+01 -1.008889440780944824e+01 -1.015002255255782693e+01
3.828838075216359549e+00 3.348805316640204310e+00 3.117221780645563989e+00 2.684335573780541218e+00 2.382963959681991373e+00 1.896616102153664052e+00 1.896616102153664052e+00 1.896435243653403324e+00 1.983875469729791341e+00 1.932689661752917676e+00 2.028804099178723064e+00 2.025834841344208215e+00 1.989139058193101217e+00 2.032264302099952680e+00 2.085459031619293579e+00 2.065852973646158386e+00 2.061582564524948591e+00 2.058683398299575806e+00 2.058683398299575806e+00 2.004177686779787582e+00 1.860644242982002261e+00 1.860644242982002261e+00 1.776245313972353301e+00 1.558541938362737245e+00 1.520493551015578149e+00 1.539535711144792263e+00 1.649039362561811828e+00 1.753263452446957915e+00 1.739610496900033443e+00 1.540531490760247202e+00 8.561467769422299590e-01 3.672809045912926451e-01 4.490811222181251838e-01 4.490811222181251838e-01 4.358598681589554991e-01 4.134541870951953246e-01 4.089945997467357985e-01 3.183015357842450821e-01 9.624849286011372129e-02 -4.905515086094537625e-02 -2.996440283650126934e-01 -3.736397107835052189e-01 -8.036688212645410889e-01 -1.485244780011407695e+00 -2.058472661144818971e+00 -2.058472661144818971e+00 -2.591270600003505287e+00 -2.879322148270822890e+00 -3.110935861097400057e+00 -3.189562348834344085e+00 -3.314303255772281354e+00 -3.374549084917696895e+00 -3.285725943493458701e+00 -3.266450105176962104e+00 -3.076584360304533305e+00 -2.846561563310743725e+00 -2.731878893338161696e+00 -2.510285073943971490e+00 -2.189416223272580009e+00 -2.386367832574647352e+00 -2.386367832574647352e+00 -2.855521089964868864e+00 -3.546309034948678995e+00 -4.026818746790985060e+00 -4.183634634281016673e+00 -4.789693744681999377e+00 -5.330271346320628822e+00 -5.868612987870680975e+00 -6.023121198297435086e+00 -6.532013607937233957e+00 -7.028229681496913628e+00 -7.347426078793728443e+00 -7.347426078793728443e+00 -7.649873424653668152e+00 -7.837820560276129278e+00 -7.998693052469119102e+00 -8.058804995370088875e+00 -8.171530512004780533e+00 -8.385245616895895537e+00 -8.552998334917742085e+00 -8.571450982776479322e+00 -8.708784870379721710e+00 -8.895443793066807103e+00 -9.000486277979220517e+00 -9.000486277979220517e+00 -9.090854316111093070e+00 -9.191274329309155888e+00 -9.254388783580280275e+00 -9.274118997983439527e+00 -9.431178328049382387e+00 -9.553950024350143622e+00 -9.628766771621604548e+00 -9.617334573184836088e+00 -9.736842052205098241e+00 -9.815535601262414644e+00 -9.833011048792354103e+00 -9.779090720016995419e+00 -9.826269986003508095e+00 -9.965137571373038128e+00 -9.937005875657984433e+00 -9.958679907177685919e+00 -9.966766974763558551e+00 -9.934845968206499123e+00 -9.934845968206499123e+00 -9.942874437770962359e+00 -9.976998226981487861e+00 -1.001700283853983287e+01 -9.951292160257825259e+00 -9.917490350569499569e+00 -9.963120054141807458e+00 -9.973830722446948016e+00 -9.961947197118892205e+00 -9.978238588583046464e+00 -1.001280280116896471e+01 -1.009285842004288192e+01 -1.009285842004288192e+01
3.990311055561236664e+00 3.493600115506537485e+00 3.117221780645563989e+00 2.969898668669214814e+00 2.650475053004135884e+00 2.231727938214292717e+00 1.993478316782227200e+00 2.146467795610570217e+00 2.038312824370245302e+00 2.075151488087827012e+00 2.092984802206323547e+00 2.092984802206323547e+00 2.087099668357893734e+00 2.127467231486757981e+00 2.085459031619293579e+00 2.142310543999162320e+00 2.130188979497100288e+00 2.119941676567847377e+00 2.055226252983027635e+00 2.076654061896221037e+00 1.979088699750676916e+00 1.877510448211389571e+00 1.689986696267623767e+00 1.689986696267623767e+00 1.575175793785722256e+00 1.587936839603782069e+00 1.649039362561811828e+00 1.641970258337881905e+00 1.695450424455301253e+00 1.540531490760247202e+00 1.071257771079731969e+00 1.057802020992565151e+00 4.917600116804026755e-01 4.710440618405876689e-01 3.622920396150867139e-01 3.758531150371889340e-01 3.426764573014248749e-01 2.927404510843030772e-01 2.927404510843030772e-01 4.644889295167078935e-02 -1.943934140801429622e-01 -3.736397107835052189e-01 -4.623234030565032127e-01 -1.120910663073719116e+00 -1.590610450212225357e+00 -2.224964539093079452e+00 -2.377936037973049643e+00 -2.618425427233984859e+00 -2.917645238154913834e+00 -3.203469482390067569e+00 -3.203469482390067569e+00 -3.382902970861450864e+00 -3.398445434482342264e+00 -3.266450105176962104e+00 -3.227999399182030160e+00 -2.958905925895268130e+00 -2.731878893338161696e+00 -2.377887411247642024e+00 -2.230176330960608411e+00 -2.142133900437507510e+00 -2.456193158855874081e+00 -3.075834397041199875e+00 -3.187202631725346791e+00 -3.645376016781726847e+00 -4.271950088286928349e+00 -4.960528014567824329e+00 -4.960528014567824329e+00 -5.549924189705389921e+00 -6.185646425026493311e+00 -6.185646425026493311e+00 -6.793126837896221737e+00 -7.175959949815378991e+00 -7.442606976369076754e+00 -7.479172138776776002e+00 -7.673809497815088143e+00 -7.833280796199212581e+00 -8.071639478274219570e+00 -8.003378766680045331e+00 -8.202434707590102292e+00 -8.413631675606932703e+00 -8.589903630635218335e+00 -8.589903630635218335e+00 -8.795120222916896324e+00 -8.937402404256836519e+00 -9.010880001746752299e+00 -9.027660132034412754e+00 -9.127672504464710457e+00 -9.213867832192867979e+00 -9.285766183058948187e+00 -9.312568518500137671e+00 -9.435379789583167920e+00 -9.557191199731608577e+00 -9.607080212628886784e+00 -9.607080212628886784e+00 -9.740493205767830176e+00 -9.726279381151215375e+00 -9.779090720016995419e+00 -9.749285332569732176e+00 -9.914341442910348690e+00 -9.937005875657984433e+00 -9.959843733342312433e+00 -9.896450171238015514e+00 -9.915555629553180594e+00 -9.993508641751224886e+00 -9.909418365473731782e+00 -9.930650913389436951e+00 -9.958199723813880411e+00 -9.883994838733407562e+00 -9.883994838733407562e+00 -9.907574365603071698e+00 -9.919421283424959768e+00 -9.961947197118892205e+00 -9.969225742186900163e+00 -1.002185761930662622e+01 -1.006173194681450411e+01 -1.011306582678085775e+01
3.978927188826133943e+00 3.978927188826133943e+00 3.279450270971061787e+00 2.952197229220868913e+00 2.650475053004135884e+00 2.624539431391928357e+00 2.297670568425869142e+00 2.146467795610570217e+00 2.260776066104267734e+00 2.234323263484700561e+00 2.160509898151293129e+00 2.148004510201498185e+00 2.195174086536730851e+00 2.152042225129771058e+00 2.161085594190147674e+00 2.204504856365438137e+00 2.204504856365438137e+00 2.202790766937200218e+00 2.117092588468096004e+00 2.076654061896221037e+00 2.087959654816232913e+00 2.035431337433004195e+00 1.921569757685907653e+00 1.728916052137883907e+00 1.684017391531898999e+00 1.608568934090806257e+00 1.540101517476601511e+00 1.681317754933177255e+00 1.678495192904667421e+00 1.577217627784194054e+00 1.578788439596308990e+00 9.302675968055897915e-01 9.302675968055897915e-01 3.756147953182893406e-01 4.081461359388333099e-01 4.082291679725877920e-01 3.877624825060141389e-01 2.178663556508630694e-01 2.430998863255777465e-01 -7.345283398945058606e-03 -3.226905860491946498e-02 -2.121149060061763292e-01 -6.060638845440824429e-01 -7.581786178278689947e-01 -1.231608688898661264e+00 -1.875182720576619388e+00 -2.398825272982900714e+00 -2.398825272982900714e+00 -2.799888572966729328e+00 -3.129331893147605737e+00 -3.271671181380177096e+00 -3.400143076520666163e+00 -3.428409892418997185e+00 -3.406427826505060263e+00 -3.156649304045532567e+00 -3.083468637815245827e+00 -2.809611079244971776e+00 -2.407053928735014114e+00 -2.048795219483027452e+00 -2.048795219483027452e+00 -2.244583371000863803e+00 -2.757004062161225733e+00 -3.187202631725346791e+00 -3.336158752517281556e+00 -3.983859093953223685e+00 -4.396631393422318013e+00 -5.072564097761412150e+00 -5.168264697736661084e+00 -5.681361710895824757e+00 -6.361457686568080305e+00 -6.805797122102186236e+00 -6.805797122102186236e+00 -7.169538816596599418e+00 -7.417407811927746231e+00 -7.673809497815088143e+00 -7.628860439049994113e+00 -7.887394268231439298e+00 -8.003378766680045331e+00 -8.221645314109577996e+00 -8.174564655663669299e+00 -8.386676368677257187e+00 -8.562182762767577060e+00 -8.579656776759208014e+00 -8.789842971698634599e+00 -8.867590968786185357e+00 -8.947124585713279288e+00 -8.947124585713279288e+00 -9.062873073272664115e+00 -9.129125677246076265e+00 -9.312568518500137671e+00 -9.252258830949687152e+00 -9.384817403727325313e+00 -9.507665611349631618e+00 -9.591896017873896341e+00 -9.575074446926370442e+00 -9.674342541239949966e+00 -9.647952989528134182e+00 -9.800374034256723377e+00 -9.800374034256723377e+00 -9.818963154173827590e+00 -9.844963757328095255e+00 -9.896450171238015514e+00 -9.824877435870877918e+00 -9.888185817558024837e+00 -9.909418365473731782e+00 -9.893752358465839336e+00 -9.881496529031290166e+00 -9.882219236811838670e+00 -9.867670891846726633e+00 -9.909302287290625344e+00 -9.909302287290625344e+00 -9.965314833585750875e+00 -9.962009626659428463e+00 -1.002185761930662622e+01 -1.006108326393913721e+01 -1.012290250678300652e+01
4.226125412164408957e+00 3.586804689857491013e+00 3.444586185613266238e+00 3.313195266552402263e+00 2.911250173884552428e+00 2.578976211644020466e+00 2.588987647450269769e+00 2.402350911681038426e+00 2.384800837456821476e+00 2.292546889355346895e+00 2.292546889355346895e+00 2.270283575690776434e+00 2.250586546140462829e+00 2.220823627899448205e+00 2.243549902622226089e+00 2.301389438470192950e+00 2.198960881926975475e+00 2.187489468072386423e+00 2.216854562262768891e+00 2.123883659692760606e+00 2.136235280140642345e+00 2.159508283583449373e+00 2.053921993400271706e+00 1.885605670510518195e+00 1.662987134916223075e+00 1.662987134916223075e+00 1.510480444045248838e+00 1.679980478653356535e+00 1.678495192904667421e+00 1.550083518189405041e+00 1.708156735096933998e+00 1.626298824965227485e+00 8.781522154476028019e-01 1.102952906635107588e+00 6.072101301630656867e-01 5.741422053786304769e-01 3.195298050495196662e-01 3.195298050495196662e-01 1.698100308083284327e-01 5.673667038510907951e-02 -3.226905860491946498e-02 -2.255394789553698612e-02 -3.780029795964564565e-01 -7.581786178278689947e-01 -1.410202301288954185e+00 -1.480754379076488325e+00 -1.971561572056531375e+00 -2.393193354141236906e+00 -2.821806057903673448e+00 -2.821806057903673448e+00 -3.164572223761947356e+00 -3.380081870173594183e+00 -3.428409892418997185e+00 -3.451292259948278929e+00 -3.266294082673736110e+00 -3.083468637815245827e+00 -2.999262942569845158e+00 -2.524621717260029818e+00 -2.243719993062571305e+00 -2.019444163291494565e+00 -2.121302917992848869e+00 -2.371678450044158559e+00 -2.907740633389520823e+00 -3.530995422430377229e+00 -3.530995422430377229e+00 -4.157942460016279540e+00 -4.669492960030823703e+00 -5.168264697736661084e+00 -5.266205811859434149e+00 -5.906591037831425695e+00 -6.381441511772501407e+00 -6.847515838934278953e+00 -6.852418545443679676e+00 -7.149368723407803827e+00 -7.392681184919883464e+00 -7.601859136626785585e+00 -7.601859136626785585e+00 -7.790138640773934142e+00 -7.962452942650080523e+00 -8.174564655663669299e+00 -8.135583321770603504e+00 -8.361137211812451397e+00 -8.579656776759208014e+00 -8.740014038866075197e+00 -8.676730038299359293e+00 -8.829075686256119937e+00 -8.925622283469873963e+00 -9.001415872169435062e+00 -9.001415872169435062e+00 -9.093445368639427429e+00 -9.247349519672173557e+00 -9.247349519672173557e+00 -9.337740103709190720e+00 -9.426477259032436606e+00 -9.575074446926370442e+00 -9.505812625484990619e+00 -9.508285876594918307e+00 -9.609618219636516301e+00 -9.798539965744058833e+00 -9.701634512506572605e+00 -9.776610993522918847e+00 -9.789773654509803080e+00 -9.739951166153739237e+00 -9.739951166153739237e+00 -9.804095541280531734e+00 -9.803703436713334440e+00 -9.881496529031290166e+00 -9.829543319675240198e+00 -9.828458977943475006e+00 -9.896224159445518254e+00 -9.919291109044962695e+00 -9.957864092563623259e+00 -9.978962264734759557e+00 -1.001776592633729734e+01 -1.009004611988255817e+01 -1.009004611988255817e+01
4.182335375272465683e+00 3.887760660047189454e+00 3.466606115800821897e+00 3.466606115800821897e+00 3.200773243769666987e+00 2.861256590238955955e+00 2.588987647450269769e+00 2.675336818422362928e+00 2.594312734257572917e+00 2.419156072879983466e+00 2.367907150975252062e+00 2.388353258173183669e+00 2.308265464687927704e+00 2.314379098099587750e+00 2.310647413265538574e+00 2.310647413265538574e+00 2.311378249074468982e+00 2.294352971414886255e+00 2.216854562262768891e+00 2.253419193171571244e+00 2.249333988843829957e+00 2.159508283583449373e+00 1.989483107755415370e+00 2.018047098047261123e+00 1.799087710463890710e+00 1.620301646589468181e+00 1.689587861138110991e+00 1.689587861138110991e+00 1.618474403263337358e+00 1.590396311660983608e+00 1.590396311660983608e+00 1.646390546049460779e+00 1.513961456241506687e+00 1.102952906635107588e+00 1.217926606884309759e+00 7.306164790795163233e-01 5.214223698729477663e-01 2.800515988420944069e-01 2.556066587828848546e-01 1.633160822401326651e-01 6.045449569206717833e-02 -9.979639378805568728e-02 -9.979639378805568728e-02 -4.874579361842658054e-01 -1.056497066207445990e+00 -1.480754379076488325e+00 -1.560846920633188972e+00 -2.030700071141688490e+00 -2.494297845989247975e+00 -2.901970517894325141e+00 -2.973356321259850610e+00 -3.238805182104290470e+00 -3.382621807923740231e+00 -3.390107087869211888e+00 -3.390107087869211888e+00 -3.228462878511409340e+00 -2.833665855860849181e+00 -2.524621717260029818e+00 -2.365900413016273962e+00 -1.992530705708922545e+00 -2.121302917992848869e+00 -2.555247740185123906e+00 -2.713762699487728192e+00 -3.152949997184672171e+00 -3.637611732773408768e+00 -4.227463243139395033e+00 -4.227463243139395033e+00 -4.768900459702744676e+00 -5.323935174360816092e+00 -5.323935174360816092e+00 -5.962568616471799032e+00 -6.472837572367383885e+00 -6.852418545443679676e+00 -6.832248452254884086e+00 -7.108358824642612817e+00 -7.359333073393566238e+00 -7.574470568638490775e+00 -7.512268523964616307e+00 -7.744638677276930672e+00 -7.922283601272114950e+00 -8.147837491313962843e+00 -8.147837491313962843e+00 -8.373391381355810736e+00 -8.542625673475315651e+00 -8.676730038299359293e+00 -8.630491240477827120e+00 -8.722781100447523528e+00 -8.859694714506282764e+00 -8.936120844192087631e+00 -8.894337433720837183e+00 -9.127307405649318639e+00 -9.212443607723042049e+00 -9.264429703909856428e+00 -9.264429703909856428e+00 -9.409655688084910707e+00 -9.389219549641298457e+00 -9.508285876594918307e+00 -9.469951106703303978e+00 -9.673699160519694473e+00 -9.701634512506572605e+00 -9.731180840873557614e+00 -9.679754720180371308e+00 -9.661407953210412458e+00 -9.771818138630827377e+00 -9.698772717087329909e+00 -9.714274956115955817e+00 -9.804793334248692815e+00 -9.807823876428756193e+00 -9.789247064040223378e+00 -9.864561224142475382e+00 -9.908106138299279664e+00 -9.978221285825245701e+00 -9.978221285825245701e+00 -1.001367423336796847e+01 -1.009885200812629691e+01 -1.013326124460322575e+01
4.289411980497960464e+00 4.248230563456336206e+00 3.722026796281972416e+00 3.553771289768715480e+00 3.156037949878509163e+00 3.156037949878509163e+00 2.843574335543679332e+00 2.747261381264419100e+00 2.747261381264419100e+00 2.610228724716053161e+00 2.503615265467650453e+00 2.388353258173183669e+00 2.422017155944181432e+00 2.408264373466134867e+00 2.358435201940865866e+00 2.418614351327054379e+00 2.442734926098019343e+00 2.386922399918219639e+00 2.394093134768466413e+00 2.340728610140255128e+00 2.340728610140255128e+00 2.264727376881802368e+00 2.078367605486396208e+00 2.018047098047261123e+00 1.971340139249907475e+00 1.810948734617188860e+00 1.705807944213388216e+00 1.678485438532460794e+00 1.596598767472220626e+00 1.563476178384862525e+00 1.702681069744743425e+00 1.584657938059887305e+00 1.584657938059887305e+00 1.498849754763099451e+00 1.130889370094513735e+00 7.306164790795163233e-01 5.926230314568107227e-01 4.068705444656018910e-01 2.556066587828848546e-01 1.434629392796713532e-01 1.410084658634780386e-01 5.035261903668447614e-02 -1.388691168536882736e-01 -2.149442892002188243e-01 -5.885833378706188945e-01 -1.101321973398766474e+00 -1.593420060348214484e+00 -1.593420060348214484e+00 -2.164771407813123716e+00 -2.674609142641045878e+00 -2.973356321259850610e+00 -3.051938556909820299e+00 -3.303920914951145704e+00 -3.423939987815052266e+00 -3.409551039524952643e+00 -3.368923115309772953e+00 -3.142709994461668543e+00 -2.688621084082891244e+00 -2.136504280221970475e+00 -2.136504280221970475e+00 -2.002433672604073234e+00 -2.382037641591644661e+00 -2.713762699487728192e+00 -2.905563131594835369e+00 -3.359136662524921935e+00 -3.732723933600607946e+00 -4.273359221370403915e+00 -4.371938144846144070e+00 -4.863293897544101796e+00 -5.451270217064124068e+00 -5.979129442328144250e+00 -6.098561553617997788e+00 -6.520504479787273766e+00 -6.857924662995049658e+00 -7.089805707737138363e+00 -7.089805707737138363e+00 -7.325676902147302272e+00 -7.495684160275139618e+00 -7.708983880773626396e+00 -7.721238050316987511e+00 -7.946791940358836293e+00 -8.160091660857322182e+00 -8.172345830400685074e+00 -8.346786641742612645e+00 -8.485869107812531453e+00 -8.545557100145380502e+00 -8.519144134474249341e+00 -8.656516355739901414e+00 -8.727477468114589243e+00 -8.896789404986304106e+00 -8.896789404986304106e+00 -9.031901666324360534e+00 -9.103134132278233537e+00 -9.261058500190976872e+00 -9.244236929243452749e+00 -9.248845140471949833e+00 -9.368618763661704207e+00 -9.491049816663576166e+00 -9.542294834589901242e+00 -9.584305870839319397e+00 -9.616216111387853260e+00 -9.642874528212157514e+00 -9.642874528212157514e+00 -9.651535390306225537e+00 -9.658933931967943920e+00 -9.714274956115955817e+00 -9.728090139466099018e+00 -9.769738395276430509e+00 -9.789247064040223378e+00 -9.887045209642479904e+00 -9.895188856917267017e+00 -9.934453571821959983e+00 -9.990218815047285261e+00 -1.005978589818840518e+01 -1.005978589818840518e+01 -1.014080348139854237e+01
4.375338979072845191e+00 4.248230563456336206e+00 4.014910255156623364e+00 3.788403136943847116e+00 3.493548966577680659e+00 3.123943113895921719e+00 3.092798760535393043e+00 2.946131952813515920e+00 2.804438731136415175e+00 2.624644105594494015e+00 2.624644105594494015e+00 2.506413883160774958e+00 2.438077575889196602e+00 2.408264373466134867e+00 2.467292144317123626e+00 2.516144393867298046e+00 2.442734926098019343e+00 2.507001790219232973e+00 2.500541179115782775e+00 2.399537408077061507e+00 2.373672484584413933e+00 2.369701111567588558e+00 2.247663775873018910e+00 2.127608179049961024e+00 1.972820621232509453e+00 1.972820621232509453e+00 1.837997222764301108e+00 1.675836217354214730e+00 1.596598767472220626e+00 1.542709089184808091e+00 1.652488493752022336e+00 1.655596912329967418e+00 1.500345722272927285e+00 1.683539808892430489e+00 1.493210555070142664e+00 8.675392883873608296e-01 5.123798230146310306e-01 5.123798230146310306e-01 3.304038697104457745e-01 2.275850688123889909e-01 1.448330094163211568e-01 1.448330094163211568e-01 -3.634572661309989211e-02 -3.158270792919697922e-01 -7.027918311259379047e-01 -7.360912478462011688e-01 -1.237523123995309948e+00 -1.701173632965563787e+00 -2.298842744484558054e+00 -2.432914081155993280e+00 -2.772559540508479969e+00 -3.096032193891164574e+00 -3.381747396698196795e+00 -3.381747396698196795e+00 -3.455053275417839131e+00 -3.301872107159786740e+00 -3.301872107159786740e+00 -2.878212881957202818e+00 -2.227441107896498629e+00 -2.016547671387953322e+00 -1.925645511169058466e+00 -2.263286130711455790e+00 -2.522561927604044740e+00 -3.001612242575386169e+00 -3.165152710746507392e+00 -3.486131175379754588e+00 -4.043877151901926759e+00 -4.467342329260816314e+00 -4.467342329260816314e+00 -4.996262345802600535e+00 -5.604634557007045714e+00 -6.098561553617997788e+00 -6.187668040287881865e+00 -6.575442512883737933e+00 -6.818195233538447475e+00 -7.114067925104814449e+00 -7.119732532523421753e+00 -7.310362791359299450e+00 -7.507938329818499845e+00 -7.733492219860348627e+00 -7.733492219860348627e+00 -7.959046109902196520e+00 -8.189683912005104816e+00 -8.346786641742612645e+00 -8.295008177325705390e+00 -8.346202272364802610e+00 -8.519144134474249341e+00 -8.579340108601254400e+00 -8.535538802624966337e+00 -8.698707664725379374e+00 -8.886081226993303162e+00 -8.826989313658629044e+00 -8.992992511700624192e+00 -9.091313978852841871e+00 -9.168752793975073700e+00 -9.168752793975073700e+00 -9.230457738538891732e+00 -9.343192869735428729e+00 -9.542294834589901242e+00 -9.466977229172066188e+00 -9.500942331009047948e+00 -9.566230916204007784e+00 -9.567549505574325153e+00 -9.531252641981621920e+00 -9.593449892894128084e+00 -9.624846475518577193e+00 -9.720546277548740122e+00 -9.720546277548740122e+00 -9.750035150136973527e+00 -9.875916670818407184e+00 -9.895188856917267017e+00 -9.917086021273728846e+00 -1.001847927719518871e+01 -1.000958254039863959e+01 -1.010765789637003564e+01 -1.014885779828211909e+01
4.343228982463373633e+00 4.423109874525302132e+00 4.039468784445055860e+00 4.039468784445055860e+00 3.784049035494828850e+00 3.391008603109891162e+00 3.092798760535393043e+00 3.219731550955515331e+00 3.037630317651318634e+00 2.791677363484834640e+00 2.636388063296609907e+00 2.638373844817459624e+00 2.568287310376129007e+00 2.502170932734088638e+00 2.522442671693929661e+00 2.611114071513180424e+00 2.573368908532878585e+00 2.537536503131156973e+00 2.591192909411052625e+00 2.591192909411052625e+00 2.512612467798922111e+00 2.349480805102174941e+00 2.177233331557564711e+00 2.229327055467375640e+00 2.212176205671298579e+00 2.049722252337924822e+00 1.849785246769981351e+00 1.895974892542260370e+00 1.610935479974110240e+00 1.552761560547829323e+00 1.621741323761173748e+00 1.659786309998450893e+00 1.555149285727444930e+00 1.767390745228569982e+00 1.767390745228569982e+00 1.335228083739783633e+00 3.939393321922284863e-01 3.525350820475303681e-01 4.332100688692090973e-01 2.446456266583645900e-01 2.158383273813757053e-01 7.558922848842748732e-02 6.432034883306094603e-03 -5.614918407787819477e-02 -3.592102935283233989e-01 -8.139396822538722542e-01 -8.139396822538722542e-01 -1.370209106491104833e+00 -1.968087787804203348e+00 -2.432914081155993280e+00 -2.522658901833795042e+00 -2.906925354785498961e+00 -3.196518571401605335e+00 -3.426345542614920081e+00 -3.449665939476853183e+00 -3.457977748865344036e+00 -3.172802691935661556e+00 -2.612494543361660426e+00 -2.612494543361660426e+00 -1.974440091475187842e+00 -2.064690590709094664e+00 -2.263286130711455790e+00 -2.439005305458383788e+00 -2.806533093451065497e+00 -3.165152710746507392e+00 -3.652212861243965492e+00 -3.791927420981399344e+00 -4.084412851227756214e+00 -4.563518367739681558e+00 -4.718117093061536593e+00 -5.164508131541509783e+00 -5.749328727713698406e+00 -6.187107481381241669e+00 -6.187107481381241669e+00 -6.527797110957961557e+00 -6.926689972661929318e+00 -7.119732532523421753e+00 -7.187401698296866037e+00 -7.369716039071416702e+00 -7.520192499361860961e+00 -7.745746389403709742e+00 -7.758000558947069081e+00 -7.971300279445556747e+00 -8.162962083966567306e+00 -8.229506843296961804e+00 -8.229506843296961804e+00 -8.315507168500971602e+00 -8.375453129805549679e+00 -8.535538802624966337e+00 -8.507178426109696545e+00 -8.713447623496637817e+00 -8.826989313658629044e+00 -8.955249438344649704e+00 -8.901964889109223122e+00 -9.078818170401993015e+00 -9.126932813687277601e+00 -9.211103620565978645e+00 -9.211103620565978645e+00 -9.397042877762743274e+00 -9.418368710069568550e+00 -9.500942331009047948e+00 -9.448712984916440405e+00 -9.473691057938239624e+00 -9.531252641981621920e+00 -9.488127068700929811e+00 -9.545625031891557200e+00 -9.652122272467597242e+00 -9.731652914124104825e+00 -9.711749697705913675e+00 -9.794123321803086313e+00 -9.883241746237288794e+00 -9.978348578552855841e+00 -9.978348578552855841e+00 -1.000192918513906548e+01 -1.011646378461377260e+01 -1.014885779828211909e+01
4.445683572011367879e+00 4.553864980455403000e+00 4.224474191192974182e+00 4.005869389045360940e+00 3.727899199317621370e+00 3.569391333763748175e+00 3.303045943030110898e+00 3.234572893714510400e+00 3.251831056077639115e+00 3.023961086095792172e+00 2.806442423163401756e+00 2.701379267942439100e+00 2.701379267942439100e+00 2.665163651675008349e+00 2.632797410378896252e+00 2.611114071513180424e+00 2.677154556663258855e+00 2.693060798774833842e+00 2.611876757414163031e+00 2.640014151770872619e+00 2.702345024417891040e+00 2.522363937299399339e+00 2.311291443335273144e+00 2.268606290949371385e+00 2.268606290949371385e+00 2.184397321035060457e+00 1.967427839297134273e+00 1.895974892542260370e+00 1.828944332865494182e+00 1.753305176057211590e+00 1.621741323761173748e+00 1.623854482235213670e+00 1.598188332256431421e+00 1.683956123208669275e+00 1.578215350361488412e+00 9.601033512273997594e-01 9.601033512273997594e-01 4.768963717533797886e-01 3.090152889609408815e-01 2.446456266583645900e-01 1.685032009537105746e-01 6.145052447890529679e-02 6.432034883306094603e-03 -3.733797404919221574e-02 -1.732743748511824111e-01 -3.898042377312081475e-01 -9.050164076738009822e-01 -1.025630905911201873e+00 -1.499484827541078591e+00 -2.066514851657316409e+00 -2.572067427106706550e+00 -2.572067427106706550e+00 -2.950353015757998687e+00 -3.221389192636038956e+00 -3.449665939476853183e+00 -3.463472489462492199e+00 -3.294531563912034944e+00 -3.014572228551811506e+00 -2.346181382233259782e+00 -2.237238297711112267e+00 -1.896622272894288308e+00 -2.148154954864171629e+00 -2.559471913390241049e+00 -2.559471913390241049e+00 -2.961940475188048261e+00 -3.410111109161268583e+00 -3.791927420981399344e+00 -3.800463112561182299e+00 -4.279949226574641052e+00 -4.718117093061536593e+00 -5.288696862117665987e+00 -5.390589148888254911e+00 -5.849186142777271336e+00 -6.272191414535480902e+00 -6.545704858198125642e+00 -6.545704858198125642e+00 -7.024440789060552248e+00 -7.239777574707974672e+00 -7.239777574707974672e+00 -7.403085341750663240e+00 -7.536645834497063490e+00 -7.758000558947069081e+00 -7.770254728490430196e+00 -7.979137526190523744e+00 -8.104147246838877550e+00 -8.146847444584224718e+00 -8.111870202527695639e+00 -8.249792811456218899e+00 -8.335450143775171128e+00 -8.469665210110422393e+00 -8.469665210110422393e+00 -8.619612071545557086e+00 -8.774848040587043485e+00 -8.901964889109223122e+00 -8.913399411560533281e+00 -8.983455231967315768e+00 -9.092402150411585282e+00 -9.204823045083522004e+00 -9.251790920935587081e+00 -9.349648587504812980e+00 -9.371352796414775810e+00 -9.401650202669189937e+00 -9.401650202669189937e+00 -9.410969893657018304e+00 -9.492200187750585272e+00 -9.545625031891557200e+00 -9.579341592053381760e+00 -9.693567432971779141e+00 -9.711749697705913675e+00 -9.856619988345137529e+00 -9.871294635557312347e+00 -9.904971109484101532e+00 -1.001334378035916650e+01 -1.005848853243767316e+01 -1.012526967285750956e+01 -1.016300246867938029e+01
4.686441204884953748e+00 4.549362335710120497e+00 4.549362335710120497e+00 4.168283882139193430e+00 3.888053638598568007e+00 3.569391333763748175e+00 3.473864193190911998e+00 3.430801407297487060e+00 3.251831056077639115e+00 3.019197292317776338e+00 3.032749330790147191e+00 2.885160732182409760e+00 2.777495315489856509e+00 2.701488598659095075e+00 2.701488598659095075e+00 2.705765050679125761e+00 2.735812463260551830e+00 2.735812463260551830e+00 2.764778401012035314e+00 2.855932762030932270e+00 2.702345024417891040e+00 2.697820918880634800e+00 2.467963532209467292e+00 2.266220276170809012e+00 2.296884848136233614e+00 2.276084223589189826e+00 2.132068620332541631e+00 2.086040206425580301e+00 1.860500325082643958e+00 1.860500325082643958e+00 1.772837303152422050e+00 1.725848603542629700e+00 1.598188332256431421e+00 1.630884216683524457e+00 1.604974256605637750e+00 1.528666809103850222e+00 9.547921703368411617e-01 9.069681318448418184e-01 5.438726326987686210e-01 2.448471707036359024e-01 1.186433574109015121e-01 1.186433574109015121e-01 2.750656486045487473e-02 -4.436043863274599652e-02 -1.732743748511824111e-01 -2.379183611271651066e-01 -5.526103242171305219e-01 -1.025630905911201873e+00 -1.577787928875522550e+00 -1.695647842149890838e+00 -2.145670524708812366e+00 -2.681942615280589415e+00 -2.969565275735309484e+00 -2.969565275735309484e+00 -3.256294905753292834e+00 -3.466062478681434911e+00 -3.466062478681434911e+00 -3.150336752613561053e+00 -2.697281362807685490e+00 -2.237238297711112267e+00 -2.056587060591071214e+00 -1.983977114365801597e+00 -2.319468532401604666e+00 -2.638498134677321971e+00 -2.758728239629589574e+00 -3.081922607164873096e+00 -3.512064350689316328e+00 -3.894957383715184296e+00 -3.894957383715184296e+00 -4.439277535767518934e+00 -4.974775157660381808e+00 -5.390589148888254911e+00 -5.474954510409615338e+00 -5.958039308365508546e+00 -6.237371921282196752e+00 -6.661664013378739035e+00 -6.789319517627510514e+00 -7.062620362169855781e+00 -7.269591849691177998e+00 -7.436454644429910665e+00 -7.436454644429910665e+00 -7.550176103974795438e+00 -7.782508898033791311e+00 -7.913286316352051486e+00 -7.913286316352051486e+00 -7.947492616803645049e+00 -8.045971316095993586e+00 -8.171631634445326142e+00 -8.119043532678931641e+00 -8.272492256122019327e+00 -8.482929622833623284e+00 -8.529912826650454249e+00 -8.601005959628732711e+00 -8.732910271343342856e+00 -8.831692962465156782e+00 -8.833914315058246203e+00 -8.954346562284278832e+00 -9.066453220431615279e+00 -9.232319945837559771e+00 -9.232319945837559771e+00 -9.252431549299817704e+00 -9.286763638452287140e+00 -9.380678482360258030e+00 -9.287755996504197142e+00 -9.408833315641905060e+00 -9.467983117125584158e+00 -9.611549235422241821e+00 -9.646748053922776123e+00 -9.673810269572221898e+00 -9.826252848490426572e+00 -9.888475093893150714e+00 -9.888475093893150714e+00 -1.000820828352314606e+01 -1.005783984956230448e+01 -1.012526967285750956e+01 -1.017714713907664148e+01
4.927198837758538730e+00 4.719654447689223709e+00 4.386882769799302473e+00 4.331510294963904606e+00 4.112882294947872275e+00 3.744558725872621174e+00 3.559993920163267767e+00 3.559993920163267767e+00 3.460353815897013963e+00 3.239174398333858562e+00 3.032749330790147191e+00 3.095971051400475460e+00 2.980182734414178913e+00 2.860656482871941630e+00 2.741839106804471182e+00 2.805373941301919416e+00 2.767812490665997771e+00 2.806481181140077830e+00 2.964582574638008339e+00 2.964582574638008339e+00 2.892077581036859968e+00 2.719059738551856231e+00 2.467963532209467292e+00 2.374000183980669920e+00 2.380401774429046213e+00 2.276084223589189826e+00 2.117820759837313105e+00 2.238461406176568413e+00 2.070786085069356908e+00 1.953700423244193463e+00 1.923988094676383431e+00 1.841769891526644942e+00 1.672295042460868242e+00 1.619203653270302468e+00 1.619203653270302468e+00 1.636458506126074575e+00 1.499810010211178213e+00 9.069681318448418184e-01 8.693545604730950060e-01 2.754270448293035800e-01 2.363966755880917703e-01 8.716674779743686929e-02 6.791400985296038029e-02 1.183254171361164397e-02 -7.377673622652355934e-02 -2.714287357684411206e-01 -2.714287357684411206e-01 -6.466192223813779227e-01 -1.180989360155838774e+00 -1.695647842149890838e+00 -1.775571872897792280e+00 -2.422493689946271012e+00 -2.752647071951833446e+00 -3.004470988852562918e+00 -3.039376701969816352e+00 -3.326106331987799258e+00 -3.416260435888408331e+00 -3.072820971054071482e+00 -3.032416412844252562e+00 -2.559185432250740355e+00 -1.938926578026674896e+00 -2.120018745661879755e+00 -2.120018745661879755e+00 -2.445574684353948758e+00 -2.826762051990447944e+00 -2.826762051990447944e+00 -3.226707925334986626e+00 -3.667520173614512213e+00 -3.996380085409599658e+00 -4.156500016130283193e+00 -4.660853453203096741e+00 -5.031849570062811416e+00 -5.542254729281300030e+00 -5.636917532678774378e+00 -5.946148365694207349e+00 -6.396638054095549641e+00 -6.916975021876281993e+00 -6.916975021876281993e+00 -7.191861709517278101e+00 -7.384778569590665143e+00 -7.469823947109158091e+00 -7.503193249788404628e+00 -7.612629363172596086e+00 -7.795584094939051134e+00 -7.823250752027773203e+00 -7.748137789023069821e+00 -7.908233236554421453e+00 -7.967810139085100829e+00 -8.082663855213686688e+00 -8.082663855213686688e+00 -8.252411622170608752e+00 -8.406629107645080978e+00 -8.601005959628732711e+00 -8.581621121866119140e+00 -8.694180663777256513e+00 -8.833914315058246203e+00 -8.951512274892849064e+00 -8.928083395779706777e+00 -9.106538964108429113e+00 -9.183711426735060357e+00 -9.222422232283550514e+00 -9.222422232283550514e+00 -9.281436200079165033e+00 -9.287013450704650452e+00 -9.287013450704650452e+00 -9.394998537210366152e+00 -9.532690424042394639e+00 -9.646748053922776123e+00 -9.636932101545372831e+00 -9.796134084771793482e+00 -9.859347524877334124e+00 -9.921838275399871065e+00 -1.000009861246648590e+01 -1.004587042554468290e+01 -1.013156593503009972e+01 -1.027257698046007661e+01
4.927198837758538730e+00 4.902043124234277904e+00 4.573315356759660943e+00 4.331510294963904606e+00 4.269385370881468411e+00 3.921604150598076988e+00 3.646447502953639841e+00 3.627029920880464609e+00 3.659996148141711814e+00 3.367646820999471657e+00 3.294167824583021265e+00 3.117500567342568640e+00 3.117500567342568640e+00 3.056149314068874911e+00 2.861748153749899437e+00 2.805373941301919416e+00 2.853242794766434720e+00 2.898892805680152396e+00 2.910166317571500016e+00 3.062748641088032464e+00 3.057841481886054424e+00 2.900058893218152800e+00 2.625312271888430526e+00 2.383775998258377715e+00 2.477431138642566033e+00 2.362488598692910280e+00 2.268213680377492825e+00 2.265308782929083442e+00 2.265308782929083442e+00 2.129411579963626178e+00 1.953947898617309775e+00 1.794462262974373612e+00 1.757610338248005721e+00 1.571830325894990388e+00 1.631733162849786867e+00 1.717450782661723130e+00 1.813842299460454388e+00 1.485866331792746076e+00 5.602894469866396276e-01 3.104735013833571644e-01 3.104735013833571644e-01 1.494638694173198723e-01 9.278283296431466542e-02 9.278283296431466542e-02 -3.133757592859161972e-02 -1.601193003614986843e-01 -3.416377846176215649e-01 -4.555088140399445873e-01 -8.802921457848432718e-01 -1.309317868640845983e+00 -1.921287278142353561e+00 -2.055320754989050425e+00 -2.506232362808492375e+00 -2.795412135920499530e+00 -3.084591909032506685e+00 -3.084591909032506685e+00 -3.391057545439502441e+00 -3.378472418270957345e+00 -3.032416412844252562e+00 -2.808229554391041383e+00 -2.095646427898294029e+00 -1.868646036292729740e+00 -2.145791746441254144e+00 -2.229765784641583259e+00 -2.499838174363430809e+00 -2.960558034272005923e+00 -3.352665564881964322e+00 -3.352665564881964322e+00 -3.783093755247266543e+00 -4.295576184187309465e+00 -4.660853453203096741e+00 -4.700792165591047400e+00 -5.216432864128273117e+00 -5.636917532678774378e+00 -6.029178857215264919e+00 -6.200074764456449117e+00 -6.567670857450590205e+00 -6.961508701786255138e+00 -7.075758032507735606e+00 -7.244699423597575461e+00 -7.375534212947850499e+00 -7.522865271951488353e+00 -7.522865271951488353e+00 -7.641350771953280940e+00 -7.651900700152479473e+00 -7.748137789023069821e+00 -7.749675322248077869e+00 -7.819281771477889720e+00 -7.902761494810742526e+00 -8.090369621869415440e+00 -8.113822410723308565e+00 -8.333511568942373771e+00 -8.444252809159364048e+00 -8.622010416741208161e+00 -8.622010416741208161e+00 -8.729177803143977954e+00 -8.858265682794485230e+00 -8.928083395779706777e+00 -9.001646294712195129e+00 -9.053669441765489267e+00 -9.131349187712524795e+00 -9.199135932148216455e+00 -9.220461489518694265e+00 -9.278618526139657874e+00 -9.354008910851453251e+00 -9.455040976025001598e+00 -9.455040976025001598e+00 -9.614908559389951037e+00 -9.703348921529757476e+00 -9.796134084771793482e+00 -9.852039189880104075e+00 -9.930289376055796424e+00 -1.000009861246648590e+01 -1.005020639015582162e+01 -1.011465320677856816e+01 -1.016856063893287043e+01
5.123009156019032950e+00 4.841228143370742032e+00 4.673539781944922034e+00 4.508938061376779771e+00 4.237784884391152751e+00 3.906825211967984490e+00 3.906825211967984490e+00 3.856752185416362888e+00 3.623477587356434881e+00 3.431011283920494925e+00 3.534573854384710501e+00 3.367381489456161781e+00 3.179089376875700257e+00 3.017257272762316145e+00 3.034819003073253363e+00 2.908502976719656186e+00 2.937118282976737937e+00 2.960975973017130336e+00 2.969443771676107513e+00 3.099141304041439504e+00 2.988081705886047601e+00 2.988081705886047601e+00 2.725270063898130868e+00 2.521647201769837032e+00 2.477431138642566033e+00 2.466711640600050437e+00 2.361483547376478587e+00 2.344233857889529649e+00 2.261564077269376138e+00 2.262926676138507620e+00 2.090239024820973235e+00 1.938445723255463271e+00 1.751142072954276374e+00 1.751142072954276374e+00 1.595927075176313714e+00 1.746136505459438215e+00 1.813842299460454388e+00 1.781853152423514608e+00 1.165031140345233363e+00 3.550237055341333159e-01 2.641002543790066381e-01 2.166035562506822831e-01 1.035367005033014098e-01 1.443658832210106130e-02 -1.088292036133946677e-01 -1.088292036133946677e-01 -1.611722982413549832e-01 -5.244139525303574967e-01 -8.802921457848432718e-01 -9.935055833951488280e-01 -1.527525067740582276e+00 -2.055320754989050425e+00 -2.191026698324679778e+00 -2.605062401451696985e+00 -2.844827155242101391e+00 -3.134006928354108990e+00 -3.241109005020502032e+00 -3.422416927512881735e+00 -3.255906551824090389e+00 -2.572635478832032696e+00 -2.572635478832032696e+00 -2.158344322651348346e+00 -2.008097625410451670e+00 -2.229765784641583259e+00 -2.308846370831715511e+00 -2.709098471476135472e+00 -3.066940134649824401e+00 -3.429626763056458749e+00 -3.526315399602389711e+00 -3.902225057267385111e+00 -4.363428580072707952e+00 -4.779961399729809379e+00 -4.779961399729809379e+00 -5.300226773552426884e+00 -5.769308829112807402e+00 -6.200074764456449117e+00 -6.285394751683027081e+00 -6.837698122703686821e+00 -7.075758032507735606e+00 -7.226707319905388616e+00 -7.262946635987761468e+00 -7.422361197650845455e+00 -7.572693807807603150e+00 -7.568009018689965117e+00 -7.568009018689965117e+00 -7.655150687453074809e+00 -7.745228904087480437e+00 -7.819281771477889720e+00 -7.810066682475294897e+00 -7.995115956971082127e+00 -8.113822410723308565e+00 -8.228859817160557810e+00 -8.345573668695433156e+00 -8.487727841707263465e+00 -8.600818339989965366e+00 -8.659829873524452992e+00 -8.740940203190637803e+00 -8.890093422862435091e+00 -9.040350988282085609e+00 -9.040350988282085609e+00 -9.087759748820856132e+00 -9.165311983268450646e+00 -9.220461489518694265e+00 -9.245378271993004660e+00 -9.291933494513493486e+00 -9.365800805639439730e+00 -9.508315782382750214e+00 -9.603577114251789837e+00 -9.627702881037766502e+00 -9.780020153246091752e+00 -9.873092548045317329e+00 -9.873092548045317329e+00 -9.978022663270817105e+00 -1.006614434806066960e+01 -1.011465320677856816e+01 -1.014389250454106772e+01
5.046898875435267939e+00 4.848045351555447802e+00 4.673539781944922034e+00 4.687283442893036778e+00 4.480714868824978048e+00 4.254026763090291041e+00 4.057236991741997478e+00 4.169753542664437873e+00 3.931979679804681549e+00 3.709312805118022194e+00 3.526829188087547085e+00 3.526829188087547085e+00 3.391446490593300389e+00 3.209592739474103951e+00 3.034819003073253363e+00 3.042464473944619385e+00 2.997492642395378493e+00 2.960975973017130336e+00 3.037933194808432269e+00 3.026327074028484887e+00 3.033287635851656727e+00 2.937971512833524201e+00 2.702474494638381852e+00 2.702474494638381852e+00 2.597036254293329183e+00 2.415669317496891288e+00 2.361483547376478587e+00 2.396677376975595575e+00 2.349497372292672637e+00 2.262926676138507620e+00 2.251890388201978954e+00 2.157303753601024887e+00 1.992331562169804116e+00 1.779420664696160337e+00 1.747950946129378069e+00 1.627648529168588487e+00 1.719252495691047766e+00 1.463107350324396538e+00 1.463107350324396538e+00 1.119634366868965447e+00 3.299800827559126182e-01 2.166035562506822831e-01 1.532687066745729576e-01 -2.609159212299761235e-02 -6.802828746220504486e-02 -1.312210175753099339e-01 -1.633180432037391605e-01 -2.317235081320358492e-01 -6.183648560134783478e-01 -1.092674245509371200e+00 -1.092674245509371200e+00 -1.644432723688867171e+00 -2.324054696390183583e+00 -2.605062401451696985e+00 -2.654477420773298846e+00 -2.989985399685394896e+00 -3.241109005020502032e+00 -3.419734524929889385e+00 -3.410014234565315938e+00 -3.251312981035932470e+00 -2.571995087071104802e+00 -2.022147570710203901e+00 -2.022147570710203901e+00 -2.089221940642803865e+00 -2.421167754833525532e+00 -2.421167754833525532e+00 -2.809760137983319694e+00 -3.208504935633910815e+00 -3.526315399602389711e+00 -3.620147289567348992e+00 -4.082903990328541788e+00 -4.427562460600812599e+00 -4.885548564293443974e+00 -4.954387944107386588e+00 -5.362538602763022411e+00 -5.944757489611909307e+00 -6.463032180953610428e+00 -6.463032180953610428e+00 -6.894791503840865587e+00 -7.094175471519609921e+00 -7.262946635987761468e+00 -7.294060303478652862e+00 -7.472922326503070423e+00 -7.511736123578735658e+00 -7.558591244692227207e+00 -7.556179634497473430e+00 -7.650704269292477377e+00 -7.727804678829203411e+00 -7.849404382876498332e+00 -7.849404382876498332e+00 -8.020088004781973368e+00 -8.188563847852371680e+00 -8.395425072057904003e+00 -8.395425072057904003e+00 -8.522757960420415557e+00 -8.647374045775826801e+00 -8.785038576005096189e+00 -8.852122899892725272e+00 -8.970488330239049901e+00 -8.995155987188450553e+00 -9.008759707386678528e+00 -9.110146921565345224e+00 -9.172335591785515163e+00 -9.220532942411344024e+00 -9.249906895373481319e+00 -9.337227675326287724e+00 -9.507063556976474317e+00 -9.618473660530156621e+00 -9.618473660530156621e+00 -9.763906221720391798e+00 -9.869320503017345203e+00 -9.945680233889875765e+00 -9.974993533295071657e+00 -1.009019935056593198e+01 -1.010218815666168268e+01 -1.021890366449208187e+01
4.943922164535042185e+00 4.943922164535042185e+00 4.758761962198805762e+00 4.735443917870000519e+00 4.735443917870000519e+00 4.556915741358553262e+00 4.437719751498668153e+00 4.169753542664437873e+00 4.218227196715559124e+00 4.002915198191518087e+00 3.756509128128708408e+00 3.613835675071331188e+00 3.603527533965599883e+00 3.411601020786893201e+00 3.211896867512359144e+00 3.053075238177358486e+00 3.053075238177358486e+00 3.020175346599276001e+00 2.988951665732869412e+00 3.026327074028484887e+00 3.011827253718760034e+00 2.967755896035670471e+00 2.805885947312352968e+00 2.670440102516445258e+00 2.716641369944093221e+00 2.579617469462290202e+00 2.446500444003250063e+00 2.401707027342300904e+00 2.401707027342300904e+00 2.368263987898560519e+00 2.304973082086218206e+00 2.157303753601024887e+00 2.193728426713282165e+00 1.981914723866685879e+00 1.747950946129378069e+00 1.660205862203137928e+00 1.624662691921640700e+00 1.728275054530498567e+00 1.482942728040839153e+00 1.587702579387227031e+00 9.355116586383995791e-01 2.228047223149150213e-01 2.438532915065680373e-02 2.438532915065680373e-02 -8.968719710451707183e-02 -1.553997107262338473e-01 -1.633180432037391605e-01 -9.684536748476861578e-02 -3.495030830877859929e-01 -6.833345847698829578e-01 -1.138151799433184896e+00 -1.249949305379235653e+00 -1.792685857969268826e+00 -2.414712666982893996e+00 -2.738465809216412250e+00 -2.738465809216412250e+00 -3.091160464601501179e+00 -3.431979016242476366e+00 -3.410014234565315938e+00 -3.493448660192732813e+00 -3.038687562602344627e+00 -2.149654741159668703e+00 -1.946118761807155151e+00 -1.948466064725298930e+00 -2.235675091060727482e+00 -2.488267391893041136e+00 -2.899812904626011267e+00 -2.932824272213532257e+00 -3.267381218005407373e+00 -3.720306625596956351e+00 -4.154652744288398480e+00 -4.154652744288398480e+00 -4.554664264458613943e+00 -5.031325699742409618e+00 -5.502378451726213981e+00 -5.680378348364806484e+00 -6.199159375252396131e+00 -6.557989675384451544e+00 -6.522640621546014650e+00 -6.894165971736725851e+00 -7.107895308739559326e+00 -7.310233375913945508e+00 -7.216123304568431429e+00 -7.363402259398323046e+00 -7.461654999702471258e+00 -7.551733216336875998e+00 -7.551733216336875998e+00 -7.636327586180517102e+00 -7.756833145419647302e+00 -7.899862292072749703e+00 -7.925706866391268868e+00 -8.105703649768535968e+00 -8.245569313615810358e+00 -8.430303222158636700e+00 -8.445048516821767493e+00 -8.562478479857244196e+00 -8.704148471642533025e+00 -8.896350495789103974e+00 -8.896350495789103974e+00 -8.934971023499208798e+00 -9.049279174343650922e+00 -9.110146921565345224e+00 -9.130719399553807847e+00 -9.187300070670264773e+00 -9.249906895373481319e+00 -9.411891719920719268e+00 -9.512905701458699070e+00 -9.592245669113626860e+00 -9.682254318173724172e+00 -9.826942470777728644e+00 -9.826942470777728644e+00 -9.961071091723955107e+00 -1.003462619557686253e+01 -1.003462619557686253e+01 -1.008641827057665807e+01 -1.019206700650808273e+01
4.973859763680230195e+00 4.854199624571664096e+00 4.866669134289605125e+00 4.846307888755399418e+00 4.720751893167958180e+00 4.732778939170473542e+00 4.732778939170473542e+00 4.482754899912514190e+00 4.262560290408061725e+00 4.002915198191518087e+00 3.994123877204525996e+00 3.831613327215270814e+00 3.603527533965599883e+00 3.401928206185891757e+00 3.385724834355482216e+00 3.182193839094632715e+00 3.065756229732038207e+00 3.086055047963655706e+00 2.991279301029193594e+00 2.978720806675326571e+00 2.935116799741788185e+00 2.935116799741788185e+00 2.883180303612118855e+00 2.824062212917851422e+00 2.716641369944093221e+00 2.705457630350703635e+00 2.562181027083906049e+00 2.447013074557692125e+00 2.437430667315969579e+00 2.462576596143590812e+00 2.444905104123999529e+00 2.370932670334119585e+00 2.214619331009546332e+00 2.144077512151266518e+00 1.943787173742564267e+00 1.757687809755749120e+00 1.695400845787730759e+00 1.695400845787730759e+00 1.887922563227605544e+00 1.644087006573865750e+00 5.952219924310285792e-01 4.713319894754754991e-01 2.651690334581943698e-01 6.373867700325906716e-03 -1.128890451212834906e-01 -1.423495653265934580e-01 -1.707531722666603413e-01 -1.855793589936721721e-01 -3.994829714317134073e-01 -3.994829714317134073e-01 -8.010385865389910709e-01 -1.388468513387069558e+00 -1.388468513387069558e+00 -2.066134204249048700e+00 -2.587587509661680940e+00 -2.827066936869232716e+00 -2.948113645924297810e+00 -3.339525003794691305e+00 -3.501882349647392978e+00 -3.402422547870231018e+00 -3.266526943621878232e+00 -2.682574856690882470e+00 -2.073817205396847108e+00 -2.001638906021864006e+00 -2.001638906021864006e+00 -2.320108332472867296e+00 -2.652617761422318754e+00 -2.932824272213532257e+00 -3.015628622921648017e+00 -3.532703391338759769e+00 -3.838075927355011796e+00 -4.211548601763981381e+00 -4.319283206343639492e+00 -4.640735724446609645e+00 -5.299776964976029348e+00 -5.781186922429146335e+00 -5.781186922429146335e+00 -6.167481156179275281e+00 -6.747880850872467917e+00 -6.894165971736725851e+00 -6.872582639080343725e+00 -7.041532639254408643e+00 -7.216123304568431429e+00 -7.367130364907467310e+00 -7.362683946746870767e+00 -7.457208581541874715e+00 -7.547286798176280342e+00 -7.542840380015682911e+00 -7.626063840826953211e+00 -7.804608627174417279e+00 -8.014807666897727501e+00 -8.014807666897727501e+00 -8.136746323753612842e+00 -8.338016726220514485e+00 -8.445048516821767493e+00 -8.464023214374210013e+00 -8.623258367279968084e+00 -8.798502734487080090e+00 -8.900625672196014193e+00 -8.859606155869890642e+00 -8.931867303077327236e+00 -9.045976761607716909e+00 -9.149880015099444819e+00 -9.149880015099444819e+00 -9.219783058062365200e+00 -9.379723904442313298e+00 -9.512905701458699070e+00 -9.580497339551236280e+00 -9.671707016495707521e+00 -9.748346130207970361e+00 -9.860484391593701048e+00 -9.910393523627156753e+00 -9.995259184019300136e+00 -1.009577929949831443e+01 -1.012217770738093314e+01 -1.012217770738093314e+01
4.931901193601694544e+00 4.851252900310494276e+00 4.928425730424902618e+00 4.928425730424902618e+00 4.866873615211589232e+00 4.907187232404332633e+00 4.791588553865198108e+00 4.703143392512632914e+00 4.424119289123066068e+00 4.251192999215473556e+00 4.013424324489633044e+00 4.063895656369718168e+00 3.826755830926240165e+00 3.603065639210606630e+00 3.361432328275124171e+00 3.361432328275124171e+00 3.218755559800528410e+00 3.105359529334580593e+00 2.972971540432635784e+00 3.042359957126289149e+00 2.981689795664013154e+00 3.009837358744873903e+00 2.859104308308322295e+00 2.895707403621274878e+00 2.834807870978347299e+00 2.652096438869487205e+00 2.774958543855001292e+00 2.637062221478249757e+00 2.543545133729903540e+00 2.494286368526900777e+00 2.494286368526900777e+00 2.483113242080677630e+00 2.407316579949696056e+00 2.144077512151266518e+00 2.220982024497228480e+00 1.959273413926692964e+00 1.756762399033778177e+00 1.915581910848218161e+00 1.866298447047348930e+00 1.861098314649194396e+00 1.088781783488415034e+00 5.715474422402394561e-01 5.715474422402394561e-01 1.089804531332690396e-01 -4.786492987108040970e-02 -1.423495653265934580e-01 -1.630863552653212811e-01 -1.934593527304168115e-01 -2.812476368626720680e-01 -4.635481864249393347e-01 -5.813605474099552417e-01 -9.601581784458037561e-01 -1.566104583676213080e+00 -2.187617184646210244e+00 -2.187617184646210244e+00 -2.667605815992852403e+00 -3.092041283331550705e+00 -3.339525003794691305e+00 -3.369816086820895062e+00 -3.421602778436611647e+00 -3.266526943621878232e+00 -2.533183493199565817e+00 -2.555136839191356035e+00 -2.227486704341587576e+00 -2.124964988668298638e+00 -2.134203630075903302e+00 -2.398755324451599780e+00 -2.736052777065848929e+00 -3.194606780877682795e+00 -3.194606780877682795e+00 -3.560090866600848614e+00 -3.984240969449099445e+00 -4.319283206343639492e+00 -4.433559953994179459e+00 -5.016179839962603637e+00 -5.317369891358254108e+00 -5.820054709135433768e+00 -5.758904753688504741e+00 -6.179243187553583816e+00 -6.701459747511249176e+00 -6.804625244634880943e+00 -6.804625244634880943e+00 -7.029596272732072215e+00 -7.223332675333397290e+00 -7.362683946746870767e+00 -7.358237528586274223e+00 -7.448315745220679851e+00 -7.542840380015682911e+00 -7.660211800456890430e+00 -7.709331545750190529e+00 -7.831024288883970286e+00 -8.025578441400837093e+00 -8.201050677952537171e+00 -8.201050677952537171e+00 -8.375414240979376146e+00 -8.495759827332825864e+00 -8.623258367279968084e+00 -8.719661902554713961e+00 -8.830763014152978485e+00 -8.859606155869890642e+00 -8.860738617392664551e+00 -9.006039893046942524e+00 -9.081378125350996200e+00 -9.154147064418191704e+00 -9.189659220751245527e+00 -9.273741503084737658e+00 -9.501994472986105222e+00 -9.602001528678227871e+00 -9.602001528678227871e+00 -9.732847632651267844e+00 -9.847343167901531302e+00 -9.910393523627156753e+00 -1.001552483474353039e+01 -1.008250876412095565e+01 -1.011898625003284558e+01 -1.016523034852408536e+01
4.902274073709410374e+00 4.856883685088814850e+00 4.887613814704128146e+00 4.978457810562963104e+00 4.913903263047666670e+00 4.851944965540056387e+00 4.882260028629938020e+00 4.634630480545118836e+00 4.634630480545118836e+00 4.408303700592048457e+00 4.235916902321209321e+00 4.063895656369718168e+00 4.080842978837068813e+00 3.814305378524081469e+00 3.580330828343387672e+00 3.390988327903184718e+00 3.437451816824645512e+00 3.300360403093407058e+00 3.134893509057206540e+00 3.029437491801725724e+00 3.029437491801725724e+00 3.069699255136673077e+00 2.958056010905235844e+00 2.895707403621274878e+00 2.953526231951806302e+00 2.881451393785659398e+00 2.774958543855001292e+00 2.642230715395982976e+00 2.656319613224225051e+00 2.537387063483333982e+00 2.524227392957713700e+00 2.479894657476751973e+00 2.479894657476751973e+00 2.355934537328483014e+00 2.225969036599563022e+00 1.959273413926692964e+00 1.976176430906811721e+00 1.891926416021152857e+00 1.866298447047348930e+00 1.824845109073330640e+00 1.429000760486809130e+00 1.223933537385906822e+00 6.879231493735888936e-01 3.564885248436963083e-01 6.564679784520066619e-02 -8.045529839691320517e-02 -1.632318968622583077e-01 -1.632318968622583077e-01 -2.714942684571160503e-01 -3.750084527096776421e-01 -5.813605474099552417e-01 -6.929475067172334857e-01 -1.276957237211216345e+00 -1.730082272369343643e+00 -2.300053813563795124e+00 -2.394008240985932012e+00 -2.792795854005250433e+00 -3.180236249622429234e+00 -3.361305362110877049e+00 -3.361305362110877049e+00 -3.447641369301151393e+00 -2.998379565852226758e+00 -2.555136839191356035e+00 -2.673886718551917507e+00 -2.316844290822349883e+00 -2.134203630075903302e+00 -2.468176198308781544e+00 -2.566094480179224924e+00 -2.822220300472417343e+00 -3.257775501711305033e+00 -3.677557772065223940e+00 -3.677557772065223940e+00 -4.107977325773630284e+00 -4.528030997196005991e+00 -4.528030997196005991e+00 -4.972696929482356865e+00 -5.410174485907464970e+00 -5.758904753688504741e+00 -5.838702425288428088e+00 -6.285410679695676350e+00 -6.593780457408349172e+00 -6.833896808287375890e+00 -6.857597542564850990e+00 -7.034734941533979935e+00 -7.239708466978949986e+00 -7.351829119437177873e+00 -7.351829119437177873e+00 -7.443869327060082419e+00 -7.570209231043897091e+00 -7.709331545750190529e+00 -7.736341711376673480e+00 -7.909939020145140276e+00 -8.027923333891415325e+00 -8.245730230282392270e+00 -8.272024203498475003e+00 -8.361761785224141263e+00 -8.542368262917406696e+00 -8.791054696866011042e+00 -8.791054696866011042e+00 -8.784241288240570711e+00 -8.907437346194862826e+00 -9.006039893046942524e+00 -9.021388075624916070e+00 -9.120994058166116858e+00 -9.250727534657970708e+00 -9.361720990484839078e+00 -9.489749519760735552e+00 -9.595695948715292189e+00 -9.661159714817690869e+00 -9.795692390651312920e+00 -9.837864487119340140e+00 -9.881594982074837219e+00 -1.003683501817836543e+01 -1.006742656753189458e+01 -1.012577275441827851e+01 -1.013839369054008799e+01
4.879206042007844246e+00 4.856883685088814850e+00 4.901027998467311519e+00 4.982970561583606184e+00 4.913903263047666670e+00 4.902793339199781997e+00 4.947233859640127740e+00 4.836745822508678572e+00 4.529207016873495029e+00 4.326426253999716032e+00 4.326426253999716032e+00 4.296124065074289788e+00 4.093678796976415235e+00 4.093678796976415235e+00 3.774970373085209552e+00 3.621280228806487589e+00 3.437451816824645512e+00 3.521481205201721920e+00 3.296815477681778184e+00 3.159431092474542790e+00 3.074795641010862557e+00 3.106959431474079825e+00 3.018427760772764756e+00 3.004719639478364179e+00 3.004777320206399871e+00 3.004777320206399871e+00 2.977429485618094063e+00 2.800399648312644985e+00 2.656319613224225051e+00 2.621825431353352442e+00 2.608419108128027464e+00 2.563022338643644815e+00 2.541406969938867277e+00 2.568964104045203367e+00 2.444000227165378014e+00 2.200977860280501464e+00 2.020466009947338382e+00 2.020466009947338382e+00 1.844674330867092316e+00 1.655768413594346899e+00 1.429000760486809130e+00 1.579892600924373447e+00 1.110184624192336766e+00 3.564885248436963083e-01 2.486048987282226536e-02 3.746326681252970178e-03 -1.115357291413891089e-01 -2.040038291952052663e-01 -2.376202480498726399e-01 -2.376202480498726399e-01 -3.585022996476275869e-01 -8.118089279358390309e-01 -8.118089279358390309e-01 -1.393421950624966321e+00 -1.963011699196843374e+00 -2.394008240985932012e+00 -2.599412371592889404e+00 -3.032939286737285745e+00 -3.237749823994397591e+00 -3.440783009002991832e+00 -3.571357896141277077e+00 -3.361202953564448315e+00 -3.043195931918264652e+00 -2.692395918795967624e+00 -2.692395918795967624e+00 -2.210728330809647257e+00 -2.284153340667065546e+00 -2.566094480179224924e+00 -2.587004892854170013e+00 -2.939100437420277157e+00 -3.269900670380667229e+00 -3.749331190886399323e+00 -3.859395190154765842e+00 -4.282290687662424489e+00 -4.650454862480206231e+00 -5.010182126368428079e+00 -5.000370491493870695e+00 -5.418271431571449526e+00 -5.873775030880484138e+00 -6.280048331847413401e+00 -6.280048331847413401e+00 -6.626260977320342249e+00 -6.843648267101697158e+00 -7.046866486003264818e+00 -7.060524921982148427e+00 -7.206790065589818717e+00 -7.345120942187977064e+00 -7.338412764938778921e+00 -7.485501802510950320e+00 -7.613621555615696757e+00 -7.772412355537893447e+00 -7.789630710916451761e+00 -7.919100344029218697e+00 -8.152542316253995835e+00 -8.282352950853127282e+00 -8.282352950853127282e+00 -8.461478158554841755e+00 -8.736250153099732074e+00 -8.760900356109942777e+00 -8.719495518284045232e+00 -8.830754597523700511e+00 -8.966103024486169915e+00 -9.050094288124975961e+00 -9.097953345420119575e+00 -9.159722647960862218e+00 -9.367563134967067384e+00 -9.556007433100495163e+00 -9.556007433100495163e+00 -9.647452096130122001e+00 -9.780067350588105057e+00 -9.837864487119340140e+00 -9.868929593307299797e+00 -1.005710066890259569e+01 -1.006742656753189458e+01 -1.014228147206951469e+01 -1.008456091306036839e+01
4.910690433639611996e+00 4.863665162428222999e+00 4.940897090153049120e+00 4.940897090153049120e+00 4.952133915690246191e+00 4.899648368189008174e+00 4.947233859640127740e+00 4.957446868058304368e+00 4.618310425162418298e+00 4.521759117408810980e+00 4.457060591358473545e+00 4.463263763330965084e+00 4.334930126747898349e+00 4.025545117837555864e+00 3.775694149651589893e+00 3.775694149651589893e+00 3.656175953580340199e+00 3.464363029693974028e+00 3.296815477681778184e+00 3.273550127526152487e+00 3.167901486357711960e+00 3.106959431474079825e+00 3.048635444094569102e+00 3.045608240602368344e+00 3.063579645879830782e+00 3.080120708727481116e+00 3.056892956125669691e+00 3.128780935058980361e+00 2.769094092718547007e+00 2.613207432943315034e+00 2.613207432943315034e+00 2.632495402225007997e+00 2.639603257749580045e+00 2.568964104045203367e+00 2.579593750717771528e+00 2.381073380096246694e+00 2.196158791561943158e+00 2.056408745248922365e+00 1.980557117811452272e+00 1.771849156193529451e+00 1.769219737485203670e+00 1.723017815893799654e+00 1.519443470515201344e+00 6.456647783741472635e-01 1.597925615600181426e-01 -1.823147623606966722e-02 -1.823147623606966722e-02 -1.125044633513123116e-01 -1.369236152469346102e-01 -6.935845941268689585e-02 -1.963287001011284061e-01 -5.247435946492662318e-01 -9.405690020281118890e-01 -1.510769285636653692e+00 -1.631481401432763656e+00 -2.090687883712238904e+00 -2.714592659635804761e+00 -3.065954415612681672e+00 -3.065954415612681672e+00 -3.367588543987800165e+00 -3.556667068932991782e+00 -3.556667068932991782e+00 -3.492603825444108079e+00 -2.977618164649121546e+00 -2.458537091601954216e+00 -2.392060981642089690e+00 -2.275998435641829687e+00 -2.400610422127635424e+00 -2.660506045445171441e+00 -2.703749322148869094e+00 -3.024683592446960390e+00 -3.464276530660554076e+00 -3.875199139598976661e+00 -3.875199139598976661e+00 -4.269817746324838126e+00 -4.690015350478169864e+00 -5.000370491493870695e+00 -5.126985882148830775e+00 -5.607435858752356062e+00 -5.926115179662773791e+00 -6.288652382472359470e+00 -6.371393861030496097e+00 -6.640899746694032046e+00 -6.886311586999361189e+00 -7.066847024064194294e+00 -7.066847024064194294e+00 -7.242709868649457761e+00 -7.417691061856737100e+00 -7.485501802510950320e+00 -7.574113046411170558e+00 -7.740065900775872088e+00 -7.789630710916451761e+00 -7.985924585077561311e+00 -8.111647956944841198e+00 -8.168634166017572085e+00 -8.322696568818020779e+00 -8.580042557014092353e+00 -8.580042557014092353e+00 -8.694235010540609210e+00 -8.745172286461681210e+00 -8.745172286461681210e+00 -8.919582314910908138e+00 -9.033366030321467122e+00 -9.097953345420119575e+00 -9.139848695014167745e+00 -9.350144348105359882e+00 -9.461395949989197973e+00 -9.567156510069064979e+00 -9.551439574138477440e+00 -9.688889416269420352e+00 -9.814945887309990624e+00 -1.000885679619359259e+01 -1.000885679619359259e+01 -9.998794372520329432e+00 -1.005076779907015805e+01 -1.008456091306036839e+01
4.842953896490440613e+00 4.618578949954132540e+00 4.832541572122646123e+00 4.902681783090040213e+00 4.830968190781426586e+00 4.843091550849189630e+00 4.917802448049588548e+00 4.880751456042647263e+00 4.880751456042647263e+00 4.612821845688645617e+00 4.507609687433035361e+00 4.349100276943064003e+00 4.349100276943064003e+00 4.110703711467856181e+00 3.929207234333188747e+00 3.817167112070824597e+00 3.833917349828428023e+00 3.648213087695035384e+00 3.477234782871298613e+00 3.246992487034406683e+00 3.338280142980312615e+00 3.169339995998051052e+00 3.116589373286830167e+00 3.073616048546470303e+00 3.073616048546470303e+00 3.065855463626052213e+00 3.056163815907692261e+00 2.926560827990625224e+00 2.876236869573048693e+00 2.773848486386182977e+00 2.685496673282989466e+00 2.649980853434937167e+00 2.692713111417479155e+00 2.645987363972595041e+00 2.534127392717266058e+00 2.319907841774651480e+00 2.319907841774651480e+00 2.282410823622075036e+00 1.997708583411249794e+00 1.997708583411249794e+00 1.814901157554426714e+00 1.856067786843950129e+00 1.519443470515201344e+00 1.288591417577849008e+00 6.167938050423241725e-01 3.113396518486640785e-01 -2.367568754595842859e-02 -7.524824526471761421e-03 -9.724438000125674997e-02 -8.549028019166970971e-02 -2.183483596556183293e-01 -2.183483596556183293e-01 -6.169862496042569644e-01 -1.187186533212798878e+00 -1.631481401432763656e+00 -1.714905411696251658e+00 -2.414267105625452992e+00 -2.771512091349841445e+00 -3.115255844216064496e+00 -3.188545789716595191e+00 -3.383611385581819508e+00 -3.571626359007642026e+00 -3.279778850567068638e+00 -3.279778850567068638e+00 -2.856761251445044891e+00 -2.540622046304242598e+00 -2.275998435641829687e+00 -2.295072500125455495e+00 -2.519811700700703483e+00 -2.703749322148869094e+00 -3.108747586230236948e+00 -3.149929355003672438e+00 -3.512887899297965077e+00 -3.913258118483202708e+00 -3.997918884791769933e+00 -4.337140851289050580e+00 -4.799345224308305013e+00 -5.236522032259798287e+00 -5.236522032259798287e+00 -5.669493265616504907e+00 -6.061951278254383624e+00 -6.371393861030496097e+00 -6.442049615933874485e+00 -6.747209371138483291e+00 -6.931830960454480106e+00 -7.146463607873920765e+00 -7.274022629286511332e+00 -7.347315994281945706e+00 -7.519495934071983356e+00 -7.725369037127457261e+00 -7.725369037127457261e+00 -7.854222393546860914e+00 -8.045982237725699093e+00 -8.111647956944841198e+00 -8.177235998914715864e+00 -8.334398458907873675e+00 -8.423834960928454407e+00 -8.670740344034241431e+00 -8.629715165285889000e+00 -8.698731198365999617e+00 -8.779114053648156002e+00 -8.966600586391182404e+00 -8.966600586391182404e+00 -9.078079218099301073e+00 -9.225930409983114089e+00 -9.350144348105359882e+00 -9.386474828254300462e+00 -9.442429907208820694e+00 -9.551439574138477440e+00 -9.688554672890163033e+00 -9.657485558486946786e+00 -9.763220599278234602e+00 -9.931153948415339272e+00 -9.842684839265716690e+00 -9.961805229744829404e+00 -9.981077178859726118e+00
4.479898255714529043e+00 4.419406924427330630e+00 4.419406924427330630e+00 4.608334096694876258e+00 4.721865239705655526e+00 4.831025338700412064e+00 4.799647132678030559e+00 4.900182525318411919e+00 4.726753223872441012e+00 4.550225763577226523e+00 4.485872790349429984e+00 4.423383503410474482e+00 4.208528863610755621e+00 4.120149223980151376e+00 4.046371988784801310e+00 3.967322441454749882e+00 3.861930676768388970e+00 3.861930676768388970e+00 3.677907217394420059e+00 3.370827656022080898e+00 3.338280142980312615e+00 3.282628408697158662e+00 3.171218710709206245e+00 3.097760202084172576e+00 3.090080467977110779e+00 3.030904078481736708e+00 2.962637459989750255e+00 2.966947321822189121e+00 2.888701418214524086e+00 2.888701418214524086e+00 2.794639036066968174e+00 2.687016695869113292e+00 2.692713111417479155e+00 2.699724283207101116e+00 2.620823143582019732e+00 2.531726814587494712e+00 2.389250681292514056e+00 2.465200228836893270e+00 2.304349847816471009e+00 2.035101320813010872e+00 1.812098218468123356e+00 1.812098218468123356e+00 1.647384028448080961e+00 1.384785046645022444e+00 6.167938050423241725e-01 5.114997469571503919e-01 8.693768131897465501e-02 -7.524824526471761421e-03 -5.650092190520157598e-02 -9.551045365632505890e-02 -1.328943198000986092e-01 -2.789067208531350595e-01 -3.495205234819637186e-01 -7.402950151966003478e-01 -1.237469049759680528e+00 -1.893362085945243578e+00 -1.893362085945243578e+00 -2.496627185958468775e+00 -2.914762310246938881e+00 -3.188545789716595191e+00 -3.259452333582429695e+00 -3.532489360999948147e+00 -3.487735487336523388e+00 -3.358027324251768420e+00 -3.343891809680330951e+00 -2.909759834720663019e+00 -2.585129540778357882e+00 -2.338684039085618060e+00 -2.338684039085618060e+00 -2.512396728797007039e+00 -2.802060673942069702e+00 -3.149929355003672438e+00 -3.174877764962105164e+00 -3.606376607379824240e+00 -3.997918884791769933e+00 -4.517723964616019217e+00 -4.661147054151996372e+00 -4.958318098581007582e+00 -5.324084655773974717e+00 -5.733913335290147018e+00 -5.733913335290147018e+00 -6.160464479409208494e+00 -6.540238750746220298e+00 -6.747209371138483291e+00 -6.844614075526782138e+00 -7.177087630682196462e+00 -7.274022629286511332e+00 -7.410261709393605400e+00 -7.611722431003910216e+00 -7.666339543343098306e+00 -7.845598300497064415e+00 -7.960921441832542911e+00 -7.957172251860377798e+00 -8.177298637936502246e+00 -8.305870937132603160e+00 -8.305870937132603160e+00 -8.406617846122721005e+00 -8.598548036458845800e+00 -8.629715165285889000e+00 -8.677966878447952226e+00 -8.734297304260493888e+00 -8.863791741998447549e+00 -9.021261153907778052e+00 -9.059433970210445608e+00 -9.119974742067473272e+00 -9.308381729565949669e+00 -9.386166637113946720e+00 -9.386166637113946720e+00 -9.420266998616547482e+00 -9.543099538946588467e+00 -9.657485558486946786e+00 -9.607666299780648345e+00 -9.775044415160726530e+00 -9.842684839265716690e+00 -9.912633221036688980e+00 -9.841283079766885322e+00
4.050710963955707733e+00 4.207082322786631856e+00 4.287032250672937472e+00 4.136651911767222245e+00 4.612827894167138787e+00 4.762289379997943328e+00 4.844840639358774403e+00 4.844840639358774403e+00 4.836017767189568772e+00 4.663399643636600977e+00 4.485872790349429984e+00 4.451926521038886975e+00 4.266375043847056681e+00 4.120149223980151376e+00 4.072682366005492938e+00 4.168353257114567612e+00 4.008341637391490409e+00 3.833774080127422490e+00 3.698037615701363912e+00 3.698037615701363912e+00 3.500557212155215314e+00 3.213770562167916456e+00 3.171218710709206245e+00 3.154318717753420653e+00 3.130490358574898213e+00 3.030904078481736708e+00 2.972151232979834301e+00 3.011074719657865550e+00 2.992228164725720951e+00 2.917395077779366019e+00 2.923348245135856338e+00 2.841033416311550930e+00 2.759798729473557533e+00 2.675787567608241879e+00 2.675787567608241879e+00 2.657277785085530475e+00 2.573828269181839268e+00 2.465200228836893270e+00 2.506737950732558673e+00 2.246182287563566859e+00 2.011588908753856320e+00 1.875394071239373517e+00 1.960289166480146728e+00 1.810804090508786768e+00 1.391306789396952626e+00 2.826390872442917090e-01 2.826390872442917090e-01 1.123342800501903327e-01 -1.085057311356934506e-01 -9.551045365632505890e-02 -1.073699258853615113e-01 -1.638669262517002956e-01 -3.495205234819637186e-01 -8.059290888165131506e-01 -8.799903650084406337e-01 -1.340917696525549374e+00 -2.057907956609688060e+00 -2.598563028761167182e+00 -2.598563028761167182e+00 -2.983967037008746104e+00 -3.290813068093705773e+00 -3.290813068093705773e+00 -3.503658795845337348e+00 -3.479921530965471632e+00 -3.343891809680330951e+00 -3.300528527689782443e+00 -2.894983617146636323e+00 -2.580700673235825970e+00 -2.368469237269509975e+00 -2.467383264504388940e+00 -2.546654861052568553e+00 -2.823221138214484505e+00 -3.234743793186993344e+00 -3.234743793186993344e+00 -3.636952734742238569e+00 -4.285533298258123125e+00 -4.661147054151996372e+00 -4.701215007304465843e+00 -5.031190008607309139e+00 -5.401777994161836460e+00 -5.818288707077892141e+00 -5.889029264594066504e+00 -6.237513021658051215e+00 -6.608912394894900899e+00 -7.048618528441116027e+00 -7.157310027144211162e+00 -7.315346270360319814e+00 -7.557105318664720350e+00 -7.758566040275023390e+00 -7.758566040275023390e+00 -7.951130700218255853e+00 -8.058182813446148174e+00 -8.149249225051654832e+00 -8.242949318928161517e+00 -8.338520624534828229e+00 -8.360396672839506493e+00 -8.526423427457514137e+00 -8.526355728883451945e+00 -8.565195320031168791e+00 -8.649303610261400266e+00 -8.693107399062572682e+00 -8.808001169085986959e+00 -8.995719118671598125e+00 -9.100100789120777023e+00 -9.100100789120777023e+00 -9.228247913813996561e+00 -9.262870528873479614e+00 -9.318802792420207481e+00 -9.294284686326767186e+00 -9.397644405003015677e+00 -9.504067842083799178e+00 -9.578985786577101535e+00 -9.565567358481795068e+00 -9.686575306011102171e+00 -9.764253237921458606e+00 -9.783317029490468997e+00
3.758462920098186277e+00 3.680079059994239454e+00 3.707251938274165326e+00 4.136651911767222245e+00 3.984258537608773132e+00 4.244463781201877950e+00 4.582759860041297983e+00 4.945937213672472410e+00 4.897795921585549550e+00 4.830145372830999762e+00 4.656471954903668831e+00 4.527196414058145990e+00 4.527196414058145990e+00 4.394963982074293618e+00 4.370717877137287211e+00 4.168353257114567612e+00 4.273115305142955123e+00 4.105848130159682086e+00 3.893743115854459980e+00 3.529881638630130158e+00 3.625241092374831275e+00 3.449392537724591978e+00 3.258852621458207643e+00 3.164117865870120117e+00 3.164117865870120117e+00 3.066038457599078004e+00 2.996078104304358281e+00 3.011074719657865550e+00 3.035233861667015809e+00 2.990801356151875368e+00 2.923348245135856338e+00 2.860384699438771605e+00 2.845196970954587457e+00 2.782857203801099022e+00 2.706272300866074065e+00 2.637205109230079447e+00 2.637205109230079447e+00 2.545259463323741755e+00 2.423408577418637577e+00 2.423408577418637577e+00 2.295169941212320541e+00 2.099641742694965174e+00 1.960289166480146728e+00 1.970869702210872543e+00 1.775170412649962337e+00 9.704545365070098573e-01 4.490163412034789414e-01 3.927487006344678733e-01 1.245650139422514874e-01 -1.180565591166673478e-01 -1.862920374792575440e-01 -1.862920374792575440e-01 -3.102044195941229821e-01 -4.937710348230884283e-01 -1.056468657774960240e+00 -1.056468657774960240e+00 -1.689599401341430829e+00 -2.293669638209388850e+00 -2.673413844828709252e+00 -2.722524762286133715e+00 -3.048737349164042598e+00 -3.319030608516915670e+00 -3.439272961440622112e+00 -3.496987469551033456e+00 -3.463080360036538075e+00 -3.203784039662847860e+00 -2.952564621695766167e+00 -2.952564621695766167e+00 -2.685872039262840794e+00 -2.472746776151913739e+00 -2.547623346555413448e+00 -2.594475828680401719e+00 -2.957557922525139382e+00 -3.276709528221000145e+00 -3.374676047817367852e+00 -3.905516787264185830e+00 -4.359178606324691785e+00 -4.710087516135041952e+00 -4.726767024314884935e+00 -5.068996748014952480e+00 -5.492680514998527386e+00 -5.947747923999067154e+00 -5.947747923999067154e+00 -6.362519896417257570e+00 -6.864469895845105363e+00 -7.157310027144211162e+00 -7.289903332876885855e+00 -7.648351856313947650e+00 -7.703948927935835300e+00 -7.905409649546138340e+00 -8.043849007298987885e+00 -8.059451220016253359e+00 -8.252516212377610572e+00 -8.308872291349455708e+00 -8.308872291349455708e+00 -8.401513111861758532e+00 -8.499613862679224141e+00 -8.526355728883451945e+00 -8.500544543619055204e+00 -8.599719194971575220e+00 -8.693107399062572682e+00 -8.915115918842484888e+00 -8.952332637231878110e+00 -9.044665962624216959e+00 -9.182073093763353455e+00 -9.211815529934929359e+00 -9.211815529934929359e+00 -9.195544338161626641e+00 -9.284883497545356690e+00 -9.284883497545356690e+00 -9.352351119428647053e+00 -9.423139075703744538e+00 -9.565567358481795068e+00 -9.530465772756487652e+00 -9.588797944117473548e+00 -9.703402766269876523e+00
