2.314380965250948829e+00 1.964444696470832419e+00 1.763000333943954612e+00 1.495477380835344983e+00 3.121424732122617396e-01 -2.937639940033702768e-01 4.742879403468721056e-01 6.433747471061226353e-01 6.982351158816535452e-01 7.445287512097865656e-01 7.110598437676932670e-01 7.110598437676932670e-01 6.068872473477358032e-01 3.758175077241476814e-01 1.011934320119358688e-01 -1.907660264886493554e-02 -5.893749945047188632e-01 -7.941943169420755400e-01 -7.391034328292485078e-01 -5.646819984882620602e-01 -5.554032497016586634e-01 -6.905403853106608647e-01 -9.312288697711327279e-01 -1.047090237235501098e+00 -1.595325790390088594e+00 -2.139150274031998311e+00 -2.139150274031998311e+00 -1.827237636825558065e+00 -2.263034655174439802e+00 -2.272755023583494793e+00 -2.416516104383773733e+00 -2.698586881687122130e+00 -2.701837567796429251e+00 -2.812004356521347948e+00 -2.826989083640635059e+00 -2.973821320425747761e+00 -3.112034152987235736e+00 -2.970835505388079500e+00 -2.970835505388079500e+00 -2.516892194895681278e+00 -2.417360548208392856e+00 -2.704485718621112866e+00 -2.989764723006473446e+00 -3.598699847839628596e+00 -3.642308454174510768e+00 -3.627558452229961539e+00 -3.596702865612605216e+00 -3.491096891969378557e+00 -3.464696649722601052e+00 -3.623893233654502666e+00 -3.623893233654502666e+00 -3.979413639730210672e+00 -4.315237692234390465e+00 -4.315237692234390465e+00 -4.642486636359666186e+00 -4.951552198433826213e+00 -4.973973738760868457e+00 -5.123713649768839140e+00 -5.357771790913642640e+00 -5.435831070134508280e+00 -5.558685992921537533e+00 -5.632700838555923184e+00 -5.714478629861703851e+00 -5.845313846631423615e+00 -6.023889853900065816e+00 -6.023889853900065816e+00 -6.220616147903248461e+00 -6.440702418762088044e+00 -6.562510324103525861e+00 -6.626794172271910810e+00 -6.841773900421636689e+00 -6.977908069467437358e+00 -7.192195268417168386e+00 -7.326805353486011363e+00 -7.416681370858199784e+00 -7.598795912623702797e+00 -7.795995532984846932e+00 -7.795995532984846932e+00 -7.993795176517886958e+00 -8.148166500805100299e+00 -8.222123666373924777e+00 -8.301595965563725699e+00 -8.446741261565058778e+00 -8.511412327903039809e+00 -8.653472474299572781e+00 -8.735880083709576027e+00 -8.867776178213770066e+00 -8.891287120828682333e+00 -8.971510033304042508e+00 -9.033389730472283219e+00 -9.061999837256776047e+00 -9.125638548798892913e+00 -9.191083277389953565e+00 -9.198837952992917621e+00 -9.248923484141432283e+00 -9.404882766474219835e+00 -9.404882766474219835e+00 -9.407168413150916564e+00 -9.458526711935320463e+00 -9.500810028912143324e+00 -9.495844409969333100e+00 -9.618273547032266890e+00 -9.581696114992919178e+00 -9.637117409070610208e+00 -9.663287371986713836e+00 -9.679606170231412676e+00 -9.741518928447950643e+00 -9.787829759777981309e+00 -9.787829759777981309e+00 -9.796098173478210214e+00 -9.851890098026903075e+00 -9.920510099233975865e+00 -9.941346904606227497e+00 -9.969401728072964985e+00 -1.001596475461449742e+01 -1.009466947066253795e+01
2.381057778947267334e+00 2.165889058997710670e+00 1.705496137472002127e+00 1.222799879303471338e+00 1.222799879303471338e+00 6.785266770563320726e-01 6.480084491700813798e-01 6.433747471061226353e-01 6.559004273801714024e-01 6.938222272984693184e-01 7.109148021756497293e-01 6.101191479687415598e-01 4.417652937225786669e-01 4.192096679095553835e-01 1.733907955286797253e-01 -3.434209860505746392e-01 -3.434209860505746392e-01 -6.858727734887674066e-01 -6.208514099258921615e-01 -5.646819984882620602e-01 -6.329309744351637734e-01 -8.716382897486509851e-01 -9.312288697711327279e-01 -1.372345138010435672e+00 -1.709970313149700161e+00 -1.942464128420746450e+00 -2.273308442073954883e+00 -2.282537850390379486e+00 -2.282537850390379486e+00 -2.441949004356501973e+00 -2.527955488925457850e+00 -2.527955488925457850e+00 -2.684646031819295509e+00 -2.843081615281996655e+00 -2.826989083640635059e+00 -2.937985300976670544e+00 -2.943062132305360734e+00 -2.964745705667377607e+00 -2.741917024424832761e+00 -2.504965367503483087e+00 -2.451099099457536568e+00 -2.798136874953676134e+00 -3.338860540616447548e+00 -3.338860540616447548e+00 -3.750715769519389120e+00 -3.665315549479649437e+00 -3.596702865612605216e+00 -3.401359186043450222e+00 -3.380797093118581564e+00 -3.439262884636380413e+00 -3.783463988687268742e+00 -4.088952590631238948e+00 -4.162913966086347450e+00 -4.512934221498045240e+00 -4.827586104848206716e+00 -5.017925073043591588e+00 -5.054212838481912051e+00 -5.273208755412789550e+00 -5.399643188741064748e+00 -5.399643188741064748e+00 -5.555474555809938764e+00 -5.682476573936082964e+00 -5.762162526283887587e+00 -5.836760283171699371e+00 -6.022657472043998261e+00 -6.093429158799507306e+00 -6.203382507191091300e+00 -6.364914678287163952e+00 -6.519539816098222751e+00 -6.712398758991193759e+00 -6.845383961403747719e+00 -6.964795137427007177e+00 -7.187018322933790060e+00 -7.430466212522921055e+00 -7.430466212522921055e+00 -7.630553028756044576e+00 -7.811888557369813135e+00 -7.920418156771171780e+00 -8.001412461311671720e+00 -8.155783785598885061e+00 -8.229160805345598462e+00 -8.382070195227075970e+00 -8.459864288495820617e+00 -8.524535354833801648e+00 -8.664356973541725182e+00 -8.805641787021802003e+00 -8.805641787021802003e+00 -8.891882915117081509e+00 -8.973556532605428515e+00 -9.033389730472283219e+00 -9.070441306526149106e+00 -9.137798436963613824e+00 -9.191083277389953565e+00 -9.238605785077828259e+00 -9.257495228994155667e+00 -9.322938454067498881e+00 -9.377315070679088649e+00 -9.473237242362106514e+00 -9.473237242362106514e+00 -9.513116713583411155e+00 -9.545075301597689688e+00 -9.545075301597689688e+00 -9.588718160098110843e+00 -9.641948712297834234e+00 -9.663287371986713836e+00 -9.677870424576926922e+00 -9.758806394043045174e+00 -9.739822191829194509e+00 -9.824290020473927854e+00 -9.793989656260603027e+00 -9.894490760189199818e+00 -9.905270530252540340e+00 -9.966703807668551462e+00 -9.966703807668551462e+00 -9.999742399721462505e+00 -1.007875811713136116e+01
2.381057778947267334e+00 1.950343392569565459e+00 1.729353859510629476e+00 1.519629006191864029e+00 9.073684516750447626e-01 7.804861468670507563e-01 5.446739662775375024e-01 5.681700739385786569e-01 6.380669867527353212e-01 6.380669867527353212e-01 6.407249043120553100e-01 5.110127410926796898e-01 4.417652937225786669e-01 3.593414889712137628e-01 1.835060723622010115e-01 4.401255218430547705e-02 -5.125134977254067747e-01 -6.994530470350388551e-01 -7.348788637915246724e-01 -6.056739099653356551e-01 -7.723560566318981024e-01 -7.723560566318981024e-01 -1.106156984697749479e+00 -1.492100477008974968e+00 -1.903949198623964278e+00 -1.903949198623964278e+00 -2.288256155186107144e+00 -2.517781448922366661e+00 -2.479865226639434539e+00 -2.548049334344425709e+00 -2.532000920454716031e+00 -2.619836818335095963e+00 -2.781310129393045116e+00 -2.769690689525061700e+00 -2.933212737195264985e+00 -2.961154427051721161e+00 -2.743487776474759166e+00 -2.743487776474759166e+00 -2.525821125897797614e+00 -2.541367038078354845e+00 -2.541367038078354845e+00 -3.024445338098899150e+00 -3.502058563325336493e+00 -3.667131767383601026e+00 -3.587450030073491281e+00 -3.448054190056343948e+00 -3.490814445472036454e+00 -3.358019034952242965e+00 -3.536695885406694551e+00 -3.642913269468940118e+00 -3.941092123963590321e+00 -4.267756313906855503e+00 -4.267756313906855503e+00 -4.603723273084410650e+00 -4.934294803749930125e+00 -5.017925073043591588e+00 -5.146025723746853409e+00 -5.328260174277522410e+00 -5.370784908494186993e+00 -5.508784281429121243e+00 -5.620744590987118094e+00 -5.651610582461600529e+00 -5.811164751572419185e+00 -5.973207387765454790e+00 -5.973207387765454790e+00 -6.160453219669522085e+00 -6.299849055305916323e+00 -6.364914678287163952e+00 -6.496482174523571018e+00 -6.719038216001735897e+00 -6.845383961403747719e+00 -7.095117927655442358e+00 -7.212444273240830483e+00 -7.324795969228417469e+00 -7.526522513431583405e+00 -7.746464242653945398e+00 -7.746464242653945398e+00 -7.931478566718773493e+00 -8.082406765852169883e+00 -8.082406765852169883e+00 -8.236778090139383224e+00 -8.392190192046346198e+00 -8.459864288495820617e+00 -8.537658381764563487e+00 -8.675241472783877583e+00 -8.740607301172317989e+00 -8.864812104227024037e+00 -8.892478709405482462e+00 -8.918431926259257736e+00 -9.035662916874386497e+00 -9.130626358101297413e+00 -9.130626358101297413e+00 -9.200854464689193435e+00 -9.241777974432942244e+00 -9.257495228994155667e+00 -9.332352680599237615e+00 -9.396235360820982763e+00 -9.417926527743667009e+00 -9.469337528691355033e+00 -9.518808622252455720e+00 -9.496165429975174987e+00 -9.619640063421030618e+00 -9.622506753477368946e+00 -9.622506753477368946e+00 -9.672985256865949566e+00 -9.711672009724477306e+00 -9.758806394043045174e+00 -9.729941336152093001e+00 -9.815015553471173604e+00 -9.793989656260603027e+00 -9.848169959885765934e+00 -9.893663390779421363e+00 -9.932422376264025132e+00 -9.964588684650848904e+00 -9.983520044828431139e+00 -1.001824300929174427e+01
2.340171755730664938e+00 1.932360551674637827e+00 1.572884539299618911e+00 1.572884539299618911e+00 1.207281988215635149e+00 4.865664534047253742e-01 2.484113680625185949e-01 -1.362860106771896229e-01 4.521845310908610416e-01 6.309583300363714731e-01 5.814909522714161172e-01 5.070375999647052101e-01 4.425776263754307438e-01 3.044330745908456759e-01 5.908153312502617549e-02 5.908153312502617549e-02 -3.514021250988969558e-01 -6.469110348711561986e-01 -6.469110348711561986e-01 -6.743171538784521468e-01 -7.810970863456176971e-01 -9.456459434934901820e-01 -1.145253058677544455e+00 -1.346854444887221058e+00 -1.686335210659337003e+00 -2.074840162112871589e+00 -2.210110980763539956e+00 -2.463345113566406397e+00 -2.499849930651057317e+00 -2.470863877057615454e+00 -2.470863877057615454e+00 -2.436718611680169122e+00 -2.608190743160980318e+00 -2.769690689525061700e+00 -2.884585852638272385e+00 -2.969386168213266508e+00 -2.805347765297312002e+00 -2.563250375453927088e+00 -2.479309641358928840e+00 -2.329764392097876780e+00 -2.735694764323644890e+00 -3.259355050740949444e+00 -3.259355050740949444e+00 -3.705669485019125187e+00 -3.535962823829570389e+00 -3.448054190056343948e+00 -3.352512642735499870e+00 -3.342033004626548731e+00 -3.536695885406694551e+00 -3.835233106528060709e+00 -3.986408024037697118e+00 -4.159086209352523156e+00 -4.481724523833578999e+00 -4.722475693007303299e+00 -4.817017257617722592e+00 -5.139038080326283620e+00 -5.291748142037810076e+00 -5.291748142037810076e+00 -5.463156891480071664e+00 -5.589878599512635660e+00 -5.620744590987118094e+00 -5.687131517379699019e+00 -5.846504708896730129e+00 -5.941241869594189318e+00 -6.117523932147951982e+00 -6.211212045736378862e+00 -6.254141333257948077e+00 -6.420713930231606525e+00 -6.628049670759978085e+00 -6.628049670759978085e+00 -6.865463685989606546e+00 -7.115669749324474935e+00 -7.212444273240830483e+00 -7.329666769977571050e+00 -7.529562951055119413e+00 -7.624399848583616190e+00 -7.850837320984919820e+00 -7.947820783388750421e+00 -8.022289452369141927e+00 -8.163401070392669823e+00 -8.317772394679881387e+00 -8.317772394679881387e+00 -8.472134962090519750e+00 -8.615452475033306357e+00 -8.675241472783877583e+00 -8.745334518635058174e+00 -8.861848030240276231e+00 -8.892478709405482462e+00 -8.924446724356243976e+00 -9.037936103276493327e+00 -9.080765485655421188e+00 -9.150492234903634170e+00 -9.205899911969630978e+00 -9.208595675980115303e+00 -9.266909455525894401e+00 -9.427660228974620082e+00 -9.427660228974620082e+00 -9.428684642336419230e+00 -9.480148345447387825e+00 -9.518808622252455720e+00 -9.502214661186242139e+00 -9.623185216896857241e+00 -9.595740205203306061e+00 -9.646780015525056484e+00 -9.685739512805675133e+00 -9.676134678922437615e+00 -9.769406862909566058e+00 -9.768799153042753147e+00 -9.768799153042753147e+00 -9.791881139042997617e+00 -9.844449821744628792e+00 -9.893663390779421363e+00 -9.922486660963180327e+00 -9.959775641228731047e+00 -9.983520044828431139e+00 -1.005054860887545587e+01
2.360407127560542939e+00 1.921159747373536675e+00 1.755067138623941370e+00 1.608631549142915951e+00 1.519006906123532286e+00 6.908885321757073372e-01 -1.592261442064313859e-01 -1.259707033372708673e-01 -1.259707033372708673e-01 5.637548989496812268e-01 5.525423762151808749e-01 5.070375999647052101e-01 4.347385802202926031e-01 3.306056730006529110e-01 1.998507965413525433e-01 -1.054035073869942080e-01 -2.389920229068437374e-01 -5.808980460507486843e-01 -7.671032379789952671e-01 -7.443421464517117059e-01 -7.443421464517117059e-01 -1.039139355783138319e+00 -1.121441655865252240e+00 -1.346854444887221058e+00 -1.475776235257543201e+00 -1.956876847960674182e+00 -2.210110980763539956e+00 -2.429417424053627261e+00 -2.566502690431503808e+00 -2.489912933506799320e+00 -2.458751713751500478e+00 -2.586085759867289724e+00 -2.519676559710655628e+00 -2.775821788233816534e+00 -2.979756083794742327e+00 -2.979756083794742327e+00 -2.895284037452038994e+00 -2.650137761490701127e+00 -2.479309641358928840e+00 -2.385280686599533961e+00 -2.700321545390562683e+00 -3.014594145449963403e+00 -3.540931348605889095e+00 -3.837401511841858515e+00 -3.685924103657084672e+00 -3.490494344607993682e+00 -3.258658827841858230e+00 -3.258658827841858230e+00 -3.470182448550970022e+00 -3.796348346239842186e+00 -3.986408024037697118e+00 -4.295724702879986090e+00 -4.643583760523395831e+00 -4.722475693007303299e+00 -5.047140582903725914e+00 -5.221980830853913069e+00 -5.248902242554210673e+00 -5.415746543378620714e+00 -5.561281397705377216e+00 -5.561281397705377216e+00 -5.656265525905216585e+00 -5.753518443772281721e+00 -5.846504708896730129e+00 -5.977362644726609275e+00 -6.169208179431313610e+00 -6.211212045736378862e+00 -6.304900159324803965e+00 -6.476513182176044658e+00 -6.552281426468012704e+00 -6.778381076205056033e+00 -6.896668092621581536e+00 -7.000872401238674492e+00 -7.235884857677671533e+00 -7.441280206159969879e+00 -7.441280206159969879e+00 -7.627440286207149533e+00 -7.844637725028574593e+00 -7.947820783388750421e+00 -8.035884006949396863e+00 -8.197237668871231620e+00 -8.244395374933167986e+00 -8.398766699220381327e+00 -8.479761003760879490e+00 -8.550781408695325325e+00 -8.686125972026029984e+00 -8.810940199629559544e+00 -8.810940199629559544e+00 -8.893074503693881638e+00 -8.974492831404139892e+00 -9.037936103276493327e+00 -9.091089664784695046e+00 -9.165112626215679015e+00 -9.205899911969630978e+00 -9.244950163788056230e+00 -9.276323682057631359e+00 -9.341766907130978126e+00 -9.405807363551181410e+00 -9.484537925048325491e+00 -9.500990735099566820e+00 -9.524500530921500285e+00 -9.565375123937396751e+00 -9.627586631478006751e+00 -9.633003284255135412e+00 -9.651611318752280511e+00 -9.674398933267950085e+00 -9.674398933267950085e+00 -9.773106795941966851e+00 -9.759283849675139066e+00 -9.805741086468417578e+00 -9.789772621825392207e+00 -9.840729683603491651e+00 -9.884924248666209223e+00 -9.939523104863873471e+00 -9.954962597806614966e+00 -9.967297689935397997e+00 -1.002466921830270152e+01
2.088998071574035276e+00 1.921159747373536675e+00 1.900274763441206716e+00 1.698646605931667608e+00 1.519006906123532286e+00 1.106599098543809667e+00 1.780473811493982206e-02 -2.992250231510735214e-01 1.737883402003111422e-01 5.358675300478947801e-01 5.349874850596838538e-01 4.728046977023853126e-01 3.735781692020831435e-01 3.735781692020831435e-01 2.058982095615159713e-01 5.710847780983320521e-02 -2.389920229068437374e-01 -4.898560525177305114e-01 -8.845048817082536985e-01 -8.159405801428808447e-01 -8.734451808352924340e-01 -1.048631169441724298e+00 -1.080596764415824751e+00 -1.199343911680734731e+00 -1.627057483449239061e+00 -1.627057483449239061e+00 -2.212640347475935076e+00 -2.523155628922848948e+00 -2.566502690431503808e+00 -2.622125472946382096e+00 -2.493535309081239770e+00 -2.586085759867289724e+00 -2.704383921964231163e+00 -2.843746966595300574e+00 -2.799583527654108561e+00 -2.899834717035520093e+00 -2.820965881622473415e+00 -2.820965881622473415e+00 -2.600081758586315406e+00 -2.333526665276886458e+00 -2.333526665276886458e+00 -3.010368403935510973e+00 -3.672955298706020777e+00 -3.837401511841858515e+00 -3.859290265933531749e+00 -3.641975516171211069e+00 -3.453180089744367631e+00 -3.227761728974189115e+00 -3.291605363590945910e+00 -3.606288668441987699e+00 -4.067131300733751509e+00 -4.538631459195166862e+00 -4.538631459195166862e+00 -4.895743142554265681e+00 -5.156618287317338734e+00 -5.221980830853913069e+00 -5.312847599133946552e+00 -5.479366053859580532e+00 -5.517710791142156346e+00 -5.647919056492825440e+00 -5.713935706802917736e+00 -5.722652452297798398e+00 -5.881844666221041962e+00 -6.089956317711588518e+00 -6.089956317711588518e+00 -6.275700602469030720e+00 -6.400647372262745272e+00 -6.657287917766168128e+00 -6.657287917766168128e+00 -6.846668935903405639e+00 -7.025641769379455503e+00 -7.135878582682127380e+00 -7.257720291892675313e+00 -7.434637068812154581e+00 -7.532603388678652756e+00 -7.664950921283201879e+00 -7.826642286225527378e+00 -7.946132637605969329e+00 -8.138317600852499112e+00 -8.230476666927408758e+00 -8.284711777122275578e+00 -8.411119450995814262e+00 -8.562256717718767618e+00 -8.562256717718767618e+00 -8.697010471268180609e+00 -8.813589405933438314e+00 -8.858883956253530201e+00 -8.893262609123969042e+00 -8.974960980803494692e+00 -9.040209289678598381e+00 -9.160257728020372525e+00 -9.179928311175215683e+00 -9.210988109054932593e+00 -9.248122353143170216e+00 -9.351181133662715084e+00 -9.351181133662715084e+00 -9.414559417841907418e+00 -9.492178233979350566e+00 -9.500990735099566820e+00 -9.530192439590546627e+00 -9.575525035107251171e+00 -9.627586631478006751e+00 -9.637470499891033882e+00 -9.656442621979506313e+00 -9.698493768745397148e+00 -9.719033130789526354e+00 -9.743364859753151919e+00 -9.743364859753151919e+00 -9.796466619465663328e+00 -9.838929661034782725e+00 -9.840729683603491651e+00 -9.876185106552998860e+00 -9.927479281704465919e+00 -9.954962597806614966e+00 -9.951075335042364856e+00 -1.000429890907595976e+01
2.342777366109856541e+00 2.012624622973096855e+00 1.845534030808488435e+00 1.845534030808488435e+00 1.568660047170649996e+00 6.535361432689712480e-01 1.780473811493982206e-02 -1.092447404990418147e-01 2.572840961327496623e-02 5.358675300478947801e-01 4.909401633092885797e-01 4.395877409607018560e-01 4.206772352765390521e-01 3.025522725387160827e-01 2.149130125265319990e-01 1.219329717505221039e-01 -1.577552258177335187e-01 -6.809816094953651255e-01 -6.809816094953651255e-01 -8.859517107856200724e-01 -1.021175356319542260e+00 -1.048631169441724298e+00 -9.976754325398184964e-01 -1.101492901175364025e+00 -1.372000734881149375e+00 -1.849433568518970006e+00 -2.046708567606938090e+00 -2.322168445189291219e+00 -2.612885630506741386e+00 -2.594193245079502219e+00 -2.594193245079502219e+00 -2.581460183854781043e+00 -2.781153370226266297e+00 -2.843746966595300574e+00 -2.902745767262141730e+00 -2.885221706793169805e+00 -2.793046520037711034e+00 -2.665649392370090354e+00 -2.383860786586693870e+00 -2.542093028242053077e+00 -2.732224066199734569e+00 -3.438147298127676166e+00 -3.707973428515872527e+00 -3.861837772600569707e+00 -3.731960274460091043e+00 -3.373852776819306065e+00 -3.373852776819306065e+00 -3.212176371772466510e+00 -3.606933108875461702e+00 -3.840008628918679445e+00 -4.195413474434300127e+00 -4.676469551651395662e+00 -4.795980659721049477e+00 -4.997145914061663419e+00 -5.237738966282642572e+00 -5.318989768031701537e+00 -5.426016517426498709e+00 -5.475952830424271056e+00 -5.531933979818395741e+00 -5.633987655616190082e+00 -5.785830603090788671e+00 -5.785830603090788671e+00 -5.913241158697355004e+00 -6.088322075360171226e+00 -6.167411093897495533e+00 -6.227987278148050088e+00 -6.474340793253970716e+00 -6.569322725958023135e+00 -6.730646150141474493e+00 -6.825743793285144356e+00 -6.914800702179266345e+00 -7.165536416824291877e+00 -7.343422389473223788e+00 -7.343422389473223788e+00 -7.563271241382702570e+00 -7.758124345020929624e+00 -7.826642286225527378e+00 -7.937648750575496237e+00 -8.162611103198484486e+00 -8.230476666927408758e+00 -8.372185885373321312e+00 -8.428752761417952044e+00 -8.497721730498120962e+00 -8.643879312174730600e+00 -8.766707847143022647e+00 -8.766707847143022647e+00 -8.855919882266782395e+00 -8.936105205479472957e+00 -8.936105205479472957e+00 -9.026452867954732895e+00 -9.166722107603549219e+00 -9.179928311175215683e+00 -9.206798018703327813e+00 -9.250655859854521879e+00 -9.285737908589370093e+00 -9.440088934718140479e+00 -9.419074148353445253e+00 -9.450200871521921897e+00 -9.533890220937923488e+00 -9.519460600060718036e+00 -9.519460600060718036e+00 -9.631988046059158037e+00 -9.644952373097865461e+00 -9.656442621979506313e+00 -9.711050849059521539e+00 -9.722717306133409565e+00 -9.776787694730881384e+00 -9.749352306846152061e+00 -9.793447968452777985e+00 -9.787664104607786797e+00 -9.837009545462354509e+00 -9.902615230361488941e+00 -9.902615230361488941e+00 -9.950149554384500661e+00 -9.969575944612646623e+00 -1.000429890907595976e+01
2.350110317098137447e+00 2.139738516594839268e+00 1.971857452680700451e+00 1.698279009027938047e+00 1.699651054768543279e+00 7.542663530078708156e-01 2.880888261888661650e-01 -2.311558727222658982e-01 5.116178222442420431e-02 -1.905971184707060118e-01 4.357027953656910091e-01 3.480253490796153537e-01 3.480253490796153537e-01 2.576333406065142162e-01 1.418569718384576073e-01 2.169974012346448725e-02 -1.125162023248592325e-01 -4.474432398627401497e-01 -7.604162589522669435e-01 -9.899273054109839487e-01 -8.916169724040436950e-01 -1.019606323105644696e+00 -8.638042525822527962e-01 -1.263631285308903118e+00 -1.263631285308903118e+00 -1.741960869453912375e+00 -2.150890629831133438e+00 -2.150890629831133438e+00 -2.552554940471591927e+00 -2.773019436224758216e+00 -2.734716488862225958e+00 -2.929533852203401789e+00 -2.912477058516695916e+00 -2.950292486682018378e+00 -2.984758185324057678e+00 -3.018731302083985213e+00 -2.841775320637968338e+00 -2.583678552859051791e+00 -2.303380174537483782e+00 -2.303380174537483782e+00 -2.977997533815009756e+00 -3.598178785646034328e+00 -3.707973428515872527e+00 -3.807840089087081825e+00 -3.634846638847097910e+00 -3.569753882711384829e+00 -3.186124630084837150e+00 -3.207165256243037277e+00 -3.345002406138448681e+00 -3.986748251586829106e+00 -4.543716321994789809e+00 -4.543716321994789809e+00 -4.913754425638157564e+00 -5.171933543531804567e+00 -5.237738966282642572e+00 -5.354193764433334835e+00 -5.435413427920417817e+00 -5.475952830424271056e+00 -5.589816475476979463e+00 -5.633636917680685308e+00 -5.713159798795367728e+00 -5.818128235167467466e+00 -5.890121529428382630e+00 -5.979715656876041230e+00 -6.157594182858736609e+00 -6.341434835069144960e+00 -6.341434835069144960e+00 -6.535128609141054312e+00 -6.728324096371896879e+00 -6.825743793285144356e+00 -6.909786972301294128e+00 -7.138404282488353125e+00 -7.258372995233981051e+00 -7.462644412562976726e+00 -7.553995979908052050e+00 -7.661091553153360323e+00 -7.836863650163496509e+00 -8.060412077218401805e+00 -8.060412077218401805e+00 -8.230644782547344107e+00 -8.356275657254268907e+00 -8.428752761417952044e+00 -8.512208622501345801e+00 -8.643346149203544826e+00 -8.706814729088943494e+00 -8.819655972298752644e+00 -8.866690861107407784e+00 -8.898309041626967897e+00 -8.980523579483239871e+00 -9.106847409112390324e+00 -9.106847409112390324e+00 -9.184063728695633699e+00 -9.228525404432096124e+00 -9.250655859854521879e+00 -9.282682120915318080e+00 -9.397808348175574977e+00 -9.419074148353445253e+00 -9.499158719832808018e+00 -9.556220066351967191e+00 -9.534016100741750321e+00 -9.577530528274268207e+00 -9.623829459400765174e+00 -9.737364740755998227e+00 -9.660373516464252575e+00 -9.679841072595303686e+00 -9.679841072595303686e+00 -9.780485977929947339e+00 -9.756245065251496484e+00 -9.793447968452777985e+00 -9.815923114197712351e+00 -9.843635947171218703e+00 -9.867053968990040502e+00 -9.916572937288808731e+00 -9.950561702111272666e+00 -9.935522533418938096e+00 -1.001119949929720576e+01
2.282201325085432053e+00 2.171930094072190176e+00 2.029467285581596503e+00 1.776733246077761841e+00 1.244912425558201807e+00 1.244912425558201807e+00 3.063689194946310201e-01 6.351611277312960158e-02 5.116178222442420431e-02 2.711681203945202623e-01 3.929606571103726465e-01 3.678539520672065022e-01 2.911268187770185700e-01 2.194058280554614659e-01 1.810611296875535570e-01 5.576778110730334220e-02 -2.625574593543977264e-01 -2.625574593543977264e-01 -5.884904320311298287e-01 -7.516111176395690041e-01 -8.916169724040436950e-01 -8.612407064289786529e-01 -9.180756930664970561e-01 -1.080405929873067050e+00 -1.456274857396030242e+00 -1.633657637328382428e+00 -1.867561553266900098e+00 -2.317155749688342148e+00 -2.634566242186418883e+00 -2.634566242186418883e+00 -2.807592618695471831e+00 -2.943573724199600949e+00 -2.912477058516695916e+00 -2.955654245216376097e+00 -2.952485564076045677e+00 -3.018731302083985213e+00 -2.762095658096639816e+00 -2.784604071287922089e+00 -2.546418042756165345e+00 -2.709675653419825636e+00 -3.208126160097838131e+00 -3.427230457889902215e+00 -3.756630760840762751e+00 -3.757389211499535087e+00 -3.757389211499535087e+00 -3.547057077041081641e+00 -3.263456150205660045e+00 -3.207165256243037277e+00 -3.512788671021605857e+00 -4.124212319022603879e+00 -4.357615912947055747e+00 -4.835253572648328557e+00 -5.029604958419361616e+00 -5.110132904834006951e+00 -5.295361460324730096e+00 -5.410127055708691124e+00 -5.410127055708691124e+00 -5.490798529787243254e+00 -5.596177280756805317e+00 -5.633636917680685308e+00 -5.727245773894679814e+00 -5.819329789497081684e+00 -5.890121529428382630e+00 -6.036740288516739383e+00 -6.130192440669746112e+00 -6.249376391367741590e+00 -6.432502440130095422e+00 -6.659478585225359737e+00 -6.659478585225359737e+00 -6.840883548138681824e+00 -7.025693357032229081e+00 -7.138404282488353125e+00 -7.256196083818512221e+00 -7.498486327217801950e+00 -7.553995979908052050e+00 -7.652750293900840717e+00 -7.844085873089685634e+00 -7.943504342240867544e+00 -8.145087468686359244e+00 -8.211321448926900857e+00 -8.283798553090585770e+00 -8.445852491005535256e+00 -8.577736505868644556e+00 -8.577736505868644556e+00 -8.715226007488114490e+00 -8.829529043042976255e+00 -8.866690861107407784e+00 -8.908665571572930375e+00 -8.990576890957003187e+00 -9.024404101985375348e+00 -9.165682860657545561e+00 -9.183059869983694057e+00 -9.205794159991386394e+00 -9.250072922581592749e+00 -9.351826842262504158e+00 -9.351826842262504158e+00 -9.411626560649551720e+00 -9.512418986873665716e+00 -9.556220066351967191e+00 -9.534196821416045964e+00 -9.565460809092538597e+00 -9.623829459400765174e+00 -9.647212980207150679e+00 -9.663458842041965369e+00 -9.717441078564288404e+00 -9.726423352613430495e+00 -9.788291776530266830e+00 -9.788291776530266830e+00 -9.798603638912499747e+00 -9.832581784380757028e+00 -9.855378971638126373e+00 -9.878796993456949949e+00 -9.916222084379738178e+00 -9.958833611769666305e+00 -9.958833611769666305e+00 -1.002804703169299749e+01
2.288606798746296800e+00 2.171930094072190176e+00 1.919196054568354848e+00 1.797774284856150206e+00 1.666857285305442860e+00 7.915421297023834679e-01 1.970308813605943510e-02 1.970308813605943510e-02 9.920722722789426795e-02 2.600165378229206681e-01 3.929606571103726465e-01 3.521345997997795130e-01 2.550532294735592398e-01 2.194058280554614659e-01 1.467977393252842544e-01 3.431749420255518490e-02 -9.674521822032999818e-02 -3.835312417174558952e-01 -4.614208182396843938e-01 -6.217756741479016913e-01 -7.324604637070322166e-01 -8.431452532661627419e-01 -8.431452532661627419e-01 -1.053485033010079341e+00 -1.431437335803305011e+00 -1.633657637328382428e+00 -1.850566059921915141e+00 -2.281707385052706094e+00 -2.461132607710860398e+00 -2.655185950725395649e+00 -2.876233920080592199e+00 -2.911281448390845572e+00 -2.932082704093988301e+00 -2.921761022950001951e+00 -2.921761022950001951e+00 -2.922952630595867518e+00 -2.845772983388568100e+00 -2.784604071287922089e+00 -2.820466310576542845e+00 -2.977838062250476092e+00 -3.208126160097838131e+00 -3.560572963363890953e+00 -3.691461239692956475e+00 -3.873514808754008332e+00 -3.677187490364434375e+00 -3.503634312319107380e+00 -3.503634312319107380e+00 -3.292565310614968155e+00 -3.907254332403331532e+00 -3.907254332403331532e+00 -4.477884159264930553e+00 -4.949068951558341922e+00 -5.029604958419361616e+00 -5.137124097686207591e+00 -5.318937381695815425e+00 -5.412421978588165317e+00 -5.469028134348527637e+00 -5.527249036711430641e+00 -5.549019432150148035e+00 -5.665175337173899095e+00 -5.766435835858654713e+00 -5.766435835858654713e+00 -5.911922374655942392e+00 -6.050276144575746251e+00 -6.130192440669746112e+00 -6.239154248097163347e+00 -6.429301882251982292e+00 -6.577114752031929967e+00 -6.819447739663048402e+00 -6.957950074302713617e+00 -6.995081582446478485e+00 -7.156763258786551063e+00 -7.386234724123841744e+00 -7.386234724123841744e+00 -7.620728686197852042e+00 -7.819548305728033277e+00 -7.844085873089685634e+00 -7.975673363188053422e+00 -8.141487222121694955e+00 -8.313140228013912392e+00 -8.379496359509722936e+00 -8.447854634573724653e+00 -8.582569041133538690e+00 -8.642071539244403411e+00 -8.767486962748003876e+00 -8.839402113787198090e+00 -8.877695424515136935e+00 -8.956261509125498677e+00 -9.001457948410255483e+00 -9.031026896576612728e+00 -9.155028600181895015e+00 -9.204790301279443199e+00 -9.204790301279443199e+00 -9.249489985308660067e+00 -9.338820029701999204e+00 -9.389724598819695345e+00 -9.404178972945659964e+00 -9.526709475430099161e+00 -9.551926090190447027e+00 -9.538911083444290284e+00 -9.557885908201134484e+00 -9.619318782874167084e+00 -9.655048087155032377e+00 -9.718547679716273535e+00 -9.718547679716273535e+00 -9.731274692664561243e+00 -9.811194636035686756e+00 -9.768076185729313465e+00 -9.813395012288658847e+00 -9.843977464948306277e+00 -9.855378971638126373e+00 -9.921341188763090457e+00 -9.938941193422250464e+00 -9.958310256212556055e+00 -1.001196774386319710e+01 -1.002410365718248819e+01
2.456433157228034680e+00 2.155895108002745086e+00 1.910478851057672012e+00 1.797774284856150206e+00 1.658792864750011198e+00 7.788437475944359756e-01 3.539998835207511241e-01 8.962177910984261975e-03 -1.272990478654062729e-01 1.164020606708126848e-01 3.618384783807634952e-01 2.855571199849397113e-01 2.855571199849397113e-01 1.851424376931922189e-01 7.402078235434447762e-02 3.431749420255518490e-02 -9.844007960237955226e-03 -2.447091187604911178e-01 -4.614208182396843938e-01 -6.482659751749697552e-01 -7.834926897300277249e-01 -7.518446095197326429e-01 -8.619262024775694586e-01 -1.238309017968705739e+00 -1.238309017968705739e+00 -1.643807440460220537e+00 -2.049305862951735335e+00 -2.049305862951735335e+00 -2.386348858905677162e+00 -2.686982481021247260e+00 -2.876233920080592199e+00 -2.987239758350205499e+00 -3.034963200448502096e+00 -3.001184658714671105e+00 -2.940647170166083679e+00 -2.983691987268004553e+00 -2.906941895489215000e+00 -2.934762389692179063e+00 -2.953871493153790606e+00 -2.953871493153790606e+00 -3.176397116596240799e+00 -3.490962477906297323e+00 -3.691461239692956475e+00 -3.799387666050378698e+00 -3.681705148242987224e+00 -3.633764725642460114e+00 -3.451921685636773152e+00 -3.488057069888196082e+00 -4.044671414101639328e+00 -4.230611291900612692e+00 -4.818058457186394250e+00 -5.003727836918077543e+00 -5.068309118429695559e+00 -5.252882490218975242e+00 -5.427883016801409610e+00 -5.427883016801409610e+00 -5.513894903667573288e+00 -5.590177622740705843e+00 -5.607240334513051927e+00 -5.665558164585649870e+00 -5.806790064980081212e+00 -5.859356219818011802e+00 -5.952152103320607957e+00 -6.091913719907474878e+00 -6.132994852069847624e+00 -6.330030141573736557e+00 -6.422003091331310642e+00 -6.551031226499260285e+00 -6.824773869350312161e+00 -7.055945094468461853e+00 -7.055945094468461853e+00 -7.196190211728561437e+00 -7.416394975941680734e+00 -7.518837249977520010e+00 -7.651766341412137074e+00 -7.852674672993079419e+00 -7.899351141891195027e+00 -8.076589272200934033e+00 -8.180427965022291303e+00 -8.246784096518101848e+00 -8.381498503077914108e+00 -8.516212909637726369e+00 -8.516212909637726369e+00 -8.646882589156833276e+00 -8.773863326898069914e+00 -8.839402113787198090e+00 -8.888699987922867862e+00 -8.966403441280636599e+00 -9.001457948410255483e+00 -9.112115307365378669e+00 -9.144374339706246246e+00 -9.182056011271750862e+00 -9.226375439279873802e+00 -9.271734132180405652e+00 -9.271734132180405652e+00 -9.381640849463817489e+00 -9.431397482186820724e+00 -9.431397482186820724e+00 -9.547632114028926864e+00 -9.548276249653442349e+00 -9.557885908201134484e+00 -9.615353370760834295e+00 -9.670507598918144154e+00 -9.670215789551420471e+00 -9.690997875085248126e+00 -9.761660494022880386e+00 -9.787898070889989199e+00 -9.810762138129687671e+00 -9.838714475332810849e+00 -9.838714475332810849e+00 -9.867121996105035819e+00 -9.934701071527733518e+00 -9.938941193422250464e+00 -9.966058810313842997e+00 -1.002403782051108294e+01 -1.003467739004011250e+01
2.305005286324833591e+00 2.138637077046521284e+00 2.023183417259193817e+00 1.786330011188612676e+00 1.130279853335674822e+00 1.130279853335674822e+00 2.761679557005897179e-01 -1.826460940196579230e-01 -1.272990478654062729e-01 -3.111588851752659646e-01 2.074730012341790830e-01 3.284662358896658363e-01 2.189796401700997985e-01 1.511112086847033464e-01 1.146511724733367543e-01 -1.987324490524776128e-03 -4.171117324005202409e-02 -1.190045657496323073e-01 -3.144817559208359370e-01 -8.587211208063191270e-01 -9.963966673892334924e-01 -9.963966673892334924e-01 -9.144512792499452924e-01 -1.130616216380032402e+00 -1.400686326204956700e+00 -1.563063634441207883e+00 -1.977471099071347105e+00 -2.193779693827128341e+00 -2.481697688296104154e+00 -2.577454969602943624e+00 -2.782240148895837706e+00 -3.220464842677529749e+00 -3.231576610216357892e+00 -3.231576610216357892e+00 -3.246446771936409181e+00 -2.813181854892846001e+00 -2.813181854892846001e+00 -2.626624332097225789e+00 -2.789929208931422266e+00 -3.132213930702846039e+00 -3.433556602632028554e+00 -3.663907919775158284e+00 -3.731647792912768047e+00 -3.729871193949032993e+00 -3.519338207442855193e+00 -3.462507060763142519e+00 -3.341567169427380080e+00 -3.797827829055679061e+00 -3.797827829055679061e+00 -4.376335672722606596e+00 -4.948021129444491351e+00 -5.003727836918077543e+00 -5.129158613876970918e+00 -5.310619402208812900e+00 -5.352462693524558723e+00 -5.482441963911207417e+00 -5.526851776360183877e+00 -5.557565973258552283e+00 -5.633528971495582738e+00 -5.750149934849488886e+00 -5.750149934849488886e+00 -5.871968310680312442e+00 -5.993786686511136885e+00 -6.091913719907474878e+00 -6.135577062168801277e+00 -6.322731350653066684e+00 -6.422003091331310642e+00 -6.679593206559564678e+00 -6.822563973379173419e+00 -6.963270226437483501e+00 -7.155620960709450529e+00 -7.310960779681023425e+00 -7.310960779681023425e+00 -7.548954875352064775e+00 -7.784695432846753249e+00 -7.784695432846753249e+00 -7.974468239905001532e+00 -8.114071833526480759e+00 -8.180427965022291303e+00 -8.248786240086293020e+00 -8.383500646646105281e+00 -8.449856778141915825e+00 -8.584571184701728086e+00 -8.652929459765729803e+00 -8.717156526021739182e+00 -8.849275184531421701e+00 -8.929378631464855332e+00 -8.929378631464855332e+00 -9.012669407028703006e+00 -9.114727189884920477e+00 -9.144374339706246246e+00 -9.181052152559807666e+00 -9.225792502006942897e+00 -9.248907048035729161e+00 -9.325813217141492473e+00 -9.369936307884115578e+00 -9.396731385241768209e+00 -9.540999963986530830e+00 -9.533330488264452285e+00 -9.533330488264452285e+00 -9.557532196228557098e+00 -9.699415159328401259e+00 -9.670507598918144154e+00 -9.680324076476841455e+00 -9.696576276330221233e+00 -9.761660494022880386e+00 -9.824686509916736199e+00 -9.824458724067612891e+00 -9.818788972703055506e+00 -9.855373145515857303e+00 -9.878865020571943489e+00 -9.915628367309164304e+00 -9.964080293676614630e+00 -9.994682950731576199e+00 -9.994682950731576199e+00 -1.004340467643322299e+01
2.268214825576331695e+00 2.037798163855742750e+00 1.924693605883063707e+00 1.870754611170058590e+00 1.133301989568890056e+00 5.958045333432444579e-01 8.505815100212010815e-02 -1.308203542155527144e-01 -4.013568771593224449e-01 -3.076505851824785642e-01 2.715970875320944389e-01 2.715970875320944389e-01 1.364574600025263429e-01 7.886781642098142364e-02 7.886781642098142364e-02 -3.505159141253860050e-02 -1.421828323073856815e-01 -1.190045657496323073e-01 -2.561517781251617110e-01 -7.585542605622435097e-01 -1.077665098459395843e+00 -1.334846987528011120e+00 -1.293211337529672322e+00 -9.571144035524563609e-01 -1.301654478167933116e+00 -1.751733752359960761e+00 -1.751733752359960761e+00 -2.100723047596157578e+00 -2.378541128044737274e+00 -2.577454969602943624e+00 -2.711665416492746949e+00 -3.309809609760537619e+00 -3.434768863541409534e+00 -3.475177469245215978e+00 -3.563718820674393051e+00 -3.262068802470167839e+00 -2.571452564414034025e+00 -2.459722993246840073e+00 -2.459722993246840073e+00 -3.384154173097114970e+00 -3.737377314142500406e+00 -3.663907919775158284e+00 -3.733190735767024648e+00 -3.555084031340694839e+00 -3.519338207442855193e+00 -3.243308973283299146e+00 -3.281718815630870978e+00 -3.555956901177304008e+00 -4.197835054271801702e+00 -4.607810071143379815e+00 -4.771150924118261472e+00 -5.139679769841135837e+00 -5.268776110893066189e+00 -5.268776110893066189e+00 -5.382141794121246825e+00 -5.513207791567960925e+00 -5.526851776360183877e+00 -5.571261588809160337e+00 -5.643961888502765589e+00 -5.687002785247013747e+00 -5.806012377270424629e+00 -5.861874819691361260e+00 -5.927830753101249961e+00 -6.070786919624339362e+00 -6.223133884329837606e+00 -6.223133884329837606e+00 -6.414704300410640769e+00 -6.682432770119347332e+00 -6.822563973379173419e+00 -6.916808150299470270e+00 -7.174058818922376624e+00 -7.249396911404727639e+00 -7.446555227759517059e+00 -7.579072500726610429e+00 -7.681883966786681839e+00 -7.849846079572968094e+00 -8.053891714725818218e+00 -8.053891714725818218e+00 -8.182430108590480700e+00 -8.317144515150294737e+00 -8.383500646646105281e+00 -8.451858921710106998e+00 -8.586573328269919259e+00 -8.652929459765729803e+00 -8.717194443585245978e+00 -8.859148255275643535e+00 -8.899704551330597013e+00 -8.976630318366888517e+00 -9.023880865647148752e+00 -9.053441676965375606e+00 -9.149373572428739720e+00 -9.202677955978158408e+00 -9.202677955978158408e+00 -9.248324110762798256e+00 -9.312526839460094408e+00 -9.369936307884115578e+00 -9.389283797537874676e+00 -9.537549156374197423e+00 -9.543338137867408477e+00 -9.553435583060235103e+00 -9.574008695236845057e+00 -9.610879421061607530e+00 -9.685967110681255932e+00 -9.720760882020243798e+00 -9.720760882020243798e+00 -9.786186823419910752e+00 -9.826302453508990453e+00 -9.824458724067612891e+00 -9.826308457026321719e+00 -9.866768826083406552e+00 -9.878865020571943489e+00 -9.942453859981267072e+00 -9.978117592958140492e+00 -9.973807364415129939e+00 -1.003610789715897234e+01 -1.006883788829310689e+01
2.299717445748910460e+00 2.150063993338565904e+00 1.933078778569370382e+00 1.641832778779789948e+00 1.641832778779789948e+00 7.484234022378710716e-01 1.520809062326148597e-01 -1.308203542155527144e-01 -1.070322622372695126e-01 -2.189536409030950481e-01 -1.244369889791411971e-01 1.290031727910484483e-01 3.099439130525437347e-02 5.709648837969783647e-02 2.561297898244219162e-03 -1.054384643692944379e-01 -1.054384643692944379e-01 -1.565540883048158749e-01 -4.700862144120125929e-01 -7.585542605622435097e-01 -9.858641632599265403e-01 -1.318575670389649401e+00 -1.293211337529672322e+00 -1.113488683968580473e+00 -1.282738460033190364e+00 -1.487521093687462770e+00 -1.904726420108237228e+00 -2.050198850025102715e+00 -2.227559338030392855e+00 -2.542332726147288113e+00 -2.984094098017654240e+00 -2.984094098017654240e+00 -3.476443296843292341e+00 -3.555026501209515466e+00 -3.563718820674393051e+00 -3.477635188059698734e+00 -2.925857230281622368e+00 -2.532717424235426229e+00 -3.023183741208192998e+00 -3.548102709760821760e+00 -3.699584485854951588e+00 -3.741942966716483632e+00 -3.742032270304124886e+00 -3.742032270304124886e+00 -3.540718605784918260e+00 -3.432290512001734850e+00 -3.281718815630870978e+00 -3.687690284080870740e+00 -4.429014673708612015e+00 -4.607810071143379815e+00 -4.982761615648549025e+00 -5.178179184747633279e+00 -5.202260679662765952e+00 -5.354938478926655421e+00 -5.475876814868889220e+00 -5.475876814868889220e+00 -5.548850005460922219e+00 -5.633479474173873847e+00 -5.643961888502765589e+00 -5.738835129673911517e+00 -5.813358325609236488e+00 -5.861874819691361260e+00 -5.959468016215921260e+00 -6.094162448517096209e+00 -6.147252308147849398e+00 -6.322189260785753717e+00 -6.445974847868415125e+00 -6.565819304928600886e+00 -6.768651878127534438e+00 -7.036491802335037349e+00 -7.036491802335037349e+00 -7.273050552540094138e+00 -7.472305628272876810e+00 -7.579072500726610429e+00 -7.673010275338233654e+00 -7.906804853346999451e+00 -7.956428831128089740e+00 -8.126750186852472524e+00 -8.199608658979126830e+00 -8.250788383654482416e+00 -8.385502790214296454e+00 -8.520217196774108714e+00 -8.520217196774108714e+00 -8.654931603333920975e+00 -8.788786584681503200e+00 -8.859148255275643535e+00 -8.910709114738327941e+00 -8.986857195453140434e+00 -9.064649067159757934e+00 -9.117339072404465838e+00 -9.157314003840173910e+00 -9.202095018705225726e+00 -9.225209564734011991e+00 -9.270855719518651838e+00 -9.295664574788570889e+00 -9.361943617517416882e+00 -9.440828794326558082e+00 -9.533997997959627213e+00 -9.539044161705888314e+00 -9.558594916467027858e+00 -9.596196231575415680e+00 -9.596196231575415680e+00 -9.701426622444365933e+00 -9.721867483172228930e+00 -9.702154677575194341e+00 -9.802282795212944322e+00 -9.829031448019529549e+00 -9.834591398475463819e+00 -9.849117688086112210e+00 -9.878164506650957577e+00 -9.890608045038852936e+00 -9.941619745370866568e+00 -9.982967873278902005e+00 -9.982967873278902005e+00 -1.004817797380685995e+01 -1.009101858503670357e+01
2.299717445748910460e+00 2.205218698928530063e+00 1.967689638298246724e+00 1.772262601737290888e+00 1.241090594642642264e+00 9.747802963393275011e-01 6.092851748472555284e-01 9.645672597854580612e-04 -1.509460880546640571e-01 -1.509460880546640571e-01 -2.839860044197092814e-01 2.042105127969945019e-02 3.099439130525437347e-02 -3.163147669576155813e-02 -8.319381500344401326e-02 -7.702987484369888671e-02 -1.498685334512131484e-01 -2.045859674887892665e-01 -2.145166566322177781e-01 -6.955486832425382682e-01 -1.209360973683465401e+00 -1.209360973683465401e+00 -1.184363580188365406e+00 -1.177535431760184714e+00 -1.282738460033190364e+00 -1.470147248771559001e+00 -1.772422683118820563e+00 -2.050198850025102715e+00 -2.379514705740422897e+00 -2.619328286436167552e+00 -2.782146306843032324e+00 -3.247343186812138960e+00 -3.417268930090450851e+00 -3.417268930090450851e+00 -3.466751276313603913e+00 -3.318997036327818506e+00 -3.318997036327818506e+00 -3.438986725284570056e+00 -3.558976414241321606e+00 -3.548102709760821760e+00 -3.708000535980904289e+00 -3.769094732328623465e+00 -3.756406032957160690e+00 -3.741073986463551382e+00 -3.765216071879299964e+00 -3.598753291940517407e+00 -3.707167432917768402e+00 -4.126710989641671823e+00 -4.126710989641671823e+00 -4.696979167271631006e+00 -5.098937038717625825e+00 -5.178179184747633279e+00 -5.306538621847519899e+00 -5.430635186239760159e+00 -5.462295427307845230e+00 -5.559147463673899559e+00 -5.634570919285456725e+00 -5.708867711378211141e+00 -5.708676913303051492e+00 -5.787703234262780327e+00 -5.883634197003843269e+00 -5.921551106609882709e+00 -6.049370975789733151e+00 -6.210767450157772096e+00 -6.210767450157772096e+00 -6.382044072291961356e+00 -6.559711565791544352e+00 -6.647777051809177884e+00 -6.770747786560791681e+00 -7.028106741377280642e+00 -7.148107084957526780e+00 -7.264360378675915442e+00 -7.501069362500953019e+00 -7.598493219264540244e+00 -7.782128630030486605e+00 -7.917188370445527035e+00 -7.967532748544924992e+00 -8.112391328945879110e+00 -8.272467131105777582e+00 -8.272467131105777582e+00 -8.388677452266545487e+00 -8.522219340342298111e+00 -8.588575471838108655e+00 -8.656933746902112148e+00 -8.790966902839935315e+00 -8.855538903012217133e+00 -8.950091691356780288e+00 -8.997084072539395905e+00 -9.035092324265596275e+00 -9.119950954924011199e+00 -9.178980472676441238e+00 -9.178980472676441238e+00 -9.224626627461081085e+00 -9.270272782245720933e+00 -9.295664574788570889e+00 -9.383927812326190221e+00 -9.445065744928825779e+00 -9.533997997959627213e+00 -9.529373282693780922e+00 -9.563754249873820612e+00 -9.592812258798037561e+00 -9.647683101095644531e+00 -9.692593660774823761e+00 -9.692593660774823761e+00 -9.707733078820167449e+00 -9.799016210330051990e+00 -9.829031448019529549e+00 -9.844724072883316524e+00 -9.861638309619760179e+00 -9.878164506650957577e+00 -9.902351069505762382e+00 -9.957787228351939746e+00 -9.988098765060957618e+00 -1.001266366743066527e+01 -1.006024805045474579e+01 -1.005985883018816907e+01
2.336831197832729856e+00 2.122344016424794866e+00 1.967689638298246724e+00 1.816589482139816969e+00 1.224456444585447112e+00 9.747802963393275011e-01 2.374330727134120744e-01 2.402667309506682086e-02 -7.848183368235857327e-02 -2.771166420131067065e-01 -4.286174306737666750e-01 -1.401477303827676213e-01 -1.970826475645047482e-02 -6.637388152489764881e-02 -6.637388152489764881e-02 -9.583638634792326916e-02 -2.085271873144793342e-01 -2.045859674887892665e-01 -2.593034015263653846e-01 -6.364146214491591680e-01 -9.178131708590110405e-01 -1.250052639466326720e+00 -1.319616388704464738e+00 -1.239442776681412672e+00 -1.442295647082521892e+00 -1.672391695676711976e+00 -1.755656995982638469e+00 -1.985383676441075718e+00 -2.368392019491573297e+00 -2.725430660626801505e+00 -2.725430660626801505e+00 -3.082469301762029268e+00 -3.182859160632570905e+00 -3.407343130524780328e+00 -3.250240767172178913e+00 -3.162431483852833569e+00 -3.434874976262413337e+00 -3.523313011319742394e+00 -3.510644403471956387e+00 -3.694242931430054000e+00 -3.786955451177681731e+00 -3.860502023899615498e+00 -3.860502023899615498e+00 -3.864006891660917820e+00 -3.881391793391292921e+00 -3.873630212856550514e+00 -3.985538406566064396e+00 -4.161323011597429122e+00 -4.424152362608436917e+00 -4.589121309937975290e+00 -5.019940863558833399e+00 -5.238260069341456493e+00 -5.407940054268994601e+00 -5.504828977446786453e+00 -5.504462551743832144e+00 -5.651602004683219604e+00 -5.723379542108989249e+00 -5.723379542108989249e+00 -5.792820342347120288e+00 -5.838551638555159684e+00 -5.883634197003843269e+00 -5.960060320028294889e+00 -6.087192692369188585e+00 -6.139273935363545931e+00 -6.303469953694489369e+00 -6.380688173795530105e+00 -6.471646079773910820e+00 -6.649313573273494704e+00 -6.899367247083911359e+00 -6.899367247083911359e+00 -7.156834895741663871e+00 -7.403645505737364019e+00 -7.501069362500953019e+00 -7.616899092026688578e+00 -7.830130458871874310e+00 -7.917188370445527035e+00 -8.063994564188339709e+00 -8.169755790798724604e+00 -8.190248757197336360e+00 -8.345325603232431888e+00 -8.461535924393199792e+00 -8.461535924393199792e+00 -8.590577615406299827e+00 -8.725292021966112088e+00 -8.725292021966112088e+00 -8.852761621231405087e+00 -8.959321062835337912e+00 -8.997084072539395905e+00 -9.046303782884042022e+00 -9.122562837443554784e+00 -9.156310145128232492e+00 -9.201512081432296597e+00 -9.224043690188150180e+00 -9.247158236216936444e+00 -9.292804391001574515e+00 -9.374388622130089388e+00 -9.374388622130089388e+00 -9.530446839545055226e+00 -9.527394679908443464e+00 -9.563754249873820612e+00 -9.611615822359230066e+00 -9.621842376603055413e+00 -9.716886134207477710e+00 -9.722974084324215838e+00 -9.713311480065140557e+00 -9.816068102756736025e+00 -9.831760442530068644e+00 -9.867861687772983004e+00 -9.867861687772983004e+00 -9.889560187218506826e+00 -9.956207875753548819e+00 -9.957787228351939746e+00 -9.997064195303135392e+00 -1.002473374407855289e+01 -1.006024805045474579e+01 -1.011306820198417533e+01
2.467356490100356403e+00 2.121070129140683047e+00 1.977866207184864722e+00 1.680160255814288739e+00 1.289032523595005530e+00 6.668971845850002467e-01 1.287326598821225687e-01 -8.789476787461744656e-02 -8.789476787461744656e-02 -5.485679517117449944e-01 -2.836836486860951911e-01 -3.526317313001890719e-02 -5.906841018326389192e-02 -8.317472406470904911e-02 2.414407301641858378e-02 -1.966435567210972624e-01 -2.815551579751592315e-01 -3.011815804627811510e-01 -3.411634754270256309e-01 -8.570388650929561258e-01 -8.570388650929561258e-01 -1.349881806516256111e+00 -1.505197459051135667e+00 -1.505197459051135667e+00 -1.417869111813890637e+00 -1.639899127783938759e+00 -1.755656995982638469e+00 -1.944629235569991677e+00 -2.321133913553937056e+00 -2.492851523626668175e+00 -2.849890164761896383e+00 -2.943326594293806941e+00 -3.068478622720598015e+00 -3.144714112550009766e+00 -3.203727902087181612e+00 -3.203727902087181612e+00 -2.974505551182608620e+00 -3.192716870274161067e+00 -3.510644403471956387e+00 -3.669412092215992072e+00 -3.706857646634157621e+00 -3.808453957007213564e+00 -3.866429084715848674e+00 -3.852902979379162929e+00 -3.764959318029032609e+00 -3.852565853717018207e+00 -3.956899045476504284e+00 -3.956899045476504284e+00 -4.467440578839332765e+00 -4.889749609873790703e+00 -5.019940863558833399e+00 -5.309601425008631637e+00 -5.444869953714332134e+00 -5.504828977446786453e+00 -5.651643805018451872e+00 -5.713056679475912780e+00 -5.725416591331796923e+00 -5.763636139148731630e+00 -5.801855686965667225e+00 -5.801855686965667225e+00 -5.878598805176262765e+00 -5.997649084787690654e+00 -5.997649084787690654e+00 -6.117483892584132832e+00 -6.305359515507934276e+00 -6.380688173795530105e+00 -6.470269488029599003e+00 -6.650850094737809748e+00 -6.773659009474313208e+00 -7.027185720090353804e+00 -7.179087416999868410e+00 -7.310519601843421533e+00 -7.510678962732493247e+00 -7.710838323621564960e+00 -7.710838323621564960e+00 -7.927212036298719511e+00 -8.118582650671173795e+00 -8.169755790798724604e+00 -8.254174202967227814e+00 -8.355320572574708393e+00 -8.418184075359086194e+00 -8.534394396519852322e+00 -8.607252868646504851e+00 -8.658935890470299768e+00 -8.793650297030113805e+00 -8.932718241553786243e+00 -8.932718241553786243e+00 -9.007310949625647822e+00 -9.087063847548519036e+00 -9.122562837443554784e+00 -9.155282989374725844e+00 -9.200929144159365691e+00 -9.224043690188150180e+00 -9.269689844972790027e+00 -9.292221453728645386e+00 -9.370524282349608214e+00 -9.470050873075694042e+00 -9.526895681130483240e+00 -9.533044714326599944e+00 -9.568913583280615143e+00 -9.590725997489419896e+00 -9.590725997489419896e+00 -9.732345645970589487e+00 -9.724080685476200969e+00 -9.713311480065140557e+00 -9.820783119594878485e+00 -9.834489437040607740e+00 -9.859325572334469712e+00 -9.882599322149671295e+00 -9.896657009103961400e+00 -9.915676261505064204e+00 -9.977169661512348853e+00 -1.001331837293558280e+01 -1.001331837293558280e+01 -1.007231812710263519e+01 -1.011450238269683410e+01
2.263269008215675893e+00 2.263269008215675893e+00 1.981392087843514060e+00 1.706494840085404530e+00 1.289032523595005530e+00 9.481512844464923262e-01 3.781961400366009585e-01 1.032445504409638115e-01 -2.885782106427088323e-01 -2.014328387437098189e-01 -5.125591765959877089e-01 -3.143925633624933269e-01 -1.324520627539199080e-01 -1.324520627539199080e-01 -1.400059676442470258e-01 -2.566672187590225973e-01 -2.815551579751592315e-01 -3.142337978182742075e-01 -3.427745110494406777e-01 -4.723972554952531877e-01 -1.074934011831229608e+00 -1.317860397916475801e+00 -1.498202679834601980e+00 -1.836430326357780807e+00 -1.507778656531459482e+00 -1.507778656531459482e+00 -1.827799459929308590e+00 -2.179457715913563298e+00 -2.321133913553937056e+00 -2.466653259185148883e+00 -2.728747827160601602e+00 -2.943326594293806941e+00 -3.043662919169622505e+00 -3.042212332610731984e+00 -3.169179964987860476e+00 -3.058675290838892558e+00 -2.771413863720114445e+00 -2.790691171582749153e+00 -3.386924395097050677e+00 -3.688491452772823642e+00 -3.688491452772823642e+00 -3.665232136765415039e+00 -3.829891049244515067e+00 -3.852902979379162929e+00 -3.711610216492767123e+00 -3.575108219892059402e+00 -3.736476670204296191e+00 -4.351698950384977671e+00 -4.705174260694081845e+00 -4.785169303003952379e+00 -5.184454910517926507e+00 -5.388628180038965709e+00 -5.388628180038965709e+00 -5.528564088143235189e+00 -5.598021345309716068e+00 -5.713056679475912780e+00 -5.695738230241345512e+00 -5.731449949022111134e+00 -5.766652817993889180e+00 -5.836004703860966814e+00 -5.850882325101719239e+00 -5.908105477206194500e+00 -6.027155756817622390e+00 -6.195997738009221933e+00 -6.195997738009221933e+00 -6.371516658063975491e+00 -6.550846529420771169e+00 -6.650850094737809748e+00 -6.767419016056997805e+00 -7.039517331980397863e+00 -7.179087416999868410e+00 -7.280904973559422899e+00 -7.498398065033174298e+00 -7.604618194327369629e+00 -7.831321457559603516e+00 -7.928498564415390248e+00 -8.020980741179464246e+00 -8.189022817840978519e+00 -8.354696803544536365e+00 -8.354696803544536365e+00 -8.447690698451623348e+00 -8.563901019612391252e+00 -8.607252868646504851e+00 -8.680111340773159156e+00 -8.796321661933925284e+00 -8.858346761428236960e+00 -8.968454091215258828e+00 -9.017537826711903293e+00 -9.057515241502489545e+00 -9.122141183046494461e+00 -9.177814598130577650e+00 -9.177814598130577650e+00 -9.223460752915219274e+00 -9.269106907699859121e+00 -9.292221453728645386e+00 -9.348704152825673575e+00 -9.495036001222562305e+00 -9.526895681130483240e+00 -9.525416077123107783e+00 -9.574072916687406121e+00 -9.598374233046699899e+00 -9.618891906046243889e+00 -9.723512684301045539e+00 -9.725187286628184324e+00 -9.720690253614060694e+00 -9.806428303290092074e+00 -9.866496162649518453e+00 -9.866496162649518453e+00 -9.896371848801146953e+00 -9.942303010095741911e+00 -9.942303010095741911e+00 -9.993136005103835373e+00 -1.001571492495833482e+01 -1.003680382072644051e+01 -1.008438820375052103e+01 -1.011476590226961036e+01
2.503997930435575281e+00 2.128577133802397547e+00 1.841430494286012687e+00 1.841430494286012687e+00 1.468024406299274442e+00 8.927574220245028114e-01 3.781961400366009585e-01 2.946468423580456686e-01 -1.761314132732997098e-02 -2.014328387437098189e-01 -2.923960787150952645e-01 -4.689976563198829385e-01 -3.072159259721376490e-01 -2.310100486129062214e-01 -2.234306490407021450e-01 -1.970313490148149771e-01 -3.001251288367763337e-01 -2.634234223669693620e-01 -2.634234223669693620e-01 -5.308168911446462523e-01 -1.034711335401198973e+00 -1.317860397916475801e+00 -1.467899623623917904e+00 -1.854048461388139835e+00 -1.671964376263399110e+00 -1.681907136688665538e+00 -1.858044015190957854e+00 -1.934199067298583818e+00 -2.211100642822551698e+00 -2.519379049180129559e+00 -2.519379049180129559e+00 -2.825846489745821977e+00 -2.962804974134336522e+00 -3.042212332610731984e+00 -2.978448395173384000e+00 -2.779311512168420872e+00 -2.771413863720114445e+00 -3.068122237144643272e+00 -3.324486184521279419e+00 -3.656549044176774288e+00 -3.646808487547471778e+00 -3.800618655227196996e+00 -3.800618655227196996e+00 -3.829247948232177290e+00 -3.643982203003211406e+00 -3.575108219892059402e+00 -3.732795147263519020e+00 -4.467546622792930577e+00 -4.705174260694081845e+00 -4.976602380102356449e+00 -5.214040485019157956e+00 -5.346745287973600824e+00 -5.453151775179511773e+00 -5.588405450261097585e+00 -5.579998705553087746e+00 -5.662675746343349026e+00 -5.682302134911108027e+00 -5.682302134911108027e+00 -5.699601449421237476e+00 -5.809587579682887082e+00 -5.850882325101719239e+00 -5.889321824460550303e+00 -5.993688752878902903e+00 -6.079657000438409398e+00 -6.252533699474719597e+00 -6.349241392310158716e+00 -6.439241237272241847e+00 -6.659006278983500060e+00 -6.889530190816108401e+00 -7.081700912271116977e+00 -7.139038640838949235e+00 -7.390575023436641189e+00 -7.620888199481965941e+00 -7.620888199481965941e+00 -7.846679734118443328e+00 -8.042485971006156475e+00 -8.140495840779498948e+00 -8.257749365157549093e+00 -8.416622867732455049e+00 -8.461116497821251414e+00 -8.520549170578275877e+00 -8.588762847503851106e+00 -8.636759491739045558e+00 -8.751766592242026022e+00 -8.817620639162925045e+00 -8.868423682247428275e+00 -8.979076556829895139e+00 -9.070372359038319843e+00 -9.070372359038319843e+00 -9.136421125557665945e+00 -9.181782835464868953e+00 -9.200346206886433009e+00 -9.227651149194286972e+00 -9.273519462923706769e+00 -9.291638516455712704e+00 -9.362820278274385899e+00 -9.498913931424233681e+00 -9.523344522715913030e+00 -9.523437474337772102e+00 -9.649222949481613298e+00 -9.649222949481613298e+00 -9.616737722857729764e+00 -9.738972196064157316e+00 -9.725187286628184324e+00 -9.723300657509907907e+00 -9.814615833496253217e+00 -9.837218431551145059e+00 -9.888127036588686636e+00 -9.911101021850239334e+00 -9.900674495830317667e+00 -9.967017406361994958e+00 -1.001499505578749627e+01 -1.001499505578749627e+01 -1.004887389737432635e+01 -1.008322201723501799e+01 -1.011476590226961036e+01
2.455797807707878810e+00 2.100647412581303275e+00 1.976538488710434915e+00 1.677047360544244192e+00 1.420203109489039495e+00 1.194817915197893488e+00 5.546260296510862053e-01 1.808596443270392706e-01 1.808596443270392706e-01 -1.331132178117552523e-01 -5.126892986739737257e-01 -4.689976563198829385e-01 -4.788912366549273880e-01 -3.788453731611034492e-01 -2.234306490407021450e-01 -2.549315035530783646e-01 -3.151978744885967632e-01 -3.232563248441467363e-01 -3.518027711471009011e-01 -7.325128673829204295e-01 -7.325128673829204295e-01 -1.246456285874395720e+00 -1.624961254687599110e+00 -1.624961254687599110e+00 -1.975819116777491669e+00 -1.830705181248927893e+00 -1.858044015190957854e+00 -1.845573777760240342e+00 -2.114680561292157090e+00 -2.311066328498935896e+00 -2.654502213392515131e+00 -2.821110382932515925e+00 -2.903831478848617920e+00 -2.959624307721605341e+00 -2.822535022941502270e+00 -2.822535022941502270e+00 -3.006963807717524251e+00 -3.269716936498607396e+00 -3.591303565799452091e+00 -3.591303565799452091e+00 -3.694355320081056604e+00 -3.836307390097882575e+00 -3.793713319233026571e+00 -3.803658396409817399e+00 -3.660968900055041608e+00 -3.600366047554671933e+00 -4.179114615020724344e+00 -4.624337721898939435e+00 -4.797164209992325290e+00 -5.140024710645431760e+00 -5.375030528163880383e+00 -5.375030528163880383e+00 -5.547116155811209204e+00 -5.620707986228506314e+00 -5.665849204665784455e+00 -5.714469742498721416e+00 -5.684186137652739390e+00 -5.705510402924227620e+00 -5.696364958492999619e+00 -5.789994945394985493e+00 -5.835120704029304939e+00 -5.909952247555545490e+00 -5.969490970140943986e+00 -6.059813655858938830e+00 -6.265814353879385123e+00 -6.457429656017825259e+00 -6.457429656017825259e+00 -6.707461319959732826e+00 -6.949909925495269647e+00 -7.081700912271116977e+00 -7.208114734329459594e+00 -7.446372075619976272e+00 -7.526519569582135638e+00 -7.735463278163051015e+00 -7.869621733386761520e+00 -7.949599048514182087e+00 -8.143831619635472308e+00 -8.312613967367243006e+00 -8.312613967367243006e+00 -8.458812757616287925e+00 -8.547689692662363115e+00 -8.588762847503851106e+00 -8.654616894424750129e+00 -8.769045790254285322e+00 -8.817620639162925045e+00 -8.957103696021967210e+00 -8.993480427152722001e+00 -9.033256121436938457e+00 -9.119439497010089823e+00 -9.168326316833677936e+00 -9.168326316833677936e+00 -9.214194630563095956e+00 -9.260062944292517528e+00 -9.273519462923706769e+00 -9.305931258021937325e+00 -9.441686527965449827e+00 -9.498913931424233681e+00 -9.513567617178594560e+00 -9.518950925606159075e+00 -9.545187317891066670e+00 -9.611887841992690085e+00 -9.618431575812376622e+00 -9.720927039536451986e+00 -9.724014293726368052e+00 -9.820195131416546985e+00 -9.820195131416546985e+00 -9.833068546473510807e+00 -9.893703478662791539e+00 -9.911101021850239334e+00 -9.903117827403745466e+00 -9.966264981669311851e+00 -1.000272165955414394e+01 -1.001765252240899784e+01 -1.005311346935941330e+01 -1.009459975819040878e+01 -1.011502942184238663e+01
2.217369684009720121e+00 2.217369684009720121e+00 1.952720118345485423e+00 1.626424018678701788e+00 1.420203109489039495e+00 1.082391116361875572e+00 4.471471480262582121e-01 2.198767169596774207e-01 1.080606662345798274e-01 3.757019180299388250e-02 -4.400317014590390263e-01 -5.249218883346691289e-01 -4.858495528666838537e-01 -5.236273947817743357e-01 -3.883404343980230156e-01 -3.344133844333743166e-01 -4.444355424525879839e-01 -4.444355424525879839e-01 -4.830843784605695079e-01 -6.753188371104723586e-01 -8.892857886272435008e-01 -1.133312575251402610e+00 -1.579976951477444214e+00 -1.816788994554539460e+00 -2.094903275574009349e+00 -2.090605176767772022e+00 -1.824861891765273914e+00 -1.963201599725991287e+00 -2.232571196902718214e+00 -2.232571196902718214e+00 -2.514511476648954247e+00 -2.770597079318362965e+00 -2.884557377358840657e+00 -2.872162433215546429e+00 -2.840293948500216992e+00 -2.829736675945173197e+00 -2.909354238668511172e+00 -3.424391495429722099e+00 -3.468463353143986794e+00 -3.623030938446961002e+00 -3.786209522078923140e+00 -3.788973689265525024e+00 -3.794929973588276440e+00 -3.760288273484102994e+00 -3.760288273484102994e+00 -3.658764360660268444e+00 -4.302756511110723103e+00 -4.624337721898939435e+00 -4.910836446248007192e+00 -5.206868873911552953e+00 -5.287270073902108791e+00 -5.504078516782985986e+00 -5.546384990166568940e+00 -5.572516157066979225e+00 -5.660760143251091669e+00 -5.699103041943235581e+00 -5.699103041943235581e+00 -5.688149681310733285e+00 -5.741412547399842303e+00 -5.789994945394985493e+00 -5.826551887340027491e+00 -5.885630140634550145e+00 -5.969490970140943986e+00 -6.157007290903210084e+00 -6.268908750861994505e+00 -6.357522206174900603e+00 -6.616193574649264164e+00 -6.840386259223832255e+00 -6.840386259223832255e+00 -7.100356178606692659e+00 -7.366224581657817794e+00 -7.366224581657817794e+00 -7.590543620266221758e+00 -7.768536308745154884e+00 -7.869621733386761520e+00 -7.975842160082437182e+00 -8.163086443994808761e+00 -8.273271105380628043e+00 -8.424634281851195894e+00 -8.465900014203810997e+00 -8.559342546742634283e+00 -8.618710379617166240e+00 -8.720470941345647375e+00 -8.720470941345647375e+00 -8.834899837175184345e+00 -8.970408783146158527e+00 -8.993480427152722001e+00 -9.050700629296418498e+00 -9.144486934449574278e+00 -9.145189757962173260e+00 -9.200738111931906715e+00 -9.233149907030137271e+00 -9.246606425661328288e+00 -9.292474739390748084e+00 -9.353338961473975033e+00 -9.353338961473975033e+00 -9.485170535952512694e+00 -9.512373528947668078e+00 -9.518950925606159075e+00 -9.546781028310947548e+00 -9.618510353871652541e+00 -9.618431575812376622e+00 -9.726341125921852182e+00 -9.709783579962952160e+00 -9.719146366165961837e+00 -9.817596964966217143e+00 -9.819907940544920777e+00 -9.851700512989326697e+00 -9.911745491684886389e+00 -9.923354698478505043e+00 -9.923354698478505043e+00 -9.981843492279296015e+00 -1.000906632832658438e+01 -1.005311346935941330e+01 -1.010763191468694266e+01 -1.012378007179732720e+01
2.141373367394953320e+00 2.034063013455182922e+00 1.774217982761791212e+00 1.614174403835613614e+00 1.379946809946143382e+00 8.880619926586227342e-01 2.920448524304277149e-01 2.920448524304277149e-01 2.087903360037592360e-01 -5.972138732028168390e-02 -5.972138732028168390e-02 -4.990424400434463892e-01 -6.219460236177701828e-01 -5.236273947817743357e-01 -5.349065767228308177e-01 -5.256110283272112937e-01 -4.196200837695756025e-01 -4.552021764517582558e-01 -4.907632394437834167e-01 -5.751231890138227554e-01 -8.642997065532975753e-01 -1.339778629052009062e+00 -1.339778629052009062e+00 -1.747915533388425091e+00 -1.942655172160028254e+00 -2.090605176767772022e+00 -2.106135659399868132e+00 -2.325971439365085658e+00 -2.271722623048802348e+00 -2.418721718423618938e+00 -2.480602889675250111e+00 -2.601714739552775768e+00 -2.744517190171712251e+00 -2.798177897683311155e+00 -2.798177897683311155e+00 -2.709564672001664398e+00 -3.218185870335231957e+00 -3.424391495429722099e+00 -3.513655179117253891e+00 -3.860357850212343678e+00 -3.786209522078923140e+00 -3.806321419616673474e+00 -3.767487887790295975e+00 -3.759504285783666688e+00 -3.693967845392071236e+00 -3.783335359848703838e+00 -3.984818330048049084e+00 -4.834976836175052917e+00 -5.109434058951978663e+00 -5.109434058951978663e+00 -5.335264387298766842e+00 -5.535164011746550372e+00 -5.546384990166568940e+00 -5.589925023369763935e+00 -5.578535392925918934e+00 -5.671307420107183361e+00 -5.687175394947584728e+00 -5.675130180821036596e+00 -5.693895437762787282e+00 -5.772471561189755462e+00 -5.829310249791342713e+00 -5.829310249791342713e+00 -5.956488671031756610e+00 -6.173369053393587436e+00 -6.268908750861994505e+00 -6.417647500200538424e+00 -6.631720261643939907e+00 -6.748785828368004225e+00 -6.999622275173416952e+00 -7.141632453671644676e+00 -7.255771538299920387e+00 -7.518083791317806686e+00 -7.696076479796738923e+00 -7.696076479796738923e+00 -7.890263860183162059e+00 -8.080786862082643296e+00 -8.163086443994808761e+00 -8.285502395644702034e+00 -8.432645695969934962e+00 -8.465900014203810997e+00 -8.574221332345899782e+00 -8.648068901775564754e+00 -8.671896092437009429e+00 -8.786324988266546399e+00 -8.861255445455595847e+00 -8.918789785922022872e+00 -9.007884297475550639e+00 -9.107313229990865011e+00 -9.107313229990865011e+00 -9.154055592942256681e+00 -9.219693388398948031e+00 -9.233149907030137271e+00 -9.265561702128369603e+00 -9.310624703452482720e+00 -9.319662682579322066e+00 -9.448501453967999453e+00 -9.473122811441150759e+00 -9.499824221706873573e+00 -9.530028943527966589e+00 -9.575845793344027967e+00 -9.575845793344027967e+00 -9.619861242859130357e+00 -9.709922493983292213e+00 -9.709783579962952160e+00 -9.714402157432093787e+00 -9.818074610247411016e+00 -9.819907940544920777e+00 -9.894347948497440370e+00 -9.907351193932438349e+00 -9.904370996329678434e+00 -9.958079107788694984e+00 -9.988124082374305601e+00 -1.000485227361352258e+01 -1.004917160774132334e+01 -1.009948700079319117e+01 -1.017424253061223283e+01
2.328126473303250066e+00 1.977188173264995630e+00 1.762436781561771637e+00 1.614174403835613614e+00 1.486588089095470355e+00 1.108282314179527717e+00 6.571555931309271958e-01 2.475996448680223838e-01 2.061994952456216723e-01 1.077198483279207530e-01 -1.651476855617584338e-01 -5.830759905574112167e-01 -5.830759905574112167e-01 -6.726280275464198155e-01 -6.346193771511861037e-01 -5.256110283272112937e-01 -6.139721486972994358e-01 -5.234779812895644646e-01 -4.907632394437834167e-01 -6.294099752883250964e-01 -7.379619466341279521e-01 -1.046196601165407358e+00 -1.451361294381124711e+00 -1.540148703589419910e+00 -1.832668873671912779e+00 -2.095050439618661109e+00 -2.365074292912455078e+00 -2.365074292912455078e+00 -2.469509571260424696e+00 -2.523161232459845138e+00 -2.480602889675250111e+00 -2.533098286169964908e+00 -2.536326414289728159e+00 -2.615882691615620814e+00 -2.726704034008072597e+00 -3.022558970176213222e+00 -3.002522536884639326e+00 -3.438909513179848609e+00 -3.728664023740909883e+00 -3.728664023740909883e+00 -3.803539562121566409e+00 -3.757403109702983190e+00 -3.767487887790295975e+00 -3.651508231700197893e+00 -3.818035853476063668e+00 -3.783335359848703838e+00 -4.486150233239623475e+00 -4.917942025010558993e+00 -5.012607098178608389e+00 -5.277568276246023871e+00 -5.474787454553187160e+00 -5.474787454553187160e+00 -5.580600157096855085e+00 -5.605413898588963661e+00 -5.578535392925918934e+00 -5.632716053239356313e+00 -5.683113509648487494e+00 -5.675130180821036596e+00 -5.686146866046438042e+00 -5.747042989090979326e+00 -5.787944033280333578e+00 -5.879281243895454701e+00 -5.953844290380301274e+00 -6.038589467807516264e+00 -6.315429774665178186e+00 -6.536592320686268387e+00 -6.536592320686268387e+00 -6.764396606015279367e+00 -7.030950755530101404e+00 -7.141632453671644676e+00 -7.303149329298127768e+00 -7.553674490205699144e+00 -7.623616650848325627e+00 -7.801609339327258752e+00 -7.910905986979562599e+00 -8.002085271650692277e+00 -8.198610713310156228e+00 -8.351614194750231590e+00 -8.351614194750231590e+00 -8.477345022299525468e+00 -8.599666896464984944e+00 -8.727928701438289139e+00 -8.727928701438289139e+00 -8.803604186278805699e+00 -8.942748498011088287e+00 -8.990396581070985604e+00 -9.026911920891581786e+00 -9.125783665467137595e+00 -9.169534371889058733e+00 -9.197358968391803558e+00 -9.229812968828435160e+00 -9.252105183497176810e+00 -9.297973497226598383e+00 -9.323371561337147284e+00 -9.332409540463984854e+00 -9.445230365148917784e+00 -9.497794054439420819e+00 -9.497794054439420819e+00 -9.549996947775859724e+00 -9.560356706281925909e+00 -9.595643426896609540e+00 -9.624948644038992640e+00 -9.691813483325866230e+00 -9.694213467481983315e+00 -9.780297560813128399e+00 -9.805100282906035858e+00 -9.806747334616330747e+00 -9.894992418332089201e+00 -9.906909368092691182e+00 -9.906909368092691182e+00 -9.926459696260129917e+00 -9.973021988151545614e+00 -1.000485227361352258e+01 -1.004648199626033112e+01 -1.014449452976645638e+01 -1.013729687367929166e+01
2.166325697327361244e+00 2.000406797869349607e+00 1.899382959241016078e+00 1.678366932327588046e+00 1.366383197296857643e+00 1.366383197296857643e+00 8.483403253320888071e-01 4.263726663925433980e-01 2.061994952456216723e-01 2.958684401894137173e-01 6.353904995704273695e-02 -1.996450844900072297e-01 -5.202539019351868355e-01 -5.392514822387393103e-01 -6.341367215586525274e-01 -7.161673662141677665e-01 -6.715586153886312637e-01 -6.715586153886312637e-01 -4.626978564779320457e-01 -6.086006053974623020e-01 -7.379619466341279521e-01 -8.616193277882701063e-01 -1.246270681613043108e+00 -1.540148703589419910e+00 -1.908246980178996299e+00 -2.046200702511585146e+00 -2.244717491437565382e+00 -2.555979334849665996e+00 -2.588848396492990922e+00 -2.588848396492990922e+00 -2.435642275369214627e+00 -2.433832138743834861e+00 -2.433832138743834861e+00 -2.371420321797025554e+00 -2.743372658212896997e+00 -3.022558970176213222e+00 -3.171340136108027341e+00 -3.450364455603236902e+00 -3.616543406821864703e+00 -3.820136849417645752e+00 -3.694429524685225896e+00 -3.780938877666377262e+00 -3.687008691101747893e+00 -3.594993426992331376e+00 -3.594993426992331376e+00 -3.944623392532108141e+00 -4.675910156912392424e+00 -4.917942025010558993e+00 -5.073891485123521505e+00 -5.345477683333168528e+00 -5.497197279000882730e+00 -5.563501544887720307e+00 -5.582557577740610455e+00 -5.612508938368882205e+00 -5.614090279230822489e+00 -5.693303993117152295e+00 -5.659916852413784838e+00 -5.659308971642143860e+00 -5.709931299127930515e+00 -5.796427624853972560e+00 -5.796427624853972560e+00 -5.877679763409640934e+00 -6.035399964335329770e+00 -6.181681520093222915e+00 -6.293405420666532635e+00 -6.554558448469170351e+00 -6.644968405142425816e+00 -6.902168594837561955e+00 -7.061608185808502469e+00 -7.176544748191123091e+00 -7.436543934832479330e+00 -7.567067569697171869e+00 -7.650287978882766460e+00 -7.834682369909361732e+00 -8.026575533293302200e+00 -8.026575533293302200e+00 -8.234134982625501920e+00 -8.376703895468033068e+00 -8.440853662964670434e+00 -8.488790030395238162e+00 -8.621693553378527497e+00 -8.667274145250036810e+00 -8.760516679312942756e+00 -8.820883384291066776e+00 -8.893519292570243095e+00 -9.009548692791806701e+00 -9.079469186124699220e+00 -9.079469186124699220e+00 -9.178753706794408274e+00 -9.204974779828994258e+00 -9.229812968828435160e+00 -9.268379311318627245e+00 -9.314333582210309714e+00 -9.323371561337147284e+00 -9.383298789230366310e+00 -9.436550866322471975e+00 -9.461347258185778486e+00 -9.563314299015640785e+00 -9.566259211617648361e+00 -9.566259211617648361e+00 -9.582283311522804325e+00 -9.638296306023454108e+00 -9.691813483325866230e+00 -9.678643355001010917e+00 -9.761100501962237885e+00 -9.805100282906035858e+00 -9.793586728687740717e+00 -9.878860892399558224e+00 -9.900372775540262182e+00 -9.919680852416481898e+00 -9.924622773229119232e+00 -9.942963264527312717e+00 -1.000091041199543263e+01 -1.012425411578010781e+01 -1.012425411578010781e+01 -1.015081367556125613e+01
2.100966484037893434e+00 2.000406797869349607e+00 1.797345104740847965e+00 1.720092370514041846e+00 1.617452901461759129e+00 1.166634098084830651e+00 6.060977967953833367e-01 6.060977967953833367e-01 3.260359805096829655e-01 2.567222741576047351e-01 2.567222741576047351e-01 1.797823482595223982e-02 -3.294820388380094167e-01 -5.392514822387393103e-01 -5.932393050957156522e-01 -7.133595316002452336e-01 -7.343549843835153190e-01 -6.691045891283120550e-01 -6.294264782447026585e-01 -6.768774117062071882e-01 -6.078523650144197488e-01 -1.049799607017098513e+00 -1.193071793456655261e+00 -1.410501275118229314e+00 -1.801317992076308494e+00 -2.211807273538630714e+00 -2.211807273538630714e+00 -2.641444935914838865e+00 -2.779252045307165631e+00 -2.633188319687462808e+00 -2.594725135232726743e+00 -2.473669941848965159e+00 -2.479745619457259576e+00 -2.630746737339817454e+00 -3.122969664170482496e+00 -3.219266118167805946e+00 -3.398395195448056239e+00 -3.662021779734405236e+00 -3.662021779734405236e+00 -3.559302216952322517e+00 -3.627868568832964602e+00 -3.693189042054099147e+00 -3.538818790791666391e+00 -3.619020504400750404e+00 -3.715200797108844988e+00 -4.185757510306117979e+00 -4.784191322576384131e+00 -5.005646490716095798e+00 -5.240880693412485414e+00 -5.374746140303527042e+00 -5.460325606685985100e+00 -5.623277151952711606e+00 -5.620009355722412892e+00 -5.620009355722412892e+00 -5.648505902715680982e+00 -5.698706224530356579e+00 -5.659916852413784838e+00 -5.664344255955527707e+00 -5.698394735380521325e+00 -5.760165477803433909e+00 -5.839118431538484977e+00 -5.890195782512703815e+00 -5.956982734597233708e+00 -6.148686763349322959e+00 -6.371770889551646277e+00 -6.371770889551646277e+00 -6.655772124470821893e+00 -6.927719132656558365e+00 -7.061608185808502469e+00 -7.197489934710955772e+00 -7.458370979588556438e+00 -7.567067569697171869e+00 -7.746901467559832000e+00 -7.849436207478451166e+00 -7.940215229439880673e+00 -8.119087753159130116e+00 -8.309964976172848239e+00 -8.309964976172848239e+00 -8.451284142578051828e+00 -8.579936644838243254e+00 -8.579936644838243254e+00 -8.698650602824415046e+00 -8.837147023259413814e+00 -8.820883384291066776e+00 -8.917229882391003670e+00 -9.029343349913025563e+00 -9.055216423700350958e+00 -9.146517096315585960e+00 -9.169685586955159451e+00 -9.172080465708164709e+00 -9.254854648720765908e+00 -9.303472255062448681e+00 -9.303472255062448681e+00 -9.336118419221810072e+00 -9.396767364091456187e+00 -9.436550866322471975e+00 -9.449571704930406213e+00 -9.585055263462360031e+00 -9.569964952023754634e+00 -9.558594401999712886e+00 -9.569726513702882187e+00 -9.625571515984221449e+00 -9.669709773991153057e+00 -9.704913739964355912e+00 -9.704913739964355912e+00 -9.780010289090053988e+00 -9.809228565753954854e+00 -9.878860892399558224e+00 -9.895558008285203044e+00 -9.917843929385471213e+00 -9.924622773229119232e+00 -9.961753448798692290e+00 -9.997625436747521022e+00 -1.004440256099972117e+01 -1.019063250568190959e+01 -1.018817652712504618e+01
2.164155170324305377e+00 2.022049797569651641e+00 1.830620097480999409e+00 1.772583430238877655e+00 1.772583430238877655e+00 1.180345116520930659e+00 6.990392161053239350e-01 4.362944946471394303e-01 3.901736289831086446e-01 2.188101918069869090e-01 1.989866849251057390e-01 -9.118957915647837864e-02 -2.250271496936995519e-01 -4.052980230386137861e-01 -5.625328499126295290e-01 -6.503018835122839070e-01 -6.503018835122839070e-01 -8.014265663906524617e-01 -6.525099027946843488e-01 -6.525099027946843488e-01 -7.352010930077315098e-01 -9.567104508440255062e-01 -1.193071793456655261e+00 -1.259237254149464302e+00 -1.701497702025839720e+00 -1.964393012436695507e+00 -2.458653571065710253e+00 -2.632767542280932460e+00 -2.763091276013278197e+00 -2.751219515464484289e+00 -2.486442096474461572e+00 -2.486442096474461572e+00 -2.722003491249554763e+00 -3.106165995025001791e+00 -3.122969664170482496e+00 -3.581473039065146580e+00 -3.604882063277998316e+00 -3.673416760242453449e+00 -3.595281346940315981e+00 -3.756651548566376508e+00 -3.633005136073394592e+00 -3.522056510343289037e+00 -3.397416643744204823e+00 -3.397416643744204823e+00 -3.984583489468789264e+00 -4.612313529860610828e+00 -4.784191322576384131e+00 -5.071891361807690402e+00 -5.295939969702992300e+00 -5.374746140303527042e+00 -5.596177461751772775e+00 -5.643017568783742277e+00 -5.630169912613385286e+00 -5.681764585142085267e+00 -5.729433412561458994e+00 -5.729433412561458994e+00 -5.675139730079992617e+00 -5.696854129775341669e+00 -5.696854129775341669e+00 -5.760308455724726606e+00 -5.827141724371961651e+00 -5.890195782512703815e+00 -6.016568355526333178e+00 -6.195780306459515607e+00 -6.277649414310945808e+00 -6.528494589991974628e+00 -6.649164229031414131e+00 -6.804496316808013923e+00 -7.055206302570201871e+00 -7.303077210487987969e+00 -7.303077210487987969e+00 -7.555532897338092191e+00 -7.751363405213160362e+00 -7.849436207478451166e+00 -7.946206638522390620e+00 -8.170034089692492785e+00 -8.249779473609448743e+00 -8.388951611267899011e+00 -8.458037312791439888e+00 -8.498947364025104534e+00 -8.639203349399281251e+00 -8.770034751493133385e+00 -8.770034751493133385e+00 -8.834480222393779059e+00 -8.974857510540420691e+00 -9.029343349913025563e+00 -9.081473101262869108e+00 -9.114924911476670388e+00 -9.169685586955159451e+00 -9.213493784108363727e+00 -9.265670764003893112e+00 -9.276019895868886422e+00 -9.325383212736095828e+00 -9.342613279401138726e+00 -9.355484473713962856e+00 -9.431270156295434859e+00 -9.500547803604165509e+00 -9.500547803604165509e+00 -9.583692507339682365e+00 -9.567452381317611554e+00 -9.569726513702882187e+00 -9.619354971497454443e+00 -9.660332876575205674e+00 -9.663788989213802694e+00 -9.749015045141884883e+00 -9.773864074239355659e+00 -9.783760728380475058e+00 -9.863805798916937206e+00 -9.912993979353446505e+00 -9.912993979353446505e+00 -9.927226421022119496e+00 -9.956017597983308320e+00 -9.997625436747521022e+00 -1.004463180077670970e+01 -1.021663415697509336e+01 -1.016433047744322238e+01
2.164155170324305377e+00 2.037137189769834045e+00 1.768122876819166134e+00 1.798830027362490647e+00 1.524812634570301695e+00 1.243615218614098517e+00 9.547246984589368157e-01 5.492937505437025525e-01 3.775940800219026450e-01 3.775940800219026450e-01 2.245419305401897825e-01 3.959508526007959883e-03 -2.250271496936995519e-01 -2.836911719430164069e-01 -5.439231951695424616e-01 -6.378040044560430166e-01 -7.420004129241759561e-01 -7.650231231663595644e-01 -8.244492766328361810e-01 -7.157507916187040298e-01 -8.693975561743703118e-01 -8.693975561743703118e-01 -1.071547731756522071e+00 -1.413519529042586820e+00 -1.701497702025839720e+00 -1.900694094043775539e+00 -2.423908152198483990e+00 -2.632767542280932460e+00 -2.749084276383714442e+00 -2.850913089224037300e+00 -2.776860579139233565e+00 -2.695025890264155954e+00 -3.111002594571308233e+00 -3.107422033570459874e+00 -3.385487972073486063e+00 -3.547794155944917538e+00 -3.547794155944917538e+00 -3.683624299484189013e+00 -3.652163485901890105e+00 -3.756651548566376508e+00 -3.627154956220608018e+00 -3.504239718483691757e+00 -3.305753632157929278e+00 -3.617662624722751019e+00 -4.208506513271485616e+00 -4.427251731851461258e+00 -4.894649865710570147e+00 -5.227456058611792855e+00 -5.227456058611792855e+00 -5.406674415125167776e+00 -5.610393703526474596e+00 -5.643017568783742277e+00 -5.656448693118122151e+00 -5.701388842771598853e+00 -5.704887593061487294e+00 -5.733441253887044731e+00 -5.692596162188671371e+00 -5.694042100004660156e+00 -5.737932265261918019e+00 -5.777832243430973236e+00 -5.777832243430973236e+00 -5.907477164919396451e+00 -6.080155461923059335e+00 -6.195780306459515607e+00 -6.326682593237702434e+00 -6.540246196613476393e+00 -6.649164229031414131e+00 -6.827797172496712363e+00 -7.053413318970605417e+00 -7.161826671252382148e+00 -7.403450759288499050e+00 -7.561434395336554815e+00 -7.684815237856050807e+00 -7.845488075887796953e+00 -8.095994752305628595e+00 -8.095994752305628595e+00 -8.221182084778689614e+00 -8.381001821274860930e+00 -8.458037312791439888e+00 -8.501627629625954086e+00 -8.653325750882588707e+00 -8.706912167269937441e+00 -8.846242871117569351e+00 -8.841959732400354710e+00 -8.914149242597641631e+00 -9.029735614972107527e+00 -9.088642951383000934e+00 -9.088642951383000934e+00 -9.171767744681538659e+00 -9.225393011419633638e+00 -9.272117752909300847e+00 -9.272117752909300847e+00 -9.329742085088318149e+00 -9.359843346066183400e+00 -9.399124192752127627e+00 -9.434688362899057879e+00 -9.514910577640877776e+00 -9.590599258256307991e+00 -9.577690684620623784e+00 -9.585532550538244934e+00 -9.580925233133859464e+00 -9.651317190366929921e+00 -9.671463089478365305e+00 -9.671463089478365305e+00 -9.749107231088983028e+00 -9.786261463118732351e+00 -9.786261463118732351e+00 -9.864689585796481808e+00 -9.918963395491603663e+00 -9.928687264964672465e+00 -9.944092933823458935e+00 -9.961298901225063673e+00 -1.000154517914604924e+01 -1.012117806255908370e+01 -1.020628214554878177e+01 -1.016698148474147168e+01
2.134879588100559999e+00 1.940719289806756453e+00 1.768122876819166134e+00 1.557530582372046446e+00 1.375534861350793836e+00 1.243615218614098517e+00 8.813176933781370348e-01 5.835584380294072115e-01 5.495065323519690015e-01 3.807277614369207752e-01 2.231587230837315250e-01 1.890181444016017787e-01 -7.525568216198399996e-02 -3.423551941923332897e-01 -3.423551941923332897e-01 -6.250484640436955175e-01 -7.055969696998831697e-01 -7.650231231663595644e-01 -7.986039132349171954e-01 -9.074945710867927673e-01 -8.410458268397328352e-01 -1.014272646778792808e+00 -1.112887455243686707e+00 -1.183313675445382795e+00 -1.606922853745595958e+00 -2.070076861742093932e+00 -2.070076861742093932e+00 -2.577489108929414741e+00 -2.757657418619103851e+00 -2.850913089224037300e+00 -2.969869061920544340e+00 -3.131845093726561835e+00 -3.111002594571308233e+00 -3.294687005897964482e+00 -3.364465490670903502e+00 -3.473495988395058021e+00 -3.577971556495715966e+00 -3.535267397309838522e+00 -3.535267397309838522e+00 -3.482860565734860803e+00 -3.486118750929359855e+00 -3.504239718483691757e+00 -3.697197857731986836e+00 -3.961426975991725108e+00 -4.208506513271485616e+00 -4.472235881926712509e+00 -4.921228872873303573e+00 -5.160309148464730100e+00 -5.350299296044000563e+00 -5.433229167263330162e+00 -5.489604286344498263e+00 -5.638137640041341214e+00 -5.669320429078614332e+00 -5.669320429078614332e+00 -5.658207976720227350e+00 -5.684269516303434244e+00 -5.692596162188671371e+00 -5.675120617636244091e+00 -5.730364999659352421e+00 -5.783105722679456662e+00 -5.832205940642842812e+00 -5.920638973369388935e+00 -6.094989940139852180e+00 -6.233278023111322064e+00 -6.551400340404531342e+00 -6.631734388483026876e+00 -6.706546164505290619e+00 -6.948991592565400666e+00 -7.208375038622836684e+00 -7.208375038622836684e+00 -7.444176651238263887e+00 -7.660581909987098648e+00 -7.814759706898311897e+00 -7.877907855869373144e+00 -8.066359929504576698e+00 -8.143771007141632268e+00 -8.303590743637803584e+00 -8.385999402496917554e+00 -8.462814421813735777e+00 -8.584588970000670116e+00 -8.665396481994852351e+00 -8.709793870218625500e+00 -8.848833009060104615e+00 -8.902281671124681495e+00 -8.902281671124681495e+00 -9.042482281860266369e+00 -9.097713904481990355e+00 -9.117007069203047820e+00 -9.171908572385092384e+00 -9.237292238730901772e+00 -9.275505366792550888e+00 -9.303948175908663742e+00 -9.334100957440540469e+00 -9.346972151753361047e+00 -9.402542399355750646e+00 -9.461138835148062753e+00 -9.461138835148062753e+00 -9.594572633713665866e+00 -9.578768645912443702e+00 -9.585532550538244934e+00 -9.594557474320440704e+00 -9.659196410659729892e+00 -9.672250866320283080e+00 -9.711083878648317125e+00 -9.749199417036079396e+00 -9.777604987151855553e+00 -9.817070413961015873e+00 -9.897806130442237560e+00 -9.897806130442237560e+00 -9.945553777766011905e+00 -9.959498602682247181e+00 -9.961298901225063673e+00 -1.000658915863790988e+01 -1.010580929470146039e+01 -1.020628214554878177e+01 -1.016796549663523663e+01
2.146141117891290584e+00 2.048398719560564185e+00 1.778716928685000642e+00 1.448211141739910612e+00 1.448211141739910612e+00 9.899098804030677101e-01 5.427390445918395256e-01 5.835584380294072115e-01 3.926200457760011808e-01 2.125621332230882288e-01 2.231587230837315250e-01 3.964061520806846928e-03 -3.977660353267381543e-02 -1.890237664723835032e-01 -3.919380757252413638e-01 -6.002877240095924050e-01 -6.002877240095924050e-01 -7.956603837722558970e-01 -9.781133809667077461e-01 -9.781133809667077461e-01 -1.119483006629230948e+00 -1.180978268307951939e+00 -1.112887455243686707e+00 -1.220785324464346289e+00 -1.491658273163675386e+00 -1.775747355901436730e+00 -2.212827743178813478e+00 -2.352512208812328698e+00 -2.667758001676862278e+00 -2.795512268680656831e+00 -3.096125408764998976e+00 -3.273156748977646302e+00 -3.247474585881583220e+00 -3.361136463591863688e+00 -3.479983991726673054e+00 -3.479983991726673054e+00 -3.479606869136581349e+00 -3.448541371488822449e+00 -3.396233109142534623e+00 -3.400382789602292011e+00 -3.646273443174683937e+00 -3.679076890177654935e+00 -3.890155996980282360e+00 -4.250435243984352240e+00 -4.314827937344005271e+00 -4.766172613212965814e+00 -5.213463610861728270e+00 -5.213463610861728270e+00 -5.424971727729709592e+00 -5.533224986422711211e+00 -5.572534157563827861e+00 -5.605183601692645290e+00 -5.599426230802743376e+00 -5.631494644495727897e+00 -5.593668859912842350e+00 -5.645977060859232566e+00 -5.640752088861568758e+00 -5.689248857615575972e+00 -5.674800843872165323e+00 -5.744493239638684301e+00 -5.838976330811577853e+00 -5.998148293616305970e+00 -5.998148293616305970e+00 -6.212381869449965954e+00 -6.496358114809667406e+00 -6.631734388483026876e+00 -6.738845268926496601e+00 -6.979822970989446596e+00 -7.094393395931586355e+00 -7.353464040080728736e+00 -7.498553041538621677e+00 -7.601958473413819917e+00 -7.814109036026956723e+00 -7.988948851867519352e+00 -7.988948851867519352e+00 -8.148768588363690668e+00 -8.308588324859861984e+00 -8.385999402496917554e+00 -8.467591530836031666e+00 -8.591311923239468129e+00 -8.665396481994852351e+00 -8.768416382121376529e+00 -8.851423147002638103e+00 -8.849998973025140714e+00 -8.981036818808622257e+00 -9.059474833853832010e+00 -9.059474833853832010e+00 -9.119089226929427028e+00 -9.205029611982910254e+00 -9.237292238730901772e+00 -9.284281890993197450e+00 -9.300027525570865095e+00 -9.334100957440540469e+00 -9.351331024105583367e+00 -9.405960605959373666e+00 -9.445421268088812994e+00 -9.514386644453024289e+00 -9.589324371555552062e+00 -9.585852491549934129e+00 -9.603612719758881866e+00 -9.635860700324228034e+00 -9.635860700324228034e+00 -9.684168856065356934e+00 -9.716190417538387081e+00 -9.749199417036079396e+00 -9.781345900064357224e+00 -9.817604712786542009e+00 -9.865573372676024633e+00 -9.928042391836980229e+00 -9.962420290567349568e+00 -9.960959446624796598e+00 -9.966580204466822579e+00 -1.005471975976043097e+01 -1.005471975976043097e+01 -1.019593013412247196e+01 -1.018221685407252686e+01
2.059660249351294325e+00 2.059660249351294325e+00 1.789310980550835151e+00 1.260886864313911060e+00 1.104342933156154949e+00 7.368812500593920900e-01 2.026135051682650401e-01 3.111386529673658141e-01 2.016816535225950668e-01 5.653489629813171491e-02 9.771556613498309785e-02 7.644071253432130342e-02 -9.344374984582191901e-02 -9.344374984582191901e-02 -1.794389470742501769e-01 -4.239829097281833103e-01 -6.813407353899728625e-01 -7.623937467703532089e-01 -1.027129295242577900e+00 -1.130519525253536495e+00 -1.299283678605767545e+00 -1.479084350582303919e+00 -1.360603178783653000e+00 -1.343062261791516221e+00 -1.717240465862195364e+00 -1.717240465862195364e+00 -2.034892839347259841e+00 -2.486663403947671380e+00 -2.667758001676862278e+00 -2.797323667151379034e+00 -3.225818823809152747e+00 -3.273156748977646302e+00 -3.444979651934358955e+00 -3.588194027167946221e+00 -3.533802828948525043e+00 -3.583167434773150806e+00 -3.407627809804688823e+00 -3.463612461212628890e+00 -3.344057487652106975e+00 -3.448095018630375819e+00 -3.448095018630375819e+00 -3.706166923667475022e+00 -3.971257769352491973e+00 -4.250435243984352240e+00 -4.539645682251202352e+00 -4.902144648208105693e+00 -5.050562320903692282e+00 -5.331811621701291415e+00 -5.364586379415373862e+00 -5.432820751947666338e+00 -5.542015908017540404e+00 -5.580723320242050534e+00 -5.580723320242050534e+00 -5.573787107617722114e+00 -5.592874357454800105e+00 -5.645977060859232566e+00 -5.681167196929682639e+00 -5.682284115646826450e+00 -5.674800843872165323e+00 -5.757313688253766770e+00 -5.831542666786445395e+00 -5.913205309344255589e+00 -6.108567374698223418e+00 -6.348018130264934555e+00 -6.348018130264934555e+00 -6.627488274660806589e+00 -6.873501791617033341e+00 -6.873501791617033341e+00 -7.125500754698230743e+00 -7.384571398847371348e+00 -7.498553041538621677e+00 -7.597935281616272185e+00 -7.795931824129432641e+00 -7.911537774230462006e+00 -8.071357510726633322e+00 -8.153766169585749068e+00 -8.231177247222804638e+00 -8.390996983718975955e+00 -8.527730291600253310e+00 -8.527730291600253310e+00 -8.677467213107115995e+00 -8.774430223561163089e+00 -8.851423147002638103e+00 -8.858038213649926718e+00 -8.971628348599837821e+00 -9.037264447438554171e+00 -9.106784857580981551e+00 -9.121171384655808012e+00 -9.171623582501043259e+00 -9.249191466042169907e+00 -9.290512487790994811e+00 -9.290512487790994811e+00 -9.338459829792761013e+00 -9.374244390036015062e+00 -9.405960605959373666e+00 -9.450570282685243129e+00 -9.513862711265169025e+00 -9.589324371555552062e+00 -9.579846607204265396e+00 -9.614626217523639440e+00 -9.608189715507023720e+00 -9.667075630952529863e+00 -9.705215168866377695e+00 -9.705215168866377695e+00 -9.750110817579793476e+00 -9.790878768694353695e+00 -9.790878768694353695e+00 -9.866457159555569234e+00 -9.929615472338001680e+00 -9.962420290567349568e+00 -9.977825959426137814e+00 -9.992769087498665215e+00 -1.001163313812976874e+01 -1.009044052684383708e+01 -1.016646942062002346e+01 -1.016829930026193374e+01
2.151407055081005382e+00 1.903688195724206889e+00 1.523932232830302880e+00 1.523932232830302880e+00 9.495040636283229585e-01 3.387483202128799831e-01 3.387483202128799831e-01 6.496159580828556046e-02 2.091528334463688826e-02 5.653489629813171491e-02 -1.296847361336650462e-02 4.969481122482973835e-03 2.381412369410335766e-02 -2.978764537914580304e-02 -1.648749586478216733e-01 -1.529323568845627201e-01 -4.737570224561963306e-01 -9.186319612006119684e-01 -9.186319612006119684e-01 -1.275391144844618463e+00 -1.579554560800659591e+00 -1.479084350582303919e+00 -1.705441903738076359e+00 -1.752960606462580229e+00 -1.485543016271449579e+00 -1.771489813070161734e+00 -1.868232815556763349e+00 -2.145266020393906015e+00 -2.599743910563740101e+00 -3.074691436905118369e+00 -3.074691436905118369e+00 -3.572224180677045613e+00 -3.637819298772617671e+00 -3.588194027167946221e+00 -3.663249681140597236e+00 -3.514526351879259991e+00 -3.407627809804688823e+00 -3.288072836244166020e+00 -3.354208980152570074e+00 -3.359723721425235343e+00 -3.334944273717781904e+00 -3.310853998555503885e+00 -3.641055883953998151e+00 -4.456338223999791737e+00 -4.799088329156589339e+00 -4.799088329156589339e+00 -5.154247931638026081e+00 -5.315306451745262173e+00 -5.364586379415373862e+00 -5.405662117706319769e+00 -5.524457619067616676e+00 -5.616355819121983117e+00 -5.553929837244337975e+00 -5.527136354246625416e+00 -5.551651831542152138e+00 -5.726889548021170562e+00 -5.677002717241566465e+00 -5.677002717241566465e+00 -5.678119635958711164e+00 -5.762720104981836400e+00 -5.831542666786445395e+00 -5.905771645319124019e+00 -6.092457419937224117e+00 -6.199678145720203482e+00 -6.435304494455415636e+00 -6.551559505291527863e+00 -6.769118313379343554e+00 -7.009375772612020050e+00 -7.270589756156123684e+00 -7.270589756156123684e+00 -7.497048991752578218e+00 -7.711867277967408896e+00 -7.795931824129432641e+00 -7.880644030498186403e+00 -8.076355091948691722e+00 -8.153766169585749068e+00 -8.313585906081920385e+00 -8.395994564941034355e+00 -8.472368639858327555e+00 -8.600801746993861130e+00 -8.689537944219379639e+00 -8.715557276115998064e+00 -8.851400248202285326e+00 -8.905152661768671152e+00 -8.905152661768671152e+00 -9.037847686075187070e+00 -9.109828151045572753e+00 -9.121171384655808012e+00 -9.171338592616992358e+00 -9.261090693353438041e+00 -9.293058415193844013e+00 -9.296125382611279520e+00 -9.346856329949966735e+00 -9.355689896457802135e+00 -9.409378812562998462e+00 -9.491817951553510824e+00 -9.491817951553510824e+00 -9.578948242438137584e+00 -9.580924568496085314e+00 -9.614626217523639440e+00 -9.621821956693604960e+00 -9.674139323861719930e+00 -9.718580119832227027e+00 -9.719147434882485115e+00 -9.758052857059716700e+00 -9.793187421482162591e+00 -9.818139011612068145e+00 -9.901495506461237994e+00 -9.931188552839023131e+00 -9.954224812129721656e+00 -9.993231628284922508e+00 -1.001667711762162938e+01 -1.001667711762162938e+01 -1.008618613941159836e+01 -1.016370528336248213e+01 -1.016370528336248213e+01
