3.546564008598993123e+00 3.182162893097203238e+00 3.003164122243946910e+00 2.506156946339901381e+00 2.232533066705892466e+00 2.037220369393248021e+00 1.628021390683169756e+00 1.336351839312698742e+00 1.336351839312698742e+00 1.000926110556902726e+00 5.701519614024641580e-01 5.357150064282990565e-01 6.093949014779533879e-01 4.910602598135744845e-01 4.599746576055848690e-01 2.971154215189925618e-01 2.723686816807733280e-01 2.578497062444491394e-01 2.056499598507963156e-01 7.080313117992335925e-03 7.080313117992335925e-03 1.509551912528024099e-02 -9.661964028267325255e-02 -1.771050428517448594e-01 -2.803109894583581951e-01 -3.205983221982016129e-01 -3.447023988932786387e-01 -1.998976536299624795e-01 -1.215316731093678132e-01 -1.636198044935266993e-01 1.069492678124619664e-02 4.105600103017090774e-01 6.513995582393532491e-01 1.357668107808754687e+00 1.647700653932682835e+00 1.647700653932682835e+00 1.833810880538583543e+00 1.441003855247132481e+00 1.390062256349553049e+00 9.425669746965791296e-01 5.742645776957413517e-01 4.999049962261654101e-01 1.059849699896995429e-01 -2.657863114793608816e-01 -8.827435249603446943e-01 -9.522466244223179999e-01 -1.029470738672012553e+00 -1.040455789800624586e+00 -9.145159370167619262e-01 -9.735279533726766132e-01 -9.516034513216049540e-01 -9.516034513216049540e-01 -8.042422668265112318e-01 -8.482657767433282592e-01 -8.664428161266312101e-01 -9.618768081306662276e-01 -1.025481763436792981e+00 -1.060946994531374754e+00 -1.204089091865008454e+00 -1.085396405069754433e+00 -1.356876041506059449e+00 -1.422977200887335369e+00 -1.251574919832627808e+00 -1.251574919832627808e+00 -1.389478127542386421e+00 -1.951781056263831804e+00 -2.090796712241622668e+00 -2.344229571348399599e+00 -2.648756998621534908e+00 -2.693719768467302877e+00 -2.739480214029723637e+00 -2.927441296915566760e+00 -3.005790653181722671e+00 -3.146274784598523944e+00 -3.230167297833621110e+00 -3.275638677015363154e+00 -3.531469935368410695e+00 -3.775276518647787238e+00 -3.775276518647787238e+00 -4.006741810605096710e+00 -4.226903190661078114e+00 -4.246310266424011104e+00 -4.462917319214644074e+00 -4.697519073517979038e+00 -4.718042993385950012e+00 -4.940787710393164112e+00 -5.147651052086041901e+00 -5.151348492730901896e+00 -5.380946546933365937e+00 -5.611424781139403350e+00 -5.611424781139403350e+00 -5.787975186836801456e+00 -6.026353382984208196e+00 -6.034879456573282397e+00 -6.260090062258175436e+00 -6.433053297365717071e+00 -6.450058974241516196e+00 -6.601670796224368587e+00 -6.865574191035704210e+00 -6.837391706061829666e+00 -7.027499970369142090e+00 -7.121465336782071276e+00 -7.121465336782071276e+00 -7.298193070209408440e+00 -7.468244070401445001e+00 -7.468244070401445001e+00 -7.620233978557199528e+00 -7.772223886712954055e+00 -7.821559952802819460e+00 -7.926056866686102431e+00 -8.081159014601182022e+00 -8.129078050509164655e+00 -8.236917305640330866e+00 -8.273867770142256717e+00 -8.308497510170841593e+00 -8.428083515907340839e+00
3.360626449711338282e+00 3.182162893097203238e+00 2.941166763382433214e+00 2.440534094423766120e+00 2.232533066705892466e+00 1.797821441319258362e+00 1.577271302922744978e+00 1.451650634961158426e+00 1.174975818895057422e+00 9.019829416599920435e-01 7.511309687513874067e-01 5.382935931306491728e-01 5.204425005701935891e-01 3.839221765021552657e-01 4.160082567973882872e-01 3.115740130245830963e-01 1.882806124531688496e-01 1.882806124531688496e-01 1.217386321574466246e-01 9.558317315853048779e-02 1.892250449537629178e-02 -3.198318122202212926e-02 -1.811720206846886561e-01 -2.437005339936731962e-01 -2.735494407120066529e-01 -2.086063169852257204e-01 -2.677122729621062014e-01 -1.683145077332365014e-01 -5.544535088386785826e-02 -5.544535088386785826e-02 2.654012158083594031e-01 1.131414312208258721e+00 1.253860794027435555e+00 1.433597131793788115e+00 1.698879230898546533e+00 1.697221322577668445e+00 1.604216583155511078e+00 1.227752166964446889e+00 1.068653809813082223e+00 6.390321316637279647e-01 2.822614324016314846e-01 2.822614324016314846e-01 -1.824231714338152011e-01 -7.600718980039666839e-01 -7.600718980039666839e-01 -1.176055271591617490e+00 -1.120612763414003510e+00 -1.040455789800624586e+00 -1.013876321545614134e+00 -9.252010204199989651e-01 -9.384022358708019595e-01 -8.578636864575341914e-01 -8.033892499462969017e-01 -7.658902143797008399e-01 -9.872142762989166709e-01 -1.057310800134701134e+00 -1.057310800134701134e+00 -1.191658322191613717e+00 -1.306694164125122404e+00 -1.085396405069754433e+00 -9.303588385969085994e-01 -1.504202399283453229e+00 -1.505711647039617240e+00 -1.466731024987754983e+00 -1.872642027603166337e+00 -1.914080807572898779e+00 -2.300623765615007699e+00 -2.604601051614021223e+00 -2.604601051614021223e+00 -2.756198343979679333e+00 -2.838715882767679055e+00 -2.927441296915566760e+00 -3.022233564690578689e+00 -3.236168807087549837e+00 -3.230167297833621110e+00 -3.495619686184378239e+00 -3.725132202270287518e+00 -3.715767732869014406e+00 -3.934183688110634236e+00 -4.165279643353223094e+00 -4.205038079403867535e+00 -4.432398877456634523e+00 -4.676995153650008064e+00 -4.676995153650008064e+00 -4.905054873408601246e+00 -5.126985318416141801e+00 -5.147651052086041901e+00 -5.340843026866726184e+00 -5.644107430906593059e+00 -5.622599490631983166e+00 -5.789787455495959634e+00 -5.958271220027819837e+00 -5.977005551205539113e+00 -6.245561235754101048e+00 -6.416047620489917946e+00 -6.416047620489917946e+00 -6.554944478681683506e+00 -6.860420956568943573e+00 -6.865574191035704210e+00 -7.096343852712736933e+00 -7.152298740661558796e+00 -7.130217616823772531e+00 -7.381759913089564584e+00 -7.450541700603109163e+00 -7.424599899984853479e+00 -7.570897912467334123e+00 -7.722887820623087762e+00 -7.722887820623087762e+00 -7.874877728778842290e+00 -8.070474829609395329e+00 -8.081159014601182022e+00 -8.157476114452441252e+00 -8.273424789648451849e+00 -8.273867770142256717e+00 -8.397256183941795626e+00 -8.445081905657712440e+00
3.338033956750156239e+00 3.133777381871188261e+00 2.658670584274891446e+00 2.350678233832908859e+00 2.154220459201573235e+00 1.760736988915406753e+00 1.405829798617188819e+00 1.405829798617188819e+00 1.115773842483357869e+00 6.866584917780453878e-01 6.253751701760992265e-01 5.906627061472851103e-01 4.431349744159513993e-01 3.839221765021552657e-01 2.794879327293500748e-01 1.622482013615229590e-01 1.964798389341531337e-01 1.056688482863394341e-01 -1.466526007680267561e-03 5.250849109165057343e-02 -5.922554300039455100e-02 -1.103636378608126856e-01 -1.103636378608126856e-01 -3.102960251356015609e-01 -2.686935239924152508e-01 -2.086063169852257204e-01 -1.816482787596445103e-01 -1.937135587650824775e-01 -1.786907694498604815e-01 1.418133375482594216e-01 5.807458460244007137e-01 8.728506486632008343e-01 1.434882423458369249e+00 1.621617768441200313e+00 1.621617768441200313e+00 1.764237333222499204e+00 1.274424310970731833e+00 1.227752166964446889e+00 8.482836298320890478e-01 4.854614391601923540e-01 3.981928828062420989e-01 -8.839624688680183806e-02 -5.116588668553595509e-01 -5.927302205766902254e-01 -1.119748746953594498e+00 -1.428601338703361368e+00 -1.428601338703361368e+00 -1.329249953001151674e+00 -9.741257678612289528e-01 -9.252010204199989651e-01 -8.899615855148572674e-01 -8.039482224985113890e-01 -8.033892499462969017e-01 -9.347470826651881337e-01 -1.103603950950675205e+00 -1.082648268302951688e+00 -1.154601703352228670e+00 -1.182709547316271870e+00 -1.317732045732903146e+00 -1.032877556547473263e+00 -1.084355976183373871e+00 -1.084355976183373871e+00 -1.449969368910708045e+00 -1.855334127977771086e+00 -1.872642027603166337e+00 -2.237176564535800161e+00 -2.554569521538558430e+00 -2.562509327507695556e+00 -2.718671547540178590e+00 -2.873668601155493718e+00 -2.902169475126127551e+00 -3.094275100678246293e+00 -3.259947186281576759e+00 -3.259947186281576759e+00 -3.507304523569774624e+00 -3.687871241492429064e+00 -3.725132202270287518e+00 -3.904411749909992402e+00 -4.142920247505355924e+00 -4.165279643353223094e+00 -4.407297890009207464e+00 -4.624694347569485942e+00 -4.661184825371373464e+00 -4.882690958732079700e+00 -5.103999195563337921e+00 -5.103999195563337921e+00 -5.319300025986214209e+00 -5.563131946897019731e+00 -5.644107430906593059e+00 -5.762804165388024202e+00 -5.949490617021769623e+00 -5.958271220027819837e+00 -6.235640808463811524e+00 -6.381260985090834836e+00 -6.399041943614117045e+00 -6.554521491501873243e+00 -6.730961387365986148e+00 -6.766711060164019464e+00 -7.065659347277377655e+00 -7.192998380628571553e+00 -7.192998380628571553e+00 -7.372651394140337544e+00 -7.465612901989780781e+00 -7.450541700603109163e+00 -7.530775797944852634e+00 -7.624215688443355177e+00 -7.673551754533221470e+00 -7.825541662688975997e+00 -7.928195504754865119e+00 -7.985059104614338210e+00 -8.113711156273497593e+00 -8.235449046341127399e+00 -8.235449046341127399e+00 -8.299034328406758476e+00 -8.413124022363838606e+00 -8.452606365034473157e+00
3.510693522477926987e+00 3.110335900498692574e+00 2.579287080844052227e+00 2.350678233832908859e+00 2.115399371851256483e+00 1.676700878787436233e+00 1.488202093323558906e+00 1.248366102904601149e+00 1.124057995258138209e+00 8.585680504593021789e-01 5.582865553185412111e-01 4.434626710528281057e-01 4.434626710528281057e-01 2.762436501008676548e-01 1.475153524099895586e-01 1.622482013615229590e-01 1.181607774489029650e-01 8.899291836843860326e-02 -1.466526007680267561e-03 8.891694528420739790e-03 -7.212653046690942205e-02 -9.413112687769809028e-02 -2.591997547100682309e-01 -2.419439693584231887e-01 -2.419439693584231887e-01 -1.883221426335280613e-01 -1.821707806341432700e-01 -1.937135587650824775e-01 -2.792405192385967808e-02 2.726927466891227447e-01 5.807458460244007137e-01 1.227715939670669387e+00 1.569283823223669438e+00 1.602956444405566838e+00 1.725086101980531694e+00 1.536492978321059910e+00 1.372885606759577382e+00 9.506746366708666018e-01 5.314631871627284454e-01 5.314631871627284454e-01 1.676413827062098183e-01 -4.036757351648240233e-01 -5.116588668553595509e-01 -9.098614429952744942e-01 -1.308818228763611424e+00 -1.410994310191751921e+00 -1.637238528290509532e+00 -1.731202059614164179e+00 -1.184261018122338305e+00 -9.208416157855408013e-01 -8.547221506097156807e-01 -8.547221506097156807e-01 -9.027746001267655807e-01 -1.035962299045174229e+00 -1.103603950950675205e+00 -1.178146934598009787e+00 -1.406258876458210016e+00 -1.182709547316271870e+00 -1.016389483576912722e+00 -1.014357249688070173e+00 -1.050231373725633022e+00 -1.324015110639339188e+00 -1.836394745265469641e+00 -1.836394745265469641e+00 -2.224414815138781698e+00 -2.504787829566970103e+00 -2.504787829566970103e+00 -2.748431698600689810e+00 -2.906468743277867528e+00 -2.873668601155493718e+00 -3.121346449850554094e+00 -3.263889729011319574e+00 -3.283725565475604125e+00 -3.525725114852393816e+00 -3.840075078739381809e+00 -3.696530817545633063e+00 -3.898393752876271989e+00 -4.178898873573242412e+00 -4.178898873573242412e+00 -4.386120079546589778e+00 -4.603465884944666797e+00 -4.624694347569485942e+00 -4.885582632806638514e+00 -5.106629280797241321e+00 -5.306950836121545834e+00 -5.297123866322111851e+00 -5.471148300602972192e+00 -5.717827554882664032e+00 -5.802017501938985689e+00 -5.940710014015719409e+00 -6.192341069441757995e+00 -6.140431571651979503e+00 -6.357583880719287706e+00 -6.546025091528967721e+00 -6.546025091528967721e+00 -6.730538400186174997e+00 -6.912265165131447731e+00 -6.967501571506776514e+00 -7.179453415502151437e+00 -7.348469203324850874e+00 -7.367884889595546660e+00 -7.470090842877176840e+00 -7.553709576668568459e+00 -7.542242687306710991e+00 -7.624535080038270962e+00 -7.701297758479531907e+00 -7.726869530509244299e+00 -7.878859438664999715e+00 -8.044061342542573101e+00 -8.044061342542573101e+00 -8.146263297945811388e+00 -8.270980582875942844e+00 -8.309219380143677114e+00 -8.324200886671260236e+00 -8.428991860785878032e+00 -8.462080295408082264e+00
3.331012356827991905e+00 2.874563018592241725e+00 2.874563018592241725e+00 2.346066138922024980e+00 1.867466581468261166e+00 1.867466581468261166e+00 1.490951111048294031e+00 1.213390775306320446e+00 1.124057995258138209e+00 8.148851975630562183e-01 5.472580229123977791e-01 5.146868632175596314e-01 2.818316514762099767e-01 1.607337615608041004e-01 1.489947778600592687e-01 5.871189942117664706e-02 7.282377816232184220e-02 7.282377816232184220e-02 1.721662820453186138e-02 -1.038436843008799237e-01 -7.212653046690942205e-02 -2.036019785477201638e-01 -1.841684347135773558e-01 -2.126195726251635665e-01 -1.827879382079741766e-01 -6.360998016910796027e-02 -8.014878885151181798e-02 4.946261451804234710e-02 3.726119013433909499e-01 3.726119013433909499e-01 1.030875564423642921e+00 1.464194665962283315e+00 1.569283823223669438e+00 1.551397337622231642e+00 1.384422538320803531e+00 1.536492978321059910e+00 1.065749734358383716e+00 7.554188728461854740e-01 6.184134359427840844e-01 1.895869562037196809e-01 -3.031834163633358448e-01 -3.031834163633358448e-01 -9.497287046304248026e-01 -1.247889382809716396e+00 -1.247889382809716396e+00 -1.767164462815926429e+00 -1.727593957243686029e+00 -1.731202059614164179e+00 -1.274577213615913918e+00 -8.631822902724444191e-01 -8.892193256077218777e-01 -9.000602126501549005e-01 -9.640833646362073628e-01 -1.021341638979748945e+00 -9.912116653500915309e-01 -9.942965180129291758e-01 -9.918381169388230667e-01 -9.847541475849758141e-01 -9.873822007042093452e-01 -1.380811392906644119e+00 -1.380811392906644119e+00 -1.780498189554134747e+00 -2.141744301627566127e+00 -2.272285022503499619e+00 -2.482680828170011011e+00 -2.602075105463432347e+00 -2.549446830136045339e+00 -2.864272895902185923e+00 -2.978174029146407165e+00 -3.072718142516262851e+00 -3.296805730069877427e+00 -3.481199163913226258e+00 -3.481199163913226258e+00 -3.658763736137292000e+00 -3.854012929793857456e+00 -3.984665248517115899e+00 -4.118585693735172804e+00 -4.362312418089652866e+00 -4.404084656103731454e+00 -4.539740605414424479e+00 -4.758097592868811176e+00 -4.812232453927781428e+00 -5.088559968577002657e+00 -5.252552123050388211e+00 -5.300647643342647264e+00 -5.517348215071848472e+00 -5.687932307104333063e+00 -5.687932307104333063e+00 -5.991434494555597290e+00 -6.164558011146080041e+00 -6.192341069441757995e+00 -6.387531382023189153e+00 -6.528854659197253163e+00 -6.517631149893572839e+00 -6.739052634636705008e+00 -6.947825825853968240e+00 -6.910882076351821723e+00 -7.105473980148425461e+00 -7.263472715796991608e+00 -7.263472715796991608e+00 -7.456023984809887928e+00 -7.565176466030426816e+00 -7.553709576668568459e+00 -7.636240154790044699e+00 -7.708018802122976965e+00 -7.701297758479531907e+00 -7.829523372575133422e+00 -7.932177214641021656e+00 -7.981513280730887949e+00 -8.149801389803974061e+00 -8.221407591933937553e+00 -8.221407591933937553e+00 -8.315483401610459069e+00 -8.393536455232739613e+00 -8.428991860785878032e+00 -8.479078685158453865e+00
3.357014033197786240e+00 3.169521277039826224e+00 2.651272139653699789e+00 2.333344125859809104e+00 2.093320939039918560e+00 1.664963687604630094e+00 1.357221176852934530e+00 1.357221176852934530e+00 1.038916343868952596e+00 6.240825191980979847e-01 5.472580229123977791e-01 4.036293141313290200e-01 1.820392183599656988e-01 1.607337615608041004e-01 6.105014863502240818e-02 1.584580485959299900e-02 7.227738125092099397e-02 -2.534862181167293893e-02 -1.038478549818474261e-01 -1.098686864573049510e-01 -1.765176803834673791e-01 -1.673083585161761477e-01 -1.034360700543052319e-01 -1.259971909144876057e-01 -9.939190225040271665e-02 9.363549641923475664e-02 9.363549641923475664e-02 4.282814066081996329e-01 6.506834352887467254e-01 7.755915043136746290e-01 1.102609523688572679e+00 1.521303550611622590e+00 1.561376543931499050e+00 1.394401744630070938e+00 1.256916308347432620e+00 1.227426945328642827e+00 8.994050233932254779e-01 3.985599561281351066e-01 3.985599561281351066e-01 -1.069671762664292924e-01 -8.721296444472460552e-01 -9.328519289302613648e-01 -1.304451984005182918e+00 -1.763281711895708703e+00 -1.767804065925429935e+00 -1.713948193571300571e+00 -1.554256258809061153e+00 -1.420666651776973710e+00 -8.044593067359804284e-01 -8.897232161188054489e-01 -8.897232161188054489e-01 -1.065909707769603809e+00 -1.117426154968137464e+00 -1.021341638979748945e+00 -1.002655348515678835e+00 -9.225034685696728021e-01 -9.918381169388230667e-01 -1.003983078029964782e+00 -1.275415716059387972e+00 -1.352322889553057905e+00 -1.765481369857135441e+00 -2.071128359224432280e+00 -2.145755270184386276e+00 -2.383250822323405238e+00 -2.567055334974419178e+00 -2.567055334974419178e+00 -2.782210684848794191e+00 -3.006417105227285447e+00 -2.978174029146407165e+00 -3.163032742605866865e+00 -3.384416328483591307e+00 -3.436500429700325210e+00 -3.676316888941805416e+00 -3.816935837387873676e+00 -3.871526699893246715e+00 -4.118974545428708112e+00 -4.317685793860046140e+00 -4.317685793860046140e+00 -4.497715855543947150e+00 -4.723392983825741354e+00 -4.758097592868811176e+00 -4.970251903507278968e+00 -5.238455365760661842e+00 -5.252552123050388211e+00 -5.548195130598664093e+00 -5.693441239562142542e+00 -5.692324852258723311e+00 -5.997581143673547999e+00 -6.170704660264030750e+00 -6.170704660264030750e+00 -6.363939080553951300e+00 -6.533224243514649032e+00 -6.533224243514649032e+00 -6.736106406005467839e+00 -6.951616168798913975e+00 -6.947825825853968240e+00 -7.058558311907011884e+00 -7.255478798195375667e+00 -7.274178009493251551e+00 -7.349257853108253968e+00 -7.436205249952675622e+00 -7.558265708568976393e+00 -7.647707044151903055e+00 -7.718770732911521826e+00 -7.718770732911521826e+00 -7.783847181962027406e+00 -7.882841148551156252e+00 -7.932177214641021656e+00 -8.034831056706909891e+00 -8.191713247321683156e+00 -8.185947758814382524e+00 -8.308284712714176123e+00 -8.324481783265957446e+00 -8.349367444935761995e+00 -8.444859699207921011e+00 -8.482301848702578084e+00
3.409845595445180955e+00 3.213551817213943007e+00 2.540674619515835619e+00 2.057300734953969368e+00 2.057300734953969368e+00 1.637076631648513692e+00 1.295401771373453359e+00 1.168817562681241373e+00 8.850522138527646687e-01 3.716175508080192813e-01 2.896877715015259702e-01 1.279886982311974619e-01 -5.133105384161942494e-03 6.542166592975000305e-02 5.069714171239716322e-03 -8.148753738874489616e-02 -8.148753738874489616e-02 -1.112307588947789999e-01 -1.137150739132177235e-01 -1.709791619036021282e-01 -2.638357897175053757e-01 -1.831999877847598768e-01 -1.034360700543052319e-01 -6.782594711539782772e-02 -2.102409549361674082e-02 4.887825509526607520e-02 5.041228589718269593e-01 5.496264900248580831e-01 5.496264900248580831e-01 1.051761953877056177e+00 1.445652628195257750e+00 1.445652628195257750e+00 1.553982939248925277e+00 1.276722227565797674e+00 1.256916308347432620e+00 1.061789455884663003e+00 6.283974825155570487e-01 5.011375503053998592e-01 -3.354899617276810297e-02 -5.101644831629705834e-01 -6.545604839785683637e-01 -1.241398053562555948e+00 -1.630234780169423914e+00 -1.630234780169423914e+00 -1.729000571596930547e+00 -1.587147220843414974e+00 -1.554256258809061153e+00 -1.247328953342349056e+00 -8.845221543579501189e-01 -8.538083820280075731e-01 -9.888142454009340998e-01 -1.114842265700379587e+00 -1.194123153737937315e+00 -1.129077702199274391e+00 -9.087602805418906193e-01 -9.087602805418906193e-01 -1.034627250854702751e+00 -1.312113048602335352e+00 -1.275415716059387972e+00 -1.686742827208329798e+00 -2.026917827762917845e+00 -2.071128359224432280e+00 -2.407809462691126168e+00 -2.538202444700248694e+00 -2.489462319298680004e+00 -2.705472769934409882e+00 -2.871146032401029835e+00 -2.917899558592070619e+00 -3.062080439925194852e+00 -3.370517563546635564e+00 -3.370517563546635564e+00 -3.569145024368014951e+00 -3.802193029734284302e+00 -3.816935837387873676e+00 -4.039936518736976900e+00 -4.223477924595756328e+00 -4.255225096908668903e+00 -4.471272466913341681e+00 -4.650470114191994853e+00 -4.698607090758288862e+00 -4.953972297254174428e+00 -5.237929855854990713e+00 -5.237929855854990713e+00 -5.460135961996079423e+00 -5.687537312236969456e+00 -5.693441239562142542e+00 -5.949796181465344169e+00 -6.183181906000971395e+00 -6.176851309381980570e+00 -6.376653091135932705e+00 -6.531968380329216117e+00 -6.529861007488042546e+00 -6.743759247646758936e+00 -6.935122537019536182e+00 -6.935122537019536182e+00 -7.047969721533348775e+00 -7.206467319931666893e+00 -7.255478798195375667e+00 -7.372992959567094218e+00 -7.448072803182095747e+00 -7.436205249952675622e+00 -7.624111994686815663e+00 -7.689792147835042613e+00 -7.730237622273380182e+00 -7.801301311032998065e+00 -7.885634126985459957e+00 -7.901232938532949390e+00 -7.985494990617043598e+00 -8.162065818399042882e+00 -8.162065818399042882e+00 -8.230216646362789490e+00 -8.345588842552409403e+00 -8.324481783265957446e+00 -8.376896765851050475e+00 -8.460727537629962214e+00 -8.496077074908825466e+00
3.409845595445180955e+00 2.885790630260334666e+00 2.578719553061071590e+00 2.281143782155053312e+00 1.818841220232850109e+00 1.621511032070652281e+00 1.407861648293848633e+00 1.097193197375923912e+00 5.449263943786588626e-01 5.449263943786588626e-01 2.110867998001819401e-01 1.717780422696344941e-02 -5.133105384161942494e-03 -1.195600978847219942e-01 -7.358440068119408151e-02 -6.690516037494192991e-02 -4.224624067846096537e-02 -1.673335407878764336e-01 -1.870581969287780089e-01 -2.513297238354758600e-01 -3.323499921593313644e-01 -3.323499921593313644e-01 -1.956058128188769840e-01 -5.344241276044330025e-02 -2.102409549361674082e-02 4.018546957782187512e-01 5.338945392572506110e-01 5.935331304846136469e-01 9.240318832218820111e-01 1.283178893265005005e+00 1.390552093438273129e+00 1.594971179352525192e+00 1.448389486786805236e+00 1.448389486786805236e+00 1.170608336871758137e+00 7.740501627619991165e-01 6.283974825155570487e-01 2.183811414026043396e-01 -3.317751456149218292e-01 -5.101644831629705834e-01 -1.241700117095762224e+00 -1.644321026554317111e+00 -1.692093696571172590e+00 -2.178210746692883948e+00 -2.239798110950117493e+00 -1.590582326912924893e+00 -1.380918560374436499e+00 -8.773321511836813524e-01 -8.773321511836813524e-01 -1.031085340034406217e+00 -1.148472313915784415e+00 -1.114842265700379587e+00 -1.209755669366290975e+00 -1.113723332121481668e+00 -1.007241927124318037e+00 -1.073833204546566167e+00 -1.328844161138922342e+00 -1.245006033155022784e+00 -1.632786502663197137e+00 -1.930897257275425716e+00 -1.930897257275425716e+00 -2.242140130089379291e+00 -2.451948219219862946e+00 -2.538202444700248694e+00 -2.632094153409120452e+00 -2.843572821924082561e+00 -2.871146032401029835e+00 -3.036245867498217343e+00 -3.251411534359288869e+00 -3.296290226695586689e+00 -3.515426508782599768e+00 -3.765353880380926999e+00 -3.765353880380926999e+00 -3.988892673124349919e+00 -4.188746497120922285e+00 -4.223477924595756328e+00 -4.390935432379075465e+00 -4.657269508325034835e+00 -4.650470114191994853e+00 -4.993208830244187268e+00 -5.228456387235412173e+00 -5.205316083150345108e+00 -5.442918653233544291e+00 -5.663078520147013073e+00 -5.675307916191989932e+00 -5.931824081946197147e+00 -6.193014574110124570e+00 -6.193014574110124570e+00 -6.373528206807563379e+00 -6.540068783025480670e+00 -6.531968380329216117e+00 -6.722777499846197102e+00 -6.902135273460779707e+00 -6.918628905240157501e+00 -7.035532857921973360e+00 -7.169297545307907527e+00 -7.346151463518723723e+00 -7.384860512796513454e+00 -7.499974918901530785e+00 -7.613312147092674564e+00 -7.617715385746410384e+00 -7.610055450797865717e+00 -7.755472300983270451e+00 -7.755472300983270451e+00 -7.895298778516332661e+00 -7.947375265626603458e+00 -7.960885750635692482e+00 -8.038812766593066428e+00 -8.221068056327275997e+00 -8.233625104839390474e+00 -8.285339069415433855e+00 -8.382892972390644459e+00 -8.345248040060893047e+00 -8.444267907511566307e+00 -8.476595376052003417e+00 -8.513075464659195291e+00
3.479460134981048558e+00 2.984151536437048780e+00 2.578719553061071590e+00 2.380092521249281834e+00 1.812943099129701530e+00 1.621511032070652281e+00 1.213232102834187920e+00 8.405026246468032536e-01 6.561715686319761209e-01 2.059457314293390018e-01 -1.471400758274920562e-01 -1.471400758274920562e-01 -1.694678989087178844e-01 -1.551748022609475697e-01 -7.358440068119408151e-02 -1.069696858800646133e-01 -9.147471993939935986e-02 -1.673335407878764336e-01 -2.673835913728185854e-01 -3.037758207255831233e-01 -3.418092022067002467e-01 -2.408508030769813124e-01 8.102749667474783146e-02 -1.354022075624631005e-01 2.672933218458309335e-01 5.327073519215710373e-01 5.327073519215710373e-01 5.680343955873801143e-01 1.119700386019129690e+00 1.283178893265005005e+00 1.285074587110163424e+00 1.450448788201196937e+00 1.567883270747513436e+00 1.261472935587776734e+00 9.955424998937723036e-01 9.098358588269226388e-01 3.762975107422937837e-01 -1.516468509632217243e-01 -1.516468509632217243e-01 -1.023509267036561532e+00 -1.542884015420572519e+00 -1.644321026554317111e+00 -1.998754725019604717e+00 -2.178925231604570634e+00 -2.239798110950117493e+00 -1.460346248115529599e+00 -9.515462925152563534e-01 -8.701421480094123639e-01 -1.033003497525477155e+00 -1.183622724673029980e+00 -1.183622724673029980e+00 -1.268597897760233906e+00 -8.166884250252489652e-01 -8.166884250252489652e-01 -9.773078223714903867e-01 -1.318297583926091088e+00 -1.328844161138922342e+00 -1.636805346411421613e+00 -2.003628039349687917e+00 -2.051273890832967073e+00 -2.166735557119582545e+00 -2.414347209940770789e+00 -2.408439618087024670e+00 -2.561543070587028126e+00 -2.662768889474520506e+00 -2.905457777361035276e+00 -3.029719198630303367e+00 -3.215266527788129824e+00 -3.456378395421823679e+00 -3.456378395421823679e+00 -3.605057582868108401e+00 -3.902934856782812822e+00 -3.951850207811296478e+00 -4.169530343862456689e+00 -4.391883854295898892e+00 -4.394394563803236231e+00 -4.665494296098139593e+00 -5.000356504913538558e+00 -5.004139883909139996e+00 -5.260293425977323523e+00 -5.430106734050372808e+00 -5.430106734050372808e+00 -5.650849124102035326e+00 -5.884008567719849481e+00 -5.924116611346574857e+00 -6.147061235001156199e+00 -6.346796114615614215e+00 -6.369404967020959596e+00 -6.535945543238876887e+00 -6.697367427037350218e+00 -6.759456437577352261e+00 -6.894015832474407190e+00 -7.085713353146327442e+00 -7.010659130699220754e+00 -7.146280845501375545e+00 -7.299969562537869550e+00 -7.299969562537869550e+00 -7.483541055211553328e+00 -7.604145993708895546e+00 -7.613312147092674564e+00 -7.700420872128567851e+00 -7.775795769062202822e+00 -7.705514040436185930e+00 -7.817457255485162904e+00 -7.877840736014682044e+00 -7.977829356637808011e+00 -8.070086574214840880e+00 -8.141466608658955550e+00 -8.141466608658955550e+00 -8.275536962357099569e+00 -8.317304808156182006e+00 -8.382892972390644459e+00 -8.379839458604852354e+00 -8.469633633650982318e+00 -8.476595376052003417e+00 -8.516298628203317733e+00
3.532337203994906805e+00 3.226146055576228466e+00 2.630955852603964917e+00 2.082805195135872367e+00 2.082805195135872367e+00 1.562590354049621322e+00 1.061520434741949570e+00 8.405026246468032536e-01 3.132881085875497407e-01 -7.795400140389960320e-02 -1.255095989828379777e-01 -2.592525530476572637e-01 -3.750223591007839641e-01 -1.878165260180826301e-01 -1.411033778736254796e-01 -1.313658336457129150e-01 -1.313658336457129150e-01 -2.146123487137090724e-01 -2.700544062450599969e-01 -3.037758207255831233e-01 -3.340540779874314747e-01 2.043723463292647091e-01 8.102749667474783146e-02 2.696089884853076768e-01 5.079872515921998177e-01 4.871299761992353705e-01 5.326238923622256261e-01 8.617799343761265440e-01 8.617799343761265440e-01 1.247822315733922327e+00 1.391766210258861713e+00 1.391766210258861713e+00 1.447473388115049442e+00 1.109032916630589671e+00 6.647312320612728254e-01 6.647312320612728254e-01 2.040632687079881880e-01 -4.247212491064720208e-01 -6.557814575126115209e-01 -1.120517522682250799e+00 -1.577225830457221978e+00 -1.820355152018734213e+00 -2.084881099308748986e+00 -2.049740437773771795e+00 -2.113549944168429118e+00 -1.509037843025673675e+00 -9.789507138376619677e-01 -9.789507138376619677e-01 -1.142724576898383582e+00 -1.210782021423878474e+00 -1.244386720136635649e+00 -1.213973292305558838e+00 -1.055438185495050529e+00 -1.038032046929062258e+00 -1.310028285547050864e+00 -1.597830711048368046e+00 -1.637969209252546188e+00 -1.937020376578118430e+00 -2.180466882392702033e+00 -2.180466882392702033e+00 -2.251743291399109115e+00 -2.460939210326406279e+00 -2.501718787769680485e+00 -2.572598023778331022e+00 -2.778955238188489218e+00 -2.905457777361035276e+00 -2.975570164991975020e+00 -3.242878120342164383e+00 -3.360957763317195646e+00 -3.627045305474719594e+00 -3.823573032383735804e+00 -3.795600911133302002e+00 -4.184869860323224167e+00 -4.401208562302436178e+00 -4.401208562302436178e+00 -4.697985082261631362e+00 -4.976924927284837707e+00 -5.000356504913538558e+00 -5.281319622243286105e+00 -5.474098051191221614e+00 -5.431862777674346887e+00 -5.669802366608401201e+00 -5.941473203391304914e+00 -5.879850000431042112e+00 -6.118062204131304860e+00 -6.371106714848027153e+00 -6.371106714848027153e+00 -6.514864821529780414e+00 -6.712734469818140148e+00 -6.697367427037350218e+00 -6.891896776490412435e+00 -7.022921759310137624e+00 -7.085713353146327442e+00 -7.120745667474407625e+00 -7.300238840593076262e+00 -7.303983347503992363e+00 -7.440051161169817462e+00 -7.579029032811207323e+00 -7.579029032811207323e+00 -7.698769587807232639e+00 -7.775489731510252689e+00 -7.775489731510252689e+00 -7.850956553555681339e+00 -7.939836810211390095e+00 -7.877840736014682044e+00 -8.025189271474902242e+00 -8.113077342680522719e+00 -8.168559088501629262e+00 -8.280070294255512664e+00 -8.321165419003744290e+00 -8.318754421459601645e+00 -8.420197102228877739e+00 -8.461521962971932709e+00 -8.461521962971932709e+00 -8.492886510444625614e+00 -8.533297017953689334e+00
3.532337203994906805e+00 2.805506815304092072e+00 2.451220375658435202e+00 2.017279724819145414e+00 1.793231868210373392e+00 1.470161764092806189e+00 6.426633178128209334e-01 5.221804532241127728e-01 -8.786309530072144991e-02 -2.072906954757064435e-01 -2.337135887029781756e-01 -2.670973803123417589e-01 -2.322907396523822277e-01 -2.322907396523822277e-01 -1.697347377353176368e-01 -1.908012195003295774e-01 -1.635210246002200551e-01 -2.443999697617860734e-01 -2.262903880475805318e-01 -2.911183409669649835e-01 2.097893259368996954e-01 4.433850087097621628e-01 4.807204535001659562e-01 5.831961997406807097e-01 5.323744185003671525e-01 5.323744185003671525e-01 5.347193247870491994e-01 1.078784804515966478e+00 1.266163420774864878e+00 1.441423597509059906e+00 1.532789577979793316e+00 1.509056403969107674e+00 1.257651162314814997e+00 1.022852580085541474e+00 8.751250920547702927e-01 3.217556070348737696e-01 -1.786604978977528180e-01 -1.786604978977528180e-01 -9.316430118519724024e-01 -1.400572275155434809e+00 -1.400572275155434809e+00 -1.772641248039446893e+00 -2.019999534227991056e+00 -2.049740437773771795e+00 -1.950741059865383376e+00 -1.387866733037510514e+00 -1.046316716046082007e+00 -1.128436528012821238e+00 -1.251133110688256611e+00 -1.211396176293904725e+00 -1.170415113798507267e+00 -1.142169980880332059e+00 -1.142169980880332059e+00 -1.330513764619503769e+00 -1.585315468553348373e+00 -1.597830711048368046e+00 -1.864541316189387121e+00 -2.061094537261302762e+00 -2.104739782501748646e+00 -2.196478320607199386e+00 -2.344874213992476975e+00 -2.309194238021865075e+00 -2.460779780712298415e+00 -2.693240356528921353e+00 -2.693240356528921353e+00 -2.934891870839371641e+00 -3.211546333104740469e+00 -3.242878120342164383e+00 -3.498147978319170459e+00 -3.863983384695388157e+00 -3.823573032383735804e+00 -4.119950262486354653e+00 -4.416464454249393157e+00 -4.486339173080384768e+00 -4.668012834182984072e+00 -4.936405382511574125e+00 -4.936405382511574125e+00 -5.293495489501810702e+00 -5.493591416117281412e+00 -5.493591416117281412e+00 -5.721365162446470976e+00 -5.979700641522214255e+00 -5.941473203391304914e+00 -6.193809681587758575e+00 -6.374482227252447508e+00 -6.370584529176546162e+00 -6.540482839444033303e+00 -6.697815568758805682e+00 -6.693765031229066409e+00 -6.892326022506515493e+00 -7.058509736869020834e+00 -7.058509736869020834e+00 -7.155043306746047271e+00 -7.297978897609859850e+00 -7.300238840593076262e+00 -7.453957855661493603e+00 -7.612166937850289195e+00 -7.587081064302370059e+00 -7.706927164826411492e+00 -7.813804476965731993e+00 -7.779407112525630552e+00 -7.864428266540978818e+00 -7.913369482072844185e+00 -7.913369482072844185e+00 -7.956181807876542500e+00 -8.141664818168544926e+00 -8.113077342680522719e+00 -8.258060483075674085e+00 -8.343551817947552962e+00 -8.321165419003744290e+00 -8.348865245289310622e+00 -8.459718784913329515e+00 -8.421146649707914378e+00 -8.496517228273681610e+00 -8.538681960908096613e+00 -8.521045189398485320e+00
3.433568482328714477e+00 2.770779024173211980e+00 2.233964113305375143e+00 2.233964113305375143e+00 1.734095535075129035e+00 8.872688248549521761e-01 6.426633178128209334e-01 1.790196403430388203e-02 -2.950423815929838489e-01 -2.072906954757064435e-01 -3.390627109737990863e-01 -1.921987093806549196e-01 -2.925343318132710424e-01 -1.152455298681619028e-01 -9.519739964242024399e-02 -9.519739964242024399e-02 -1.449411970992167675e-01 5.609501472571512548e-03 5.609501472571512548e-03 2.628655220606053167e-01 4.390398138983554466e-01 4.433850087097621628e-01 5.456472952141736554e-01 6.265998398503971334e-01 5.763430183272628682e-01 5.634757948188460208e-01 6.208267823443111011e-01 7.619563226645922338e-01 1.457440821810987996e+00 1.551961172419710877e+00 1.551961172419710877e+00 1.365429665721265451e+00 1.116970841240962242e+00 1.022852580085541474e+00 6.557505413671614880e-01 1.699524326931722007e-01 -3.072271967908933935e-02 -6.610149261612269234e-01 -1.085819008095157745e+00 -1.266964190104440169e+00 -1.625829297957869013e+00 -1.964976419485986003e+00 -1.964976419485986003e+00 -1.946437317550758106e+00 -1.521375950099582486e+00 -1.387866733037510514e+00 -1.123231726843008982e+00 -1.273671531688920888e+00 -1.251133110688256611e+00 -1.203400826031321813e+00 -1.166587609442999662e+00 -1.131296693375805518e+00 -1.322069820546494689e+00 -1.653218027837451976e+00 -1.570942157345167622e+00 -1.892889823129431992e+00 -2.082238256674564081e+00 -2.082238256674564081e+00 -2.215531286983885906e+00 -2.271646136019836781e+00 -2.344874213992476975e+00 -2.465254735305588252e+00 -2.700551196335787552e+00 -2.649985792814099739e+00 -2.882446368630722677e+00 -3.112972127575967196e+00 -3.149709703093243718e+00 -3.447522501217506807e+00 -3.732772423992024358e+00 -3.732772423992024358e+00 -4.107866643808878671e+00 -4.342019923834776307e+00 -4.416464454249393157e+00 -4.658679679924373929e+00 -4.973298775406437500e+00 -4.979588321111112492e+00 -5.263135184491609664e+00 -5.536937293306575469e+00 -5.534152820536685446e+00 -5.768442083831310185e+00 -6.019582380054510296e+00 -6.019582380054510296e+00 -6.236174653374479071e+00 -6.403351663146769290e+00 -6.374482227252447508e+00 -6.613749331287080757e+00 -6.683833616269810207e+00 -6.697815568758805682e+00 -6.910915648751560170e+00 -7.053463562024944622e+00 -7.046510629876107323e+00 -7.258064381704032897e+00 -7.390490132899058651e+00 -7.309065738651049138e+00 -7.443354289577994720e+00 -7.601563371766788535e+00 -7.601563371766788535e+00 -7.699855575712574840e+00 -7.822377624580825639e+00 -7.813804476965731993e+00 -7.896273720952809327e+00 -7.961614843914921913e+00 -7.946485749514635266e+00 -8.034415189115721390e+00 -8.071372598373946161e+00 -8.112861281022709647e+00 -8.213117144237410017e+00 -8.283554205838921547e+00 -8.408832973048564696e+00 -8.380884500750942934e+00 -8.407825744826885384e+00 -8.475990411570307970e+00 -8.475990411570307970e+00 -8.535140345881119472e+00 -8.581429633811728408e+00 -8.595608817110017341e+00
3.374315430120512715e+00 2.756519560170779926e+00 2.442868941825953488e+00 1.991164622816463892e+00 1.599981263902108708e+00 1.271753139766218288e+00 9.403575537405077511e-02 -2.308581403180955949e-01 -2.308581403180955949e-01 -2.389162393559465247e-01 -1.754801131980480156e-01 -1.921987093806549196e-01 -4.138320091067651529e-02 1.323953830886969163e-01 6.128769676941543676e-02 -7.102382612051257038e-02 -2.565994801122435318e-02 5.359353611721951599e-02 2.693700815668727544e-01 4.222916550211804343e-01 4.222916550211804343e-01 5.172902193214949929e-01 6.326226379252974930e-01 6.265998398503971334e-01 6.023206671481148300e-01 6.235325596090022238e-01 6.208267823443111011e-01 9.741857305942154266e-01 1.484105345671511866e+00 1.517488626023048237e+00 1.437960430077255047e+00 1.278073008967410162e+00 1.228057995878098607e+00 7.715665415921565407e-01 2.725841548618881394e-01 2.725841548618881394e-01 -1.770230382472486874e-01 -8.706221425672510117e-01 -1.085819008095157745e+00 -1.341661082797665383e+00 -1.746122187652998647e+00 -1.862029787649907453e+00 -1.920917094701943384e+00 -1.840404403296974856e+00 -1.784435337263098109e+00 -1.242680108200259870e+00 -1.174517174495993910e+00 -1.174517174495993910e+00 -1.151879341554837399e+00 -1.357448640614531410e+00 -1.166587609442999662e+00 -1.373367827718243284e+00 -1.567185986323096358e+00 -1.653218027837451976e+00 -1.826832024876700933e+00 -1.935822960980579932e+00 -1.988365526645216930e+00 -2.177034206881002021e+00 -2.241733362985597555e+00 -2.241733362985597555e+00 -2.417583207854008709e+00 -2.733795185491938007e+00 -2.700551196335787552e+00 -2.822353981979163873e+00 -3.063829286651901906e+00 -3.112972127575967196e+00 -3.348002593091367274e+00 -3.627585587681371404e+00 -3.671246071772317432e+00 -3.997385886547761835e+00 -4.309421043813464358e+00 -4.357696064130722746e+00 -4.618107086530216954e+00 -4.946508095853528353e+00 -4.946508095853528353e+00 -5.262248524428341234e+00 -5.542066579090951350e+00 -5.828676056427219976e+00 -5.828676056427219976e+00 -6.077222048497562312e+00 -6.305597062521151486e+00 -6.281807858001755562e+00 -6.494692090956238673e+00 -6.667588627304150251e+00 -6.654232741714534605e+00 -6.719739647287890527e+00 -6.855885514734159969e+00 -6.808837323998242042e+00 -7.082561621591395351e+00 -7.212153443457530955e+00 -7.212153443457530955e+00 -7.405026858199402540e+00 -7.425303645052693469e+00 -7.437344680248909157e+00 -7.577651038053904387e+00 -7.738565321788583695e+00 -7.729600926046577669e+00 -7.818581969604921689e+00 -7.937828084335238010e+00 -7.935576105081836751e+00 -7.977855738413754061e+00 -8.064750958103887868e+00 -8.042014945473589194e+00 -8.128993568020051796e+00 -8.200533290570517053e+00 -8.200533290570517053e+00 -8.313156945794297314e+00 -8.368365046713432065e+00 -8.408832973048564696e+00 -8.440603582498139801e+00 -8.471437300315356467e+00 -8.499973534581178214e+00 -8.546558686480700828e+00 -8.592765653226907219e+00 -8.615475605332001408e+00 -8.661089157524454407e+00
3.033053784302703448e+00 2.756519560170779926e+00 2.456613927172664358e+00 1.871709320161397461e+00 1.599981263902108708e+00 7.491670792192554051e-01 -1.153581207783872659e-01 -2.066805030671925170e-01 -3.657623592171235227e-01 -2.212162498049136949e-01 -2.057611667263855582e-01 -1.222338006441501743e-03 9.855496928948566382e-02 9.855496928948566382e-02 2.042082448832709674e-01 1.611836059771425134e-02 -2.565994801122435318e-02 2.883942925264473822e-01 4.233251814366595367e-01 4.378586075207401285e-01 5.015723889280907510e-01 6.313069583561495834e-01 6.191855743709420157e-01 6.156316563255060936e-01 6.194383819024574800e-01 6.194383819024574800e-01 9.728173013677273717e-01 1.399922102955621472e+00 1.484105345671511866e+00 1.484858266785398895e+00 1.306026729212831139e+00 1.278073008967410162e+00 1.019242514085878515e+00 7.287366623254174502e-01 4.568975042626974847e-01 -2.101256750440989862e-02 -6.944358509907246901e-01 -6.944358509907246901e-01 -1.185085324122424177e+00 -1.578910862833233342e+00 -1.578910862833233342e+00 -1.889364447353901522e+00 -1.989959511583232921e+00 -1.840404403296974856e+00 -1.682173864658907947e+00 -1.332911665475708940e+00 -1.378274712150035164e+00 -1.203788317121312623e+00 -1.489855283602065317e+00 -1.567805874273547007e+00 -1.480471660991079297e+00 -1.622403035895139567e+00 -1.813454626890386390e+00 -1.809897081573542010e+00 -1.925490336939745362e+00 -2.023964896294951910e+00 -2.023964896294951910e+00 -2.168716816538741821e+00 -2.337480125735593717e+00 -2.443851674497806492e+00 -2.605222575955036923e+00 -2.729637168001970871e+00 -2.780160525714594488e+00 -2.997308221815499607e+00 -3.174000345635728415e+00 -3.298125938727507034e+00 -3.585493859534999661e+00 -3.877097713564026549e+00 -3.877097713564026549e+00 -4.248708156003401903e+00 -4.564567949603938857e+00 -4.579937471114616798e+00 -4.889670973321587510e+00 -5.208720572654207182e+00 -5.229528700003347907e+00 -5.568071794466570523e+00 -5.823076876204470231e+00 -5.816537079351112638e+00 -6.107155323565287119e+00 -6.351000616931049336e+00 -6.301048848514437140e+00 -6.533077179028269121e+00 -6.685454985843477971e+00 -6.685454985843477971e+00 -6.791096799328973255e+00 -6.917673071162930398e+00 -6.855885514734159969e+00 -6.988463684450648472e+00 -7.186258693531569541e+00 -7.187623561374424597e+00 -7.344365712783321065e+00 -7.384641042742251749e+00 -7.513995510912566900e+00 -7.576205077034376956e+00 -7.727961755705083036e+00 -7.727961755705083036e+00 -7.840952574848449430e+00 -7.945742006276222291e+00 -7.937828084335238010e+00 -8.057347733197941508e+00 -8.084473571704030803e+00 -8.064750958103887868e+00 -8.137292879482281194e+00 -8.223571946924382203e+00 -8.186563388871348934e+00 -8.294216287955167743e+00 -8.391742689946420697e+00 -8.391742689946420697e+00 -8.467204002964493270e+00 -8.505992868359577130e+00 -8.471437300315356467e+00 -8.533616648273707028e+00 -8.590345863419699413e+00 -8.592765653226907219e+00 -8.656531059008742091e+00 -8.726569497938889697e+00
3.240988800886200671e+00 2.738719076490375048e+00 2.187331421923695451e+00 2.187331421923695451e+00 1.374270006643004693e+00 1.076966139533196559e-01 -1.153581207783872659e-01 -3.070679348226799110e-01 -2.957003221488768707e-01 -2.212162498049136949e-01 -4.292787930127484053e-02 -2.375555470391116017e-02 1.137328995990537633e-01 2.207343837317987112e-01 2.850575912692558944e-01 2.955756933932610631e-01 2.833884654327289976e-01 4.199645200018469193e-01 4.962578681197633568e-01 5.299996675835654258e-01 5.646628787454780474e-01 6.458924962709551298e-01 6.458924962709551298e-01 7.043625286798808061e-01 8.094622179451125277e-01 9.208905731250149884e-01 1.240005819475938686e+00 1.446291377853254012e+00 1.524230491088955475e+00 1.400037922384406830e+00 1.254173882555895903e+00 1.150466933722511076e+00 8.082918274471604381e-01 2.894231226565626702e-01 2.894231226565626702e-01 -2.067431465960584414e-01 -8.668254522291380937e-01 -1.045931321572526551e+00 -1.289950632758242399e+00 -1.663293740656575093e+00 -1.779358708498672836e+00 -1.987596968006402953e+00 -1.961607702499754247e+00 -1.911082526573408380e+00 -1.167121527683293136e+00 -1.416529835604925402e+00 -1.416529835604925402e+00 -1.611906485281369372e+00 -1.686576987774957903e+00 -1.567805874273547007e+00 -1.734181164802265807e+00 -1.826852215749730002e+00 -1.813454626890386390e+00 -1.947412612666123755e+00 -2.063585211062660907e+00 -2.040227638925707687e+00 -2.167087126842305089e+00 -2.311444777004677764e+00 -2.368736806800801897e+00 -2.427755836452623051e+00 -2.712994871712185230e+00 -2.712994871712185230e+00 -2.896831793006733768e+00 -3.157861550353397551e+00 -3.174000345635728415e+00 -3.418451352259332054e+00 -3.835858994670474864e+00 -3.810911146550223449e+00 -4.165898229494231941e+00 -4.385616716130695814e+00 -4.530192143126009263e+00 -4.836044997940841306e+00 -5.195969696423182071e+00 -5.195969696423182071e+00 -5.596232276061609667e+00 -5.845976406335439357e+00 -5.823076876204470231e+00 -6.101196514425220485e+00 -6.404936032398897972e+00 -6.351000616931049336e+00 -6.536778878523617387e+00 -6.763125703608102945e+00 -6.740385479138170766e+00 -6.827527262235690841e+00 -6.950442432190373943e+00 -6.950442432190373943e+00 -7.057831546582707283e+00 -7.174555514940111678e+00 -7.174555514940111678e+00 -7.256074056764813207e+00 -7.394680242288195871e+00 -7.384641042742251749e+00 -7.505194250837525338e+00 -7.687523168603086710e+00 -7.711664879631795699e+00 -7.875567271810377967e+00 -7.952304223650321191e+00 -7.928718876526818171e+00 -8.053278544089650381e+00 -8.130017609388215050e+00 -8.130017609388215050e+00 -8.167887072292854711e+00 -8.235276000249447392e+00 -8.223571946924382203e+00 -8.301754179368753483e+00 -8.370297802671089471e+00 -8.385266764754957691e+00 -8.453175887587940807e+00 -8.517846774816968392e+00 -8.506933266027211005e+00 -8.535335476455507830e+00 -8.580965897873964465e+00 -8.580965897873964465e+00 -8.650390960572696741e+00 -8.713426792032592516e+00 -8.726569497938889697e+00
3.234859040322746182e+00 2.624196790512104194e+00 1.989318951045424333e+00 1.664768100795801509e+00 5.732912491508613817e-01 -9.381615541036378292e-03 -1.683954677536341760e-01 -2.787480968682835014e-01 -2.924111197814195373e-01 -1.832753451028399649e-01 -5.205507069508697252e-03 3.933656614682906616e-02 3.933656614682906616e-02 3.220379420508202584e-01 2.855390640780682832e-01 2.955756933932610631e-01 4.020341810411026673e-01 4.991062003953168902e-01 4.962578681197633568e-01 5.817071514473897142e-01 7.058405184195476467e-01 6.545336486166485335e-01 7.283732544991041724e-01 8.976427192944825828e-01 8.976427192944825828e-01 1.192838113840034353e+00 1.474307785250536407e+00 1.474307785250536407e+00 1.440360262415766979e+00 1.300119977086226841e+00 1.254173882555895903e+00 1.042338144339565842e+00 6.078956174893725972e-01 4.550979234025288034e-01 -2.328990211017505085e-02 -3.719593945851463190e-01 -5.859367921470852725e-01 -1.098474110712456930e+00 -1.437834143587198410e+00 -1.437834143587198410e+00 -1.778085792514088936e+00 -1.967870592446850697e+00 -1.961607702499754247e+00 -1.847071944411512678e+00 -1.366398277748265722e+00 -1.410741039545091224e+00 -1.620788570573008514e+00 -1.904887100542157707e+00 -1.828878293017373480e+00 -1.891363395351830512e+00 -1.878928397298457842e+00 -1.878928397298457842e+00 -1.923689179673676586e+00 -1.923961085880824484e+00 -2.063585211062660907e+00 -2.134648054587002797e+00 -2.322895152317558054e+00 -2.311444777004677764e+00 -2.438044995121394720e+00 -2.661692590084806742e+00 -2.699424784981452330e+00 -2.830855452130949246e+00 -3.140368072208600481e+00 -3.190713119643180384e+00 -3.375854026253409135e+00 -3.737946963088289110e+00 -3.737946963088289110e+00 -4.069223060379798085e+00 -4.344608516200928250e+00 -4.385616716130695814e+00 -4.798681766828808648e+00 -5.096446859136553265e+00 -5.156033792527066950e+00 -5.517012163396476154e+00 -5.814576579393055944e+00 -5.868147281567681617e+00 -6.112659051734041782e+00 -6.393327403923652952e+00 -6.393327403923652952e+00 -6.619881168244586611e+00 -6.829342838698519103e+00 -6.763125703608102945e+00 -6.942034335679846180e+00 -7.037074447078916606e+00 -6.982882878620844558e+00 -7.105930096090226300e+00 -7.260685898821510165e+00 -7.188774342807619178e+00 -7.315433362679174323e+00 -7.420464389063951671e+00 -7.420464389063951671e+00 -7.509954968338528936e+00 -7.650267927693128911e+00 -7.687523168603086710e+00 -7.840608216012958209e+00 -8.000278238559285882e+00 -7.952304223650321191e+00 -8.072902042947522006e+00 -8.179033255143890457e+00 -8.175563090979688141e+00 -8.201344072014443043e+00 -8.273419461775825212e+00 -8.233583323593798298e+00 -8.341877198955881312e+00 -8.375877309666131865e+00 -8.375877309666131865e+00 -8.452107868190330109e+00 -8.531900822008630314e+00 -8.517846774816968392e+00 -8.568921188580585380e+00 -8.599233652595659194e+00 -8.563939671871898085e+00 -8.647971170765488935e+00 -8.708016267918484488e+00 -8.710436057725692294e+00 -8.796570224241808234e+00
2.898116033287644555e+00 2.542324908363415847e+00 2.300936839219846597e+00 1.372331251306542654e+00 -7.570370516570404384e-02 -7.570370516570404384e-02 -2.639793158242157434e-01 -2.725456705289118764e-01 -2.924111197814195373e-01 -1.686779640819410786e-01 6.389116330410325728e-02 1.421490122388641142e-01 3.514861012896262626e-01 4.205987678386917672e-01 2.765569319413818672e-01 3.959578175337784556e-01 4.828291852757492508e-01 4.828291852757492508e-01 5.887305681412799974e-01 6.836324037612758753e-01 7.058405184195476467e-01 7.496268265726480085e-01 8.530563871180092406e-01 9.437421222703438195e-01 1.205629846412795914e+00 1.460363302819573939e+00 1.436087882783150471e+00 1.483503240080200625e+00 1.243550820340703300e+00 1.243550820340703300e+00 1.211619869338460775e+00 7.803645393295486343e-01 6.078956174893725972e-01 2.888660742909540113e-01 -1.501724073980189589e-01 -3.719593945851463190e-01 -8.517006231233943403e-01 -1.100090933596160392e+00 -1.255230948184930639e+00 -1.570468964992442817e+00 -1.765415623032245085e+00 -1.851505192153480195e+00 -1.935473422213559225e+00 -1.575889800684437514e+00 -1.575889800684437514e+00 -1.744011512688484533e+00 -1.869077617992440654e+00 -1.904887100542157707e+00 -2.115286591401327243e+00 -2.335636405823123596e+00 -2.071588690073966177e+00 -1.965253947266698109e+00 -2.010202485756472424e+00 -1.922175085745742251e+00 -2.075657128481858571e+00 -2.200489487256529486e+00 -2.200489487256529486e+00 -2.295326393782038732e+00 -2.599511946601498202e+00 -2.661692590084806742e+00 -2.729421960214232445e+00 -3.016789238545130480e+00 -3.140368072208600481e+00 -3.354458942484525252e+00 -3.627568175166997033e+00 -3.620220609484161578e+00 -4.056292809335318772e+00 -4.358348388102500692e+00 -4.358348388102500692e+00 -4.710939065394755154e+00 -5.094364343734874012e+00 -5.096446859136553265e+00 -5.414196822297187239e+00 -5.753631380560617181e+00 -5.814576579393055944e+00 -6.125670064171529816e+00 -6.357842662009993262e+00 -6.377417228796462112e+00 -6.620312248915231734e+00 -6.839673662643464880e+00 -6.865495824948421699e+00 -6.970341524754514850e+00 -7.094042168639481005e+00 -7.094042168639481005e+00 -7.240835171781307977e+00 -7.327237906778201193e+00 -7.260685898821510165e+00 -7.426275377977720638e+00 -7.469433493225764664e+00 -7.568978455768985647e+00 -7.535173502320778205e+00 -7.648972079659594137e+00 -7.772520379608097052e+00 -7.807969997587599131e+00 -7.986203625490952085e+00 -8.117592388447150142e+00 -8.067339208725920585e+00 -8.199258477756609764e+00 -8.293206160187079234e+00 -8.293206160187079234e+00 -8.319312091111976670e+00 -8.346703707051078780e+00 -8.336939344065065427e+00 -8.456008452599697023e+00 -8.477870372144639788e+00 -8.449880977834244078e+00 -8.531527644934902455e+00 -8.631379740580598536e+00 -8.589701925490098589e+00 -8.635247668646259811e+00 -8.695110475814727735e+00 -8.639829752806177154e+00 -8.727764294298545167e+00 -8.807645745485757516e+00 -8.807645745485757516e+00 -8.907603115134723026e+00
2.826873563223886610e+00 2.542324908363415847e+00 1.789362119405954576e+00 4.034888910303109366e-01 -2.579214013389206570e-02 -2.182995727148783482e-01 -5.009844694609408844e-01 -5.009844694609408844e-01 -2.138828430993461593e-01 -3.760230314771841748e-02 6.389116330410325728e-02 2.291459371756604801e-01 4.409385430907064585e-01 4.205987678386917672e-01 5.113927651329625013e-01 4.411015911278125534e-01 3.876222600759772208e-01 4.913160817472189690e-01 5.472011546502045798e-01 6.150714330200516278e-01 7.135875340050642501e-01 8.503246006676172808e-01 8.503246006676172808e-01 1.119640793598714268e+00 1.421539768765095912e+00 1.460363302819573939e+00 1.465193317944543772e+00 1.344034214087366452e+00 1.297586241635795723e+00 1.187304443698029122e+00 9.509501773894291077e-01 8.692340404989012947e-01 3.602985789124570903e-01 -4.762338445293881617e-02 -4.762338445293881617e-02 -5.524633467884525473e-01 -9.427905654987422945e-01 -1.100090933596160392e+00 -1.292146949465145633e+00 -1.615448659709553869e+00 -1.765415623032245085e+00 -1.955701941556818646e+00 -2.044756868353143631e+00 -1.833218444020028759e+00 -1.800675935893599977e+00 -1.940632113482699816e+00 -1.940632113482699816e+00 -2.191084314853295467e+00 -2.555136814614119789e+00 -2.555136814614119789e+00 -2.501279526092459626e+00 -2.122569763689195810e+00 -2.010202485756472424e+00 -1.986076763636123843e+00 -2.124469205772193003e+00 -2.126167596470613486e+00 -2.281809447294633308e+00 -2.439068247670913792e+00 -2.699668757881725334e+00 -2.698307869685082849e+00 -2.911454236491275438e+00 -3.194608840983419018e+00 -3.293911816074482246e+00 -3.578349601349253284e+00 -3.828265664280090075e+00 -3.828265664280090075e+00 -4.266042977381946599e+00 -4.632973597683087696e+00 -4.638912831546148752e+00 -4.975787669329002405e+00 -5.350212574115841946e+00 -5.371567391293252669e+00 -5.692239790350877904e+00 -6.001768191339857950e+00 -6.054172818562157943e+00 -6.403861486625002541e+00 -6.585784118942270560e+00 -6.585784118942270560e+00 -6.784969449147808085e+00 -7.025584981823291386e+00 -6.992833380993421777e+00 -7.151190250220349043e+00 -7.283749689184865872e+00 -7.258560636782403819e+00 -7.370982619042192319e+00 -7.523282633811802178e+00 -7.474779005894760964e+00 -7.517937121142806767e+00 -7.609598864307893784e+00 -7.591317889492910531e+00 -7.677135530632948068e+00 -7.784015635498890084e+00 -7.784015635498890084e+00 -7.932662617882442646e+00 -8.106967186101574185e+00 -8.117592388447150142e+00 -8.186443414933611606e+00 -8.320420103492388364e+00 -8.294515927568284042e+00 -8.365646313851033966e+00 -8.437914305218209066e+00 -8.391934325373080483e+00 -8.459889225183019335e+00 -8.520071080403450736e+00 -8.520071080403450736e+00 -8.569428617335681508e+00 -8.649186991192124196e+00 -8.631379740580598536e+00 -8.711226431853948071e+00 -8.753750072475853017e+00 -8.695110475814727735e+00 -8.734157815932634961e+00 -8.848696271945774683e+00 -8.833003218163471004e+00 -8.907250810169596633e+00 -8.973447185988725039e+00
3.022455768860599967e+00 2.468834949950638791e+00 1.128591814672112559e+00 4.034888910303109366e-01 -9.040319802934641824e-02 -3.071245233016970944e-01 -4.643548314867864124e-01 -3.638403930592919999e-01 -2.266963166576431710e-01 -8.317196904783674682e-02 1.697946452334629930e-01 4.191160738604347014e-01 4.191160738604347014e-01 4.913622139609946093e-01 4.701715382108379582e-01 4.411015911278125534e-01 3.223264081001855907e-01 5.135706620674347356e-01 5.472011546502045798e-01 6.467401535378058952e-01 7.369711988864400265e-01 8.513249080933039670e-01 1.098126195564178342e+00 1.368974809072523779e+00 1.368974809072523779e+00 1.450205204901895861e+00 1.349133199861435539e+00 1.228783792462897706e+00 1.214879627986138466e+00 1.072088564154191070e+00 6.234296122891065384e-01 6.234296122891065384e-01 1.745022638382263125e-01 -2.744385147638928601e-01 -3.964901970861026692e-01 -6.972664935270180830e-01 -1.026551069337636735e+00 -1.165068578504536712e+00 -1.493190279347317961e+00 -1.683254905606224039e+00 -1.824659211984203111e+00 -1.992421507487928345e+00 -2.154501161529171149e+00 -2.154501161529171149e+00 -2.264477259698113976e+00 -2.488984727230131533e+00 -2.289047890829510656e+00 -2.690377078516797749e+00 -3.019178195315063817e+00 -2.911151702797105223e+00 -2.610710758520299546e+00 -2.451608301085824504e+00 -2.140755066859176381e+00 -2.154388413788636214e+00 -2.212497048349911566e+00 -2.212497048349911566e+00 -2.345121395220662652e+00 -2.578173629856779225e+00 -2.699668757881725334e+00 -2.837166729913388696e+00 -3.136270144527602000e+00 -3.194608840983419018e+00 -3.481740973661758165e+00 -3.723845194137477055e+00 -3.769627619217461145e+00 -4.138006592717601961e+00 -4.447747521155113404e+00 -4.522638362938725010e+00 -4.880916287389704955e+00 -5.293476626233748483e+00 -5.293476626233748483e+00 -5.656417580184793792e+00 -5.956914149688849136e+00 -6.001768191339857950e+00 -6.221588771807053497e+00 -6.560575481845557277e+00 -6.578697123492878163e+00 -6.773332881053432786e+00 -6.950693804183460500e+00 -7.015961875213187149e+00 -7.170881846624490130e+00 -7.320917404270417705e+00 -7.320917404270417705e+00 -7.487114319719785804e+00 -7.571230585524527434e+00 -7.523282633811802178e+00 -7.614944376976890084e+00 -7.658102492224934110e+00 -7.609598864307893784e+00 -7.710940484081154622e+00 -7.819097558945117044e+00 -7.801490841829316736e+00 -7.908705194267236394e+00 -8.089993456602645239e+00 -8.089993456602645239e+00 -8.231433701134427849e+00 -8.306777831717917948e+00 -8.320420103492388364e+00 -8.409859906500601667e+00 -8.484248527957266361e+00 -8.437914305218209066e+00 -8.510449188970335754e+00 -8.582839106300969689e+00 -8.567767676007582267e+00 -8.585787479345649231e+00 -8.674684130942257099e+00 -8.666994241803649857e+00 -8.749039086837820278e+00 -8.785608236113302993e+00 -8.785608236113302993e+00 -8.815014084881978462e+00 -8.856707167798058222e+00 -8.848696271945774683e+00 -8.963599614706108554e+00 -9.043481065893319126e+00 -9.034726565446451474e+00
2.818542125163979506e+00 2.176414168528214788e+00 3.876793984206144961e-01 1.305878928972020910e-02 -2.484191288585189117e-01 -2.864285354482976054e-01 -3.294892416979142702e-01 -2.966862054560147621e-01 -4.971168828408156076e-02 -4.971168828408156076e-02 2.711737115011289556e-01 5.465394194124191252e-01 4.965160711531750870e-01 5.069113983370332477e-01 5.504699641245209829e-01 5.579831383616639107e-01 4.609978748060880038e-01 6.802538997924914010e-01 6.333452163127348822e-01 7.858100200279916070e-01 1.025051711501413276e+00 1.025051711501413276e+00 1.202630933925920909e+00 1.373298541211267265e+00 1.466911949741092736e+00 1.328460033357520276e+00 1.223438732527474926e+00 1.228783792462897706e+00 1.145583570228632997e+00 8.419815053456748410e-01 7.371439583900559755e-01 2.884850065249713880e-01 -1.535601862386701266e-01 -1.535601862386701266e-01 -5.445361736187930290e-01 -9.278167846734151070e-01 -9.278167846734151070e-01 -1.198305486933207264e+00 -1.519883726029275017e+00 -1.683254905606224039e+00 -1.836062175334685964e+00 -2.075754670114933198e+00 -2.106513761425992115e+00 -2.277885625384021839e+00 -2.452009708675149557e+00 -2.508486072249159982e+00 -2.764896163453375966e+00 -3.001099087769939722e+00 -3.001099087769939722e+00 -3.070120886057890797e+00 -2.724689906594591537e+00 -2.451608301085824504e+00 -2.258082943804343934e+00 -2.241886290612667754e+00 -2.241077232153547705e+00 -2.308488182760689789e+00 -2.422432498774882870e+00 -2.473634699770773437e+00 -2.719338850950199671e+00 -2.980344529658887076e+00 -2.980344529658887076e+00 -3.326082561570534502e+00 -3.664651319508859917e+00 -3.723845194137477055e+00 -3.986457994215350187e+00 -4.362637650018942992e+00 -4.447747521155113404e+00 -4.786044905450408393e+00 -5.120420164002460695e+00 -5.198605244294451921e+00 -5.611165583138495450e+00 -5.912060108037839434e+00 -5.912060108037839434e+00 -6.152028315627020127e+00 -6.452307002325737173e+00 -6.452307002325737173e+00 -6.745534809883404925e+00 -6.921854824515120796e+00 -6.950693804183460500e+00 -7.091416034885591912e+00 -7.306165292372748254e+00 -7.323744852628356838e+00 -7.465235421546990935e+00 -7.590680102487273651e+00 -7.579293642766760541e+00 -7.663448004893930410e+00 -7.706606120141975325e+00 -7.706606120141975325e+00 -7.749764235390021128e+00 -7.852902512393323597e+00 -7.819097558945117044e+00 -7.954009603999037559e+00 -8.051031111886238989e+00 -8.057355238177285273e+00 -8.227730746712193621e+00 -8.340016894862083419e+00 -8.305547621141304404e+00 -8.433211711125604637e+00 -8.499912257858758480e+00 -8.499912257858758480e+00 -8.556516519324443237e+00 -8.577502033893068756e+00 -8.582839106300969689e+00 -8.667674437792260989e+00 -8.699059614786817107e+00 -8.674684130942257099e+00 -8.766846337449344162e+00 -8.866698433095042020e+00 -8.832750938217797554e+00 -8.871106381602253066e+00 -8.934153588625912690e+00 -8.905942436150960262e+00 -8.967828575216328701e+00 -9.068838538571032615e+00 -9.068838538571032615e+00 -9.151808034018920068e+00
2.822608046712855590e+00 1.215064462185533989e+00 3.876793984206144961e-01 -1.008197088544866421e-01 -2.754212179482106171e-01 -2.864285354482976054e-01 -3.453846176848183180e-01 -2.646880673072504742e-01 -2.264064728808403149e-01 1.567495307697568119e-01 5.468528126078923135e-01 5.468528126078923135e-01 5.678320832003804775e-01 5.337018642375843669e-01 5.337018642375843669e-01 5.955173909998966453e-01 7.263924907937316933e-01 6.802538997924914010e-01 8.552965850534572922e-01 1.140131794765625761e+00 1.124627116336319288e+00 1.242145120237130973e+00 1.399428060782313743e+00 1.379925930587774907e+00 1.361577094259715848e+00 1.186238898923411389e+00 1.186238898923411389e+00 1.072171022466238410e+00 8.674754153493744457e-01 8.419815053456748410e-01 5.159136987268697627e-01 1.048547528298277576e-01 -2.711758597997153061e-02 -3.693019116309335104e-01 -6.391284057433851418e-01 -7.411729072025636800e-01 -1.068989269276460874e+00 -1.409100319729895467e+00 -1.409100319729895467e+00 -1.730495029392711270e+00 -1.993690058976817614e+00 -2.075754670114933198e+00 -2.201224997413835816e+00 -2.410203732876751381e+00 -2.452009708675149557e+00 -2.623556844841249180e+00 -2.691333625710914390e+00 -2.846216356740427500e+00 -3.012768107643095661e+00 -2.836129364032817346e+00 -2.824041982674629025e+00 -2.450897429957240803e+00 -2.241100994104621158e+00 -2.241100994104621158e+00 -2.336723166371955873e+00 -2.432345338639291477e+00 -2.422432498774882870e+00 -2.602482475679357865e+00 -2.908152430238148956e+00 -2.871634380364413097e+00 -3.242202901532821979e+00 -3.446221856534950057e+00 -3.546452200888502659e+00 -3.890032508098780095e+00 -4.274134405391729175e+00 -4.274134405391729175e+00 -4.614104637547383092e+00 -5.091343837702529740e+00 -5.120420164002460695e+00 -5.448294782557985272e+00 -5.794589387994479424e+00 -5.867206066386827956e+00 -6.116405170092385823e+00 -6.282459554604925778e+00 -6.368268521335934906e+00 -6.683025232844419961e+00 -6.897645021496407125e+00 -6.897645021496407125e+00 -7.047670635399881256e+00 -7.238669468148274611e+00 -7.306165292372748254e+00 -7.429695615175257117e+00 -7.622636165962353161e+00 -7.590680102487273651e+00 -7.713252583269625262e+00 -7.802028409906634820e+00 -7.755109748059016539e+00 -7.798267863307062342e+00 -7.889929606472147583e+00 -7.883955772170017084e+00 -7.961059587257286907e+00 -8.046839316298404654e+00 -8.046839316298404654e+00 -8.181722436228847428e+00 -8.348494307322813057e+00 -8.340016894862083419e+00 -8.424651827348993649e+00 -8.548660798481531486e+00 -8.606294087265457193e+00 -8.601258620575258362e+00 -8.675118733430675633e+00 -8.691860393477217173e+00 -8.705788987418920044e+00 -8.729709227543921202e+00 -8.812331750227986760e+00 -8.784968617437456828e+00 -8.884505683706567680e+00 -8.954275444581647037e+00 -8.954275444581647037e+00 -8.986925859699908870e+00 -9.032307961887934056e+00 -9.003163504856026123e+00 -9.086960878486882720e+00 -9.199434935113670164e+00 -9.174077462435954899e+00 -9.227694086612183710e+00
2.557168707935982166e+00 1.901229898260520690e+00 3.024535475928447070e-01 -2.557968724263224858e-01 -2.557968724263224858e-01 -2.774899973957306587e-01 -3.048596313688449744e-01 -2.646880673072504742e-01 -9.699913600592671714e-02 3.358819126910706498e-01 4.898051648314785123e-01 5.985845249167276449e-01 5.648895277278955795e-01 5.919150884568016302e-01 5.895298166103855042e-01 7.663441785303435339e-01 7.663441785303435339e-01 8.602824430433557712e-01 1.089174340127504248e+00 1.140131794765625761e+00 1.290987980823699921e+00 1.351490082535893311e+00 1.399428060782313743e+00 1.364383847162473185e+00 1.204882189563938777e+00 1.189105482262275526e+00 1.030232007191326460e+00 8.103231304089237863e-01 8.330394754205415753e-01 5.725928914106471757e-01 2.641214880054966740e-01 2.641214880054966740e-01 -1.139414975988270601e-01 -5.466881317590002176e-01 -6.391284057433851418e-01 -9.355708887057314627e-01 -1.103207369400760030e+00 -1.270584920671909313e+00 -1.638568018936754855e+00 -1.836593481901995562e+00 -1.944130178404820608e+00 -2.162322437176553258e+00 -2.369781262938166488e+00 -2.369781262938166488e+00 -2.551563743212384772e+00 -2.615723796928894007e+00 -2.691333625710914390e+00 -2.691925027958991468e+00 -2.696876857913224956e+00 -2.836129364032817346e+00 -2.539666366026894107e+00 -2.378278293793387732e+00 -2.285645135987908638e+00 -2.266378799221672402e+00 -2.362000971489007561e+00 -2.362000971489007561e+00 -2.487401794329939797e+00 -2.831447615790896766e+00 -2.908152430238148956e+00 -3.027354563596238002e+00 -3.335066288055901662e+00 -3.446221856534950057e+00 -3.661281088613647761e+00 -4.101175872275939938e+00 -4.185631160764515357e+00 -4.540600192202965957e+00 -4.948183061136319338e+00 -5.282262863731579827e+00 -5.355782069680218527e+00 -5.703857461999898959e+00 -5.939979729767122407e+00 -6.040046224412885856e+00 -6.236806104754554880e+00 -6.514948270864815427e+00 -6.514948270864815427e+00 -6.762631502065586275e+00 -7.055358623779673266e+00 -7.029584675384649373e+00 -7.144647466616300235e+00 -7.323514738392938206e+00 -7.380210862258737237e+00 -7.577682569273217261e+00 -7.696582697349742652e+00 -7.732874225499836385e+00 -7.802741340128233283e+00 -7.895275119141144771e+00 -7.895275119141144771e+00 -7.938433234389189685e+00 -8.030274713508569917e+00 -7.997095283703692381e+00 -8.103021615569454994e+00 -8.185725465747646368e+00 -8.176235134140153349e+00 -8.339378697192330492e+00 -8.469257867933434270e+00 -8.448600088589738988e+00 -8.557586217684580276e+00 -8.664109885837458336e+00 -8.638623794489628693e+00 -8.710376326489768672e+00 -8.747478916164846297e+00 -8.747478916164846297e+00 -8.828738868536872175e+00 -8.839215412005950512e+00 -8.812331750227986760e+00 -8.909765251245955753e+00 -9.002165029963787646e+00 -8.984357779352261986e+00 -9.024976090512133453e+00 -9.102745337797562897e+00 -9.055397484101701977e+00 -9.129529030592999916e+00 -9.202859753654914599e+00 -9.202859753654914599e+00 -9.304673858978594225e+00 -9.354817536923912158e+00
2.557168707935982166e+00 1.640213969795775384e+00 4.047877231690049094e-01 -2.008878397059904453e-02 -2.997837268224017859e-01 -3.105401235870866583e-01 -2.699050201357639511e-01 -1.899477785973806010e-01 1.833326433154676138e-01 1.833326433154676138e-01 4.536795607567560285e-01 6.220575081200374612e-01 5.648895277278955795e-01 6.851142144736848127e-01 6.335338275824849985e-01 8.319548195368027255e-01 9.612520475569804601e-01 1.072342797208184484e+00 1.070568425218497932e+00 1.213233959220583191e+00 1.314717142122649118e+00 1.314717142122649118e+00 1.223887661277974770e+00 1.144562769969050375e+00 1.204882189563938777e+00 1.016723698881955906e+00 7.891066463388555219e-01 8.103231304089237863e-01 5.677749216136912525e-01 2.756719489121473021e-01 3.005917157322321454e-01 -7.020067060826418182e-03 -4.074960741376932871e-01 -4.074960741376932871e-01 -7.969085363366622543e-01 -1.008704955657777180e+00 -1.116517084076300126e+00 -1.261943158791058339e+00 -1.652740098409698044e+00 -1.976331677241101481e+00 -1.976331677241101481e+00 -2.224274204995503990e+00 -2.347815980937112190e+00 -2.437751873640526590e+00 -2.487563682457192282e+00 -2.606833604523369097e+00 -2.644579240259285591e+00 -2.663970881363219689e+00 -2.682859326544488887e+00 -2.655670607026092256e+00 -2.474546273993840195e+00 -2.337774316729674062e+00 -2.337774316729674062e+00 -2.326239583105788711e+00 -2.417224784254300207e+00 -2.352035636439462785e+00 -2.575931126592308384e+00 -2.881229068770206680e+00 -3.063431469689656073e+00 -3.283172434531411277e+00 -3.499828931294489465e+00 -3.567521240376803071e+00 -4.047921841097513074e+00 -4.448788359002106674e+00 -4.448788359002106674e+00 -4.874498648000721523e+00 -5.263395494834862909e+00 -5.282262863731579827e+00 -5.587918671572355223e+00 -5.887321129710511691e+00 -5.939979729767122407e+00 -6.174011879815106241e+00 -6.392409175654925058e+00 -6.429165917287498644e+00 -6.680176063935571840e+00 -6.853458840924775863e+00 -6.928200074349827986e+00 -7.148490692279660941e+00 -7.276963895752372125e+00 -7.276963895752372125e+00 -7.519709588680592027e+00 -7.665445378162603518e+00 -7.696582697349742652e+00 -7.834301035699322568e+00 -7.942614599587719759e+00 -7.926520144691638237e+00 -7.986936862306231788e+00 -8.078598605471318805e+00 -8.030094977554277591e+00 -8.141613999165159044e+00 -8.258670909397057613e+00 -8.258670909397057613e+00 -8.313767379378411704e+00 -8.464071317487174895e+00 -8.469257867933434270e+00 -8.567451157276137153e+00 -8.682990410667910552e+00 -8.664109885837458336e+00 -8.719677944406047487e+00 -8.819494032404275430e+00 -8.793720947536908028e+00 -8.812893832605572797e+00 -8.876774404344818237e+00 -8.876774404344818237e+00 -8.925603885669156412e+00 -9.026527835843776160e+00 -9.002165029963787646e+00 -9.102017125609483728e+00 -9.143785095794891404e+00 -9.102745337797562897e+00 -9.183120125768017061e+00 -9.255894556329973710e+00 -9.226750099298065777e+00 -9.329079706428078822e+00 -9.435270255521231775e+00 -9.384266537400122843e+00
2.496005616037605179e+00 5.562044635549788785e-01 4.047877231690049094e-01 2.740254043635056980e-02 -3.789570247028059002e-01 -2.303050931112256561e-01 -1.660903968171584810e-01 -6.437614002436509164e-02 2.581810925959793224e-01 4.407671838267831488e-01 5.549167251087424590e-01 8.075855348091947050e-01 7.236317578251520999e-01 7.864041099697183235e-01 8.088537190883952066e-01 8.019221928247624032e-01 1.051906373205772294e+00 1.149209354711317577e+00 1.149209354711317577e+00 1.203197767112699879e+00 1.164499616185818320e+00 1.194917664894731946e+00 1.053905242789351160e+00 9.433108693928842214e-01 1.001220392238290069e+00 7.729184213353990085e-01 5.085376457201622458e-01 4.923991239452939483e-01 2.909899390287055132e-01 1.384971600901285793e-03 1.384971600901285793e-03 -2.652181470189011736e-01 -5.425473430702514310e-01 -6.398818072962050296e-01 -8.133656032445860662e-01 -9.952683054940467677e-01 -1.116517084076300126e+00 -1.460113824413027839e+00 -1.617000969969548452e+00 -1.805197018520588559e+00 -2.121321310296994334e+00 -2.260437457778338377e+00 -2.260437457778338377e+00 -2.371083851240507467e+00 -2.520009826968729438e+00 -2.606833604523369097e+00 -2.702093246604340138e+00 -2.673946198216681225e+00 -2.682859326544488887e+00 -2.581632113664563022e+00 -2.420856047492668139e+00 -2.406011608907654420e+00 -2.310857537597881706e+00 -2.426997081634693298e+00 -2.458096452129239218e+00 -2.628237072693520915e+00 -2.855650305871184180e+00 -2.855650305871184180e+00 -3.190000095973381633e+00 -3.438575630790377424e+00 -3.499828931294489465e+00 -3.891967721377169731e+00 -4.350671489128650649e+00 -4.445355414238777669e+00 -4.824102674282871206e+00 -5.135365627431079716e+00 -5.191409997330060477e+00 -5.568704594867943669e+00 -5.826414204191329382e+00 -5.826414204191329382e+00 -6.121060487786187387e+00 -6.404372377426690299e+00 -6.392409175654925058e+00 -6.616308208491396670e+00 -6.784419539709759306e+00 -6.853458840924775863e+00 -7.154996631189300516e+00 -7.303447943216197835e+00 -7.316674766748125336e+00 -7.498033355733618066e+00 -7.634335157901613655e+00 -7.634335157901613655e+00 -7.800532673577278864e+00 -7.952663634596730091e+00 -7.952663634596730091e+00 -8.047484786631660114e+00 -8.126316088680697547e+00 -8.078598605471318805e+00 -8.170260348636404046e+00 -8.286132714626624818e+00 -8.244983643881624857e+00 -8.338244227917368079e+00 -8.451299624616671835e+00 -8.449066401238278345e+00 -8.590021428544053705e+00 -8.662860239764375692e+00 -8.662860239764375692e+00 -8.779558973193385185e+00 -8.833995727831636557e+00 -8.819494032404275430e+00 -8.909311080963439267e+00 -8.933927271733928421e+00 -8.951688749654824306e+00 -8.952487547447121941e+00 -9.038876021110324288e+00 -9.022981249227838063e+00 -9.120797544734914553e+00 -9.180636197273377874e+00 -9.180636197273377874e+00 -9.218564815895216924e+00 -9.285039013361883420e+00 -9.255894556329973710e+00 -9.353115625035037795e+00 -9.443675177655480368e+00 -9.435270255521231775e+00 -9.481940987235640605e+00
2.765151119726894979e+00 1.684358369952102530e-01 1.068583645354115597e-01 -3.648456818822391479e-01 -4.259855236793976818e-01 -2.525635517531004126e-01 -1.261573759955318119e-01 1.143999491379929789e-01 1.143999491379929789e-01 4.207947808701698600e-01 8.501148489293979260e-01 8.075855348091947050e-01 9.332476330113622653e-01 9.516685131117083030e-01 8.088537190883952066e-01 9.754797910057813048e-01 1.107128559980017135e+00 1.127275100738843738e+00 1.156286127332764480e+00 1.174829941821891488e+00 1.174829941821891488e+00 1.063443528550973349e+00 9.362597348349337434e-01 9.362597348349337434e-01 7.862163955784972069e-01 5.498857670989810709e-01 5.085376457201622458e-01 2.781315013842728390e-01 -4.204946162752348782e-02 2.171467191659781637e-04 -2.530657528791832589e-01 -4.231434589686626779e-01 -4.933084619090437606e-01 -7.173486369159836062e-01 -9.098769682380739576e-01 -9.098769682380739576e-01 -1.109493150060260946e+00 -1.406147880502480962e+00 -1.617000969969548452e+00 -1.812703191893481280e+00 -2.131680948897753058e+00 -2.194837167095848418e+00 -2.312719484842630457e+00 -2.412978891437839390e+00 -2.435182921816863466e+00 -2.645328640698752842e+00 -2.716776725583038399e+00 -2.716776725583038399e+00 -2.615032533975008899e+00 -2.393936971153965310e+00 -2.420856047492668139e+00 -2.311608018787614682e+00 -2.316067664957026206e+00 -2.426997081634693298e+00 -2.618148496941277603e+00 -2.735870668099744663e+00 -2.809299912247861908e+00 -3.143266400215617651e+00 -3.483447434296949474e+00 -3.483447434296949474e+00 -3.865011325745055348e+00 -4.281643900210056586e+00 -4.281643900210056586e+00 -4.692987190946031895e+00 -5.039590961224018173e+00 -5.135365627431079716e+00 -5.386793761978516670e+00 -5.734414535191728390e+00 -5.785866536239767655e+00 -6.070197204702399318e+00 -6.267353765936343635e+00 -6.352601477850996048e+00 -6.588690692224155043e+00 -6.756802023442516791e+00 -6.756802023442516791e+00 -6.927115172042670466e+00 -7.204084997268727975e+00 -7.303447943216197835e+00 -7.449726786178125337e+00 -7.560769587825976856e+00 -7.603224937640622016e+00 -7.753208187051988887e+00 -7.873047210428206988e+00 -7.916098166792510327e+00 -8.061939619662656042e+00 -8.151994938389400147e+00 -8.151994938389400147e+00 -8.218763976553445261e+00 -8.318021086295054545e+00 -8.286132714626624818e+00 -8.386945672193794721e+00 -8.490762990087091566e+00 -8.451299624616671835e+00 -8.588763937782017521e+00 -8.710784989154674918e+00 -8.687298866588379909e+00 -8.808394603651240828e+00 -8.894924040943813282e+00 -8.867259361340806834e+00 -8.928611738318785740e+00 -8.984591153010317299e+00 -8.984591153010317299e+00 -9.068328163112012064e+00 -9.065759682888289817e+00 -9.038876021110324288e+00 -9.134465150196172445e+00 -9.241421144441432034e+00 -9.219676471866705469e+00 -9.262594101077649356e+00 -9.334982920427679076e+00 -9.411404539098857214e+00 -9.382260082066947504e+00 -9.447563898226508883e+00 -9.558270648882881915e+00 -9.565866652063867548e+00 -9.609064437547369053e+00
1.481264511579403642e+00 1.481264511579403642e+00 -9.599864562438559235e-02 -4.201453830198996764e-01 -4.259855236793976818e-01 -3.586469558745644659e-01 -4.201864791089033463e-02 7.361988367352512164e-02 3.196854460002365728e-01 5.277146306093518646e-01 6.433042855853318143e-01 9.380286859187726423e-01 9.883070523654382544e-01 9.883070523654382544e-01 1.004881551669868589e+00 1.083483193707601266e+00 1.107128559980017135e+00 1.118232541032394778e+00 1.129650668381398937e+00 1.153813244521832315e+00 1.081324282314514829e+00 9.919675494800209714e-01 9.511763847668494032e-01 8.210284872191839778e-01 5.877562966693108404e-01 5.877562966693108404e-01 3.047654872188735320e-01 -9.842626602988205353e-02 -4.204946162752348782e-02 -3.036668612162264358e-01 -4.054359913198680720e-01 -4.231434589686626779e-01 -6.775049848505746430e-01 -7.548476914569064444e-01 -8.155710599707035602e-01 -1.008064026126128665e+00 -1.142381609567118428e+00 -1.252805993255502681e+00 -1.702754940800657035e+00 -2.104345801326794607e+00 -2.104345801326794607e+00 -2.297155056505072235e+00 -2.430411772093411304e+00 -2.412978891437839390e+00 -2.628799065871449958e+00 -2.750294004787727786e+00 -2.759607252949396017e+00 -2.671953572140521871e+00 -2.536006176578613047e+00 -2.393093127380799157e+00 -2.238686870317977196e+00 -2.223826634162739957e+00 -2.223826634162739957e+00 -2.459955963616898611e+00 -2.662441423951626973e+00 -2.735870668099744663e+00 -2.955478437449397866e+00 -3.307278582497640507e+00 -3.391077023907531629e+00 -3.772775013470565320e+00 -4.072496115307727038e+00 -4.184536697740522726e+00 -4.581944868764253442e+00 -4.971236679333979502e+00 -4.971236679333979502e+00 -5.288577835704360908e+00 -5.643284516069816625e+00 -5.734414535191728390e+00 -5.931849452729864858e+00 -6.167450630269431855e+00 -6.267353765936343635e+00 -6.407726878977600293e+00 -6.659744248453923099e+00 -6.716097856589886561e+00 -6.897295838393635137e+00 -7.037789653344753482e+00 -7.081954437550832537e+00 -7.365451353790353650e+00 -7.576902677694898003e+00 -7.678896724997475332e+00 -7.694554897131556714e+00 -7.840970995941372479e+00 -8.022051764199678914e+00 -8.022051764199678914e+00 -8.173742401050668960e+00 -8.289708080358236586e+00 -8.273746646616515932e+00 -8.368088286518570840e+00 -8.459446734040593441e+00 -8.430651430088090592e+00 -8.557772254894214115e+00 -8.643281752256811501e+00 -8.588831869854928414e+00 -8.713176944764560616e+00 -8.807146575900624441e+00 -8.807146575900624441e+00 -8.933798796634572881e+00 -8.981577144766394127e+00 -8.948313511257223851e+00 -9.033857459180335781e+00 -9.103193367116549695e+00 -9.054960710862284046e+00 -9.092643344666255345e+00 -9.179031818329459469e+00 -9.152148156551495717e+00 -9.230601813819664159e+00 -9.337335818123927211e+00 -9.337335818123927211e+00 -9.381403106360407307e+00 -9.438565409100647230e+00 -9.438565409100647230e+00 -9.508625607803921298e+00 -9.576702219477077449e+00 -9.558270648882881915e+00 -9.684490601656046138e+00 -9.736187887859097501e+00
2.895284830696569056e+00 2.684272737122073149e-01 -2.461050586874329316e-01 -2.461050586874329316e-01 -5.020753953426441152e-01 -1.928186333921417805e-01 -4.201864791089033463e-02 1.482215454805147214e-01 3.478001304320351150e-01 5.277146306093518646e-01 9.019445991646775074e-01 9.989938509001812239e-01 1.000192839470100514e+00 1.031055994196326875e+00 1.058603260681516112e+00 1.060294038151280649e+00 1.090609296362020642e+00 1.125466783980411556e+00 1.125466783980411556e+00 1.116446943572051431e+00 1.078786157505958077e+00 9.919675494800209714e-01 9.584144638931946236e-01 6.892550943915258799e-01 6.924915705886895978e-01 3.733358979859205951e-01 1.297541452566420839e-01 7.895177823872001621e-02 -4.593695111054077462e-01 -4.503895759141564037e-01 -4.503895759141564037e-01 -5.580364123500960449e-01 -7.006691160602207535e-01 -7.548476914569064444e-01 -8.598710860015739144e-01 -1.099846604121187621e+00 -1.142381609567118428e+00 -1.588350098746683869e+00 -1.830060023339523667e+00 -1.923998438609386241e+00 -2.243679580022941433e+00 -2.403389693943875471e+00 -2.403389693943875471e+00 -2.579551690415059273e+00 -2.744398342978496608e+00 -2.750294004787727786e+00 -2.726753362613027143e+00 -2.584143353724110970e+00 -2.342667097350589422e+00 -2.342667097350589422e+00 -2.110263882655710965e+00 -2.297586295826913538e+00 -2.453848702327197540e+00 -2.509006834116126683e+00 -2.830426413457903134e+00 -2.894669931321219636e+00 -3.182632311419456794e+00 -3.455206448870218328e+00 -3.573691411220889957e+00 -3.910651728191830934e+00 -4.323997447355666601e+00 -4.323997447355666601e+00 -4.787914010026186773e+00 -5.234586669831651662e+00 -5.234872402983189232e+00 -5.459740235269393338e+00 -5.714974050181581333e+00 -5.820955981780618238e+00 -6.067547494602519187e+00 -6.204467730075455378e+00 -6.303148672142085296e+00 -6.540974343355848930e+00 -6.773526930084779352e+00 -6.773526930084779352e+00 -6.961321228985765330e+00 -7.224861622052852539e+00 -7.215315633633540671e+00 -7.442455984088210741e+00 -7.627855233651639644e+00 -7.678896724997475332e+00 -7.828333686549742154e+00 -7.962092422085071064e+00 -7.959844025091747710e+00 -8.135613636235277113e+00 -8.268081575171152053e+00 -8.280457733555886435e+00 -8.399419283732106223e+00 -8.450591090800660510e+00 -8.450591090800660510e+00 -8.575170145549559919e+00 -8.707322927642795918e+00 -8.643281752256811501e+00 -8.726364115093188545e+00 -8.847623505538425803e+00 -8.831389445080658263e+00 -8.901068652179759511e+00 -9.057080568758888006e+00 -9.010266838466058914e+00 -9.062631294682812921e+00 -9.127546492792456334e+00 -9.127546492792456334e+00 -9.175994149990639670e+00 -9.205915480107424997e+00 -9.179031818329459469e+00 -9.265420291992663593e+00 -9.325494552943933257e+00 -9.362044744147951292e+00 -9.393378913070518976e+00 -9.500212111643165258e+00 -9.457870525705715181e+00 -9.537770064835831008e+00 -9.605846676508985382e+00 -9.605846676508985382e+00 -9.673434700324820668e+00 -9.800094933320799839e+00 -9.736187887859097501e+00
2.341107743517845563e+00 3.522438162144235219e-01 -1.035221787592053994e-01 -4.990937477021163970e-01 -6.169347337948212218e-01 -3.586321670486768420e-01 -7.889106501190021326e-02 2.643718890159502122e-01 2.643718890159502122e-01 7.124266486435828494e-01 9.924326214575314165e-01 9.989938509001812239e-01 1.034958949123199190e+00 1.054818998660924878e+00 1.058603260681516112e+00 1.077429206210944068e+00 1.066796556208875701e+00 1.127739847489401592e+00 1.127785645352648025e+00 1.059005703682193378e+00 1.054697359992692318e+00 1.045730462100009417e+00 9.013975541538333802e-01 6.402366048194868542e-01 5.289405339377419857e-01 1.328817283850274034e-01 -3.192959269054961302e-01 -3.192959269054961302e-01 -9.826027434694432072e-01 -6.987761348015473217e-01 -6.400228201272348816e-01 -7.631720626493865289e-01 -7.869686343428942132e-01 -7.785332738559711530e-01 -1.011931691020512947e+00 -1.139232734264647551e+00 -1.251751015066807859e+00 -1.709377143494704265e+00 -2.025799632432957242e+00 -2.025799632432957242e+00 -2.317755594409387498e+00 -2.509510725728729241e+00 -2.550657636955311336e+00 -2.710237306690742365e+00 -2.820268223945513242e+00 -2.750259098076484943e+00 -2.621267776639124136e+00 -2.453895786353144093e+00 -2.410315271588903574e+00 -2.260351455514214791e+00 -2.284402955175168337e+00 -2.284402955175168337e+00 -2.451578289483133055e+00 -2.715766125106298112e+00 -2.830426413457903134e+00 -3.107201236198127603e+00 -3.416103976960692901e+00 -3.455206448870218328e+00 -3.736875589617802973e+00 -4.168538042212160732e+00 -4.243437665698444050e+00 -4.668493136819260592e+00 -5.027411635020330394e+00 -5.125659931704589667e+00 -5.423992544602656452e+00 -5.652382454560767044e+00 -5.652382454560767044e+00 -5.913221521440442885e+00 -6.176474426626659131e+00 -6.204467730075455378e+00 -6.349584309739197963e+00 -6.569065521003049746e+00 -6.655647929453321510e+00 -6.885901237625045468e+00 -7.046714824446956627e+00 -7.140189785767876884e+00 -7.315127037110506159e+00 -7.584385633552714445e+00 -7.584385633552714445e+00 -7.722948947447855872e+00 -7.910365107815496621e+00 -7.962092422085071064e+00 -8.039343851840895283e+00 -8.228526612614817992e+00 -8.268081575171152053e+00 -8.387287581876066156e+00 -8.469627322193733931e+00 -8.501373200237170025e+00 -8.605145827663502445e+00 -8.685565800243644219e+00 -8.685565800243644219e+00 -8.795800514426534988e+00 -8.855759932934935463e+00 -8.847623505538425803e+00 -8.941454538043462463e+00 -9.016385163711236217e+00 -9.057080568758888006e+00 -9.104081843537747076e+00 -9.163828851769611816e+00 -9.145759697196277571e+00 -9.217363541351618395e+00 -9.242375014548583678e+00 -9.233477728286185737e+00 -9.292303953770630898e+00 -9.357432952132844761e+00 -9.357432952132844761e+00 -9.482668343854468773e+00 -9.526540326538455616e+00 -9.500212111643165258e+00 -9.580758130983751286e+00 -9.664135590572804801e+00 -9.634991133540895092e+00 -9.703067745214051243e+00 -9.785932379902316569e+00 -9.799086072883447684e+00 -9.861493132857900079e+00
1.340889513103120878e+00 2.149958122224041590e-01 -1.170558885387440740e-01 -6.718515405008854691e-01 -4.863064608986119586e-01 -4.863064608986119586e-01 -7.002209868197338538e-02 2.718979924094002687e-01 4.709293601461429501e-01 9.223372447739857094e-01 1.048970314654370961e+00 1.040609141313949326e+00 1.071284199802580162e+00 1.075764468329731383e+00 1.094515692819018948e+00 1.101671577637633570e+00 1.101011598630923460e+00 1.101011598630923460e+00 1.140218922850087857e+00 1.103541069985514600e+00 1.054697359992692318e+00 1.061182723676209250e+00 7.325712885025759125e-01 6.402366048194868542e-01 2.756101854132768647e-01 -5.576193868588036340e-02 -2.065790343101339688e-01 -9.706802271615151412e-01 -1.245368656085718673e+00 -1.245368656085718673e+00 -8.345084471843017271e-01 -8.124473608592077678e-01 -7.869686343428942132e-01 -8.114347763155468352e-01 -1.049890449727704400e+00 -1.139232734264647551e+00 -1.465302344252912059e+00 -1.915843869349608042e+00 -1.954149697713980061e+00 -2.233323093074019106e+00 -2.464104840769277605e+00 -2.489826236145502136e+00 -2.716974461934204665e+00 -2.793062177418254688e+00 -2.793062177418254688e+00 -2.749765029758849622e+00 -2.499775517904253785e+00 -2.453895786353144093e+00 -2.192816912736884838e+00 -2.292084005505178990e+00 -2.230080491234966544e+00 -2.415807973156691268e+00 -2.643377761084336086e+00 -2.644894470588605273e+00 -2.920215685970051211e+00 -3.339767011647474249e+00 -3.339767011647474249e+00 -3.682165550626950168e+00 -4.059884151050431988e+00 -4.168538042212160732e+00 -4.508226118103642932e+00 -4.925618067831710079e+00 -5.027411635020330394e+00 -5.412013932689239581e+00 -5.560265485135156283e+00 -5.583528051820209726e+00 -5.796582018571671213e+00 -6.118543770482054001e+00 -6.118543770482054001e+00 -6.277806428491896185e+00 -6.509364471852000733e+00 -6.509364471852000733e+00 -6.780048846411034447e+00 -6.948801841361291309e+00 -7.046714824446956627e+00 -7.201696725222791251e+00 -7.406323960595007527e+00 -7.539489432247334477e+00 -7.685070376501135669e+00 -7.825791376424944268e+00 -7.868078242120219556e+00 -8.027106655568715610e+00 -8.191700100960034092e+00 -8.191700100960034092e+00 -8.310258149318567433e+00 -8.444686823847657564e+00 -8.469627322193733931e+00 -8.543617865233892772e+00 -8.656031978259090209e+00 -8.675753564474682378e+00 -8.826937590996838168e+00 -8.854335504564360804e+00 -8.842107441298111326e+00 -8.933296467004522512e+00 -8.988684877009038843e+00 -8.988684877009038843e+00 -9.076381556835551478e+00 -9.135959234958992425e+00 -9.163828851769611816e+00 -9.198835128558252805e+00 -9.239744772400472428e+00 -9.242375014548583678e+00 -9.303538289138129969e+00 -9.355152864780876598e+00 -9.367347246769021751e+00 -9.405213912131804577e+00 -9.512836591333933001e+00 -9.538102104915473944e+00 -9.595675414126723979e+00 -9.651641299230226068e+00 -9.651641299230226068e+00 -9.709632594144782303e+00 -9.763560913021921195e+00 -9.785932379902316569e+00 -9.845387210651132648e+00 -9.908471371286941221e+00
1.224753799654421549e+00 2.149958122224041590e-01 -3.705898102165988139e-01 -4.649482472325928151e-01 -7.098293735561975737e-01 -2.401411894524951574e-01 1.423987520824676056e-01 1.423987520824676056e-01 6.657560307185284021e-01 1.015160584218544493e+00 1.015160584218544493e+00 1.056953402238303363e+00 1.073265857038496307e+00 1.075764468329731383e+00 1.093534676756289681e+00 1.085915758504521600e+00 1.076187015033534866e+00 1.126226524798410678e+00 1.146140778705912577e+00 1.131615769725915932e+00 1.083949893683699539e+00 8.055613517652627786e-01 8.055613517652627786e-01 4.019879937181345952e-01 7.238525880359586440e-03 -5.576193868588036340e-02 -5.831153430579438801e-01 -1.217036151230367125e+00 -1.396200574438644093e+00 -9.704152158929488792e-01 -9.435570215430331142e-01 -9.219804672044717986e-01 -8.160424174166124311e-01 -1.018813862682450555e+00 -1.018813862682450555e+00 -1.279504528835682997e+00 -1.734359966231919126e+00 -1.915843869349608042e+00 -2.021078254662077356e+00 -2.334563193209269638e+00 -2.464104840769277605e+00 -2.680327034713346990e+00 -2.723591126353684722e+00 -2.751985416299293163e+00 -2.825550197165225264e+00 -2.752091420874996697e+00 -2.628462760689936673e+00 -2.467470569786578860e+00 -2.238968012768693505e+00 -2.238968012768693505e+00 -2.346118042282347105e+00 -2.561353193665498296e+00 -2.643377761084336086e+00 -2.813337849663136936e+00 -3.134560193513352466e+00 -3.284082970196873674e+00 -3.567296636625449047e+00 -3.821259398972022936e+00 -3.944062977296751260e+00 -4.400048076767435035e+00 -4.847397320480027361e+00 -4.847397320480027361e+00 -5.235103601708407162e+00 -5.478151065130370867e+00 -5.560265485135156283e+00 -5.708690602210579890e+00 -5.884577333407605693e+00 -6.003032261515030221e+00 -6.229250412332266507e+00 -6.306129331909582802e+00 -6.410668935987007266e+00 -6.668323491065315523e+00 -6.925208200248934354e+00 -6.925208200248934354e+00 -7.125949687082195894e+00 -7.346824418477907237e+00 -7.406323960595007527e+00 -7.593570553815107260e+00 -7.783504510729665427e+00 -7.825791376424944268e+00 -7.995661341152398904e+00 -8.108945493469706278e+00 -8.154873589305250192e+00 -8.262544576239999827e+00 -8.346434834431745386e+00 -8.424683182556181649e+00 -8.505194295248850622e+00 -8.617608408274049836e+00 -8.617608408274049836e+00 -8.713135848530292549e+00 -8.864220359797222670e+00 -8.868933222380952941e+00 -8.868933222380952941e+00 -8.964719117465939746e+00 -9.019136610483259986e+00 -9.048681270133354104e+00 -9.108677663257672918e+00 -9.170476617911836215e+00 -9.200932411583091053e+00 -9.237114530252362954e+00 -9.267775194196140376e+00 -9.270405436344249850e+00 -9.361081891664891685e+00 -9.392444259472446433e+00 -9.392444259472446433e+00 -9.477633034791233868e+00 -9.560522496443015328e+00 -9.576171098018088301e+00 -9.616986985935106702e+00 -9.662371382027039601e+00 -9.663734560049324074e+00 -9.741189446141525821e+00 -9.771582391254389321e+00 -9.793953858134784696e+00 -9.915062556252209447e+00 -9.985355581741950814e+00
2.297104016840451735e+00 3.269320574043267369e-01 -1.579904141762636660e-01 -4.649482472325928151e-01 -6.329904082212157723e-01 -2.845966152681938532e-01 -7.776727479668457677e-02 3.827693586908893497e-01 8.444118146492441968e-01 9.702156856878433322e-01 1.030105166621266388e+00 1.060379500438320077e+00 1.060379500438320077e+00 1.090044627881521455e+00 1.079234010548435707e+00 1.085915758504521600e+00 1.076470522533231389e+00 1.129333584839634863e+00 1.146140778705912577e+00 1.077850160165493731e+00 9.783411538940174346e-01 8.808600502961152490e-01 4.778272145200316290e-01 1.942495600507003761e-01 6.970612317000908498e-02 -4.381459013337405950e-01 -1.074216198313023396e+00 -1.074216198313023396e+00 -1.475758049410250905e+00 -1.200099792127832021e+00 -9.435570215430331142e-01 -9.561789111701261001e-01 -9.771358835213881378e-01 -9.884674560325337200e-01 -1.248637542441678683e+00 -1.587618356223079008e+00 -1.509118607943661372e+00 -1.907938064743534223e+00 -2.216229010596098892e+00 -2.216229010596098892e+00 -2.532028896401003148e+00 -2.736470382091406250e+00 -2.723591126353684722e+00 -2.781928687944651202e+00 -2.836279973033061008e+00 -2.752091420874996697e+00 -2.580468329065047417e+00 -2.524387078744457558e+00 -2.372035389372260994e+00 -2.348072851377840831e+00 -2.564284385535721356e+00 -2.564284385535721356e+00 -2.773902272192846130e+00 -2.988752470317213472e+00 -3.134560193513352466e+00 -3.452368037482732355e+00 -3.681403432541634491e+00 -3.821259398972022936e+00 -4.203285835816076066e+00 -4.717778154054757422e+00 -5.084923031290926154e+00 -5.160013316499666658e+00 -5.362800006948534204e+00 -5.635156337885897315e+00 -5.684730694291624253e+00 -5.841339412038625944e+00 -5.941290777667722622e+00 -6.026034590639651078e+00 -6.281176386367726572e+00 -6.516314544999939784e+00 -6.516314544999939784e+00 -6.708400142687930057e+00 -6.968664475050792895e+00 -7.085030771637024216e+00 -7.256355752004008508e+00 -7.430744946089676617e+00 -7.489280411677862404e+00 -7.741217645034388362e+00 -7.862619070516037922e+00 -7.904905936211314099e+00 -8.054304588432724898e+00 -8.190516345255012709e+00 -8.190516345255012709e+00 -8.298721261353176004e+00 -8.460249688993133788e+00 -8.493964234751505415e+00 -8.554070057336765842e+00 -8.653175381329168303e+00 -8.691598951314208676e+00 -8.769582349534882582e+00 -8.897221780330353269e+00 -8.881161285647202419e+00 -8.932545958832118771e+00 -8.996141767927356980e+00 -8.999351766214298110e+00 -9.080977376555475544e+00 -9.136468325224688769e+00 -9.136468325224688769e+00 -9.232296701427515018e+00 -9.265144952048029126e+00 -9.267775194196140376e+00 -9.298435858139914245e+00 -9.414543417938784131e+00 -9.376494500525021536e+00 -9.439787461977315886e+00 -9.501311297698928016e+00 -9.502222351017383772e+00 -9.597482669826472801e+00 -9.657802873852125103e+00 -9.657802873852125103e+00 -9.678683262188984671e+00 -9.749210924373993947e+00 -9.771582391254389321e+00 -9.801975336367251046e+00 -9.930841559572083810e+00 -9.930701600414392871e+00
