3.928092924081756365e+00 3.526552184817689728e+00 3.352003426636955830e+00 3.245336020750833939e+00 2.985910694965303591e+00 2.820744741124641131e+00 2.507166589323012396e+00 2.368482347850232372e+00 2.329315763755108737e+00 1.906637233880819959e+00 1.370405352121415010e+00 1.370405352121415010e+00 1.192732584686047259e+00 1.171407448461266432e+00 1.113430392460993623e+00 1.007158365902457664e+00 8.544092699111740519e-01 6.905318261776584032e-01 4.524494718452924391e-01 3.041024120769065808e-01 1.906112798022194799e-01 -1.366832960536906727e-01 -1.485791740356742441e+00 -1.485791740356742441e+00 -2.023617876833783136e+00 -2.296918342201556218e+00 -2.296918342201556218e+00 -2.831699493903198750e+00 -2.407351999187165248e+00 -2.376577780203538826e+00 -1.987796118346175200e+00 -2.101316409664495399e+00 -2.080358794417335844e+00 -1.429672091846355242e+00 -9.682321786063831093e-01 1.522616034362500592e-01 5.643746356173813261e-01 7.739558436081619419e-01 7.739558436081619419e-01 9.577893071389276258e-01 1.102428357627868172e+00 1.210015626290770641e+00 1.252679516377249724e+00 1.415581780306910176e+00 1.481132851038659881e+00 1.709171359264884060e+00 1.751451419306584212e+00 1.923970985365595521e+00 2.167208987721610747e+00 2.269864790200508242e+00 2.269864790200508242e+00 2.585283047727243932e+00 2.877226769117987804e+00 3.079559613381086969e+00 3.220270196191376222e+00 3.563765767640673321e+00 3.805702728242891908e+00 3.951670784403697567e+00 3.985922633433435003e+00 4.103900409755874890e+00 4.200794495085260927e+00 4.223593578647633962e+00 4.209554302956899363e+00 4.085285088556006805e+00 3.904636631352703890e+00 3.904636631352703890e+00 3.676318940616850384e+00 3.350333795150358895e+00 3.213280072304865342e+00 3.213280072304865342e+00 3.199912148123163824e+00 3.194316098966798023e+00 3.179295620915374432e+00 3.164587365565193267e+00 3.164972866920300110e+00 3.133808201770766466e+00 3.158499575131555659e+00 3.226621126031388620e+00 3.175850098864295923e+00 3.176843659144100940e+00 3.158218836368944071e+00 3.158218836368944071e+00 3.142889532481750514e+00 3.094383602570939029e+00 3.057866990487022818e+00 3.093212820961282805e+00 3.027898314134198188e+00 2.875437030050259857e+00 2.179529425995500258e+00 1.723188384646157978e+00 1.203001802470021753e+00 3.866827652956130179e-01 1.729120551532878913e-01 1.729120551532878913e-01 -3.718895361995928628e-01 -5.576948385865669877e-01 -6.436127030609601896e-01 -8.609111034665446471e-01 -1.253288961065725404e+00 -1.370680991739244625e+00 -1.641039494817156497e+00 -2.303914176025515292e+00 -2.605266195212775582e+00 -3.154101208250457145e+00 -3.322656816368366073e+00 -3.083059626864362190e+00 -3.085155808842831249e+00 -3.045113744682007351e+00 -3.045113744682007351e+00 -3.274480946322811725e+00 -3.419887981322178305e+00 -3.580235834507358383e+00 -3.703373270129147965e+00 -3.855718700990103276e+00 -3.998609953954537666e+00 -3.943410201141729576e+00
3.982961666767020237e+00 3.741538824359739834e+00 3.339518289597846135e+00 3.086418766174125139e+00 3.086418766174125139e+00 2.814874188766026020e+00 2.548336498386206905e+00 2.368482347850232372e+00 2.210539066538373731e+00 1.968066233409535570e+00 1.648954907698509054e+00 1.251771516916464044e+00 1.196719627005500719e+00 1.159893076245073429e+00 1.104564372071251022e+00 9.288865786370552602e-01 9.288865786370552602e-01 7.122610714549163502e-01 4.323353428504045359e-01 3.041024120769065808e-01 1.346154239647086026e-01 -2.849765009905094737e-01 -8.487149330062209174e-01 -1.814436062180237119e+00 -2.117541889787638798e+00 -2.257958175936678025e+00 -2.649588272905471165e+00 -2.387122922909290512e+00 -2.387122922909290512e+00 -2.053548865122209133e+00 -1.939406742681685225e+00 -2.101316409664495399e+00 -2.371109516100496251e+00 -2.268090052116559008e+00 -9.682321786063831093e-01 -4.456547349454142437e-01 4.008697835936203546e-02 6.737467934400749314e-01 8.217647942036564457e-01 8.891639720582005246e-01 1.033457017818008028e+00 1.147180360934675569e+00 1.314216559477229040e+00 1.360184788995979499e+00 1.425013852110425194e+00 1.600319597395921667e+00 1.855096813755002350e+00 1.855096813755002350e+00 2.072821827997236799e+00 2.195233247668106014e+00 2.333178124570511880e+00 2.439542210722911442e+00 2.763609837787843748e+00 2.997068017034626664e+00 3.366653352405115207e+00 3.474514038855748943e+00 3.677023140934652989e+00 3.864649312890002353e+00 4.029581231152585374e+00 4.029581231152585374e+00 4.181017740341749445e+00 4.209423019522578358e+00 4.139675737509236342e+00 4.053088021991314349e+00 3.868881931407134100e+00 3.721352892411907920e+00 3.524385453764637965e+00 3.380851457198784438e+00 3.308798879440063345e+00 3.236944416072681463e+00 3.257389478538077032e+00 3.257389478538077032e+00 3.236203287646610693e+00 3.173600821154208163e+00 3.173600821154208163e+00 3.106847970146722204e+00 3.262688555672213386e+00 3.226621126031388620e+00 3.184005090428879914e+00 3.151983979272797054e+00 3.176850312027431844e+00 3.148147027817183918e+00 3.170547895065209509e+00 3.147013791012653883e+00 3.103658956272941971e+00 3.107064714236018599e+00 3.107064714236018599e+00 2.814104000279634477e+00 2.155779506785925115e+00 1.723188384646157978e+00 1.078151718109128243e+00 4.320477088861564008e-01 4.378170977110754092e-01 -5.594804152329034830e-01 -3.622397058318770346e-01 -4.980057706607566859e-01 -8.141772263181212832e-01 -1.124339879663063035e+00 -1.124339879663063035e+00 -1.494443349584610115e+00 -2.034929972178026958e+00 -2.303914176025515292e+00 -2.844667692221480415e+00 -3.470060973308048524e+00 -3.322656816368366073e+00 -3.080720603565761273e+00 -3.065385770797539600e+00 -3.012113189001535574e+00 -3.048178853403287647e+00 -3.068571393997497232e+00 -3.239966927056932011e+00 -3.406481049101242053e+00 -3.790224511559760590e+00 -3.790224511559760590e+00 -3.950802053293630323e+00 -3.904294408899078306e+00
3.982961666767020237e+00 3.491661784003181168e+00 3.315153271765303167e+00 3.200762852619867704e+00 2.931525090765475294e+00 2.705894753292262589e+00 2.594849406873593889e+00 2.381344157988929400e+00 2.099245766786714817e+00 1.788325003412564618e+00 1.788325003412564618e+00 1.261732305198457693e+00 1.166673831302456943e+00 1.166673831302456943e+00 1.087917857365130470e+00 1.027984324233487623e+00 8.983950560944908847e-01 7.257011075383863474e-01 4.171666733803844895e-01 2.865519304486984220e-01 -4.480755641692085733e-02 -4.333997685706484360e-01 -1.002337512596547686e+00 -1.969927092221577469e+00 -2.352170450780797673e+00 -2.352170450780797673e+00 -2.844481305933855175e+00 -2.555253280766466517e+00 -2.061245273411520085e+00 -1.730902493654635999e+00 -1.786785102201773334e+00 -2.078064367611784036e+00 -2.654330154838213218e+00 -3.043995780742699164e+00 -2.609341405776363310e+00 -1.827305208972341388e+00 4.101232465696677543e-01 4.101232465696677543e-01 7.438526087185872715e-01 9.353974367274169310e-01 1.033457017818008028e+00 1.080258817787119963e+00 1.248607465405114691e+00 1.360184788995979499e+00 1.484241525892068259e+00 1.553305155639299606e+00 1.691921717822340909e+00 1.872828078830284682e+00 1.953848814477777029e+00 2.049561846806170262e+00 2.221136894103421966e+00 2.520831086466438276e+00 2.520831086466438276e+00 2.921471126996622036e+00 3.289952330849707174e+00 3.474514038855748943e+00 3.592760282029587859e+00 3.831332105359176232e+00 3.911154982046013195e+00 4.119250884836966442e+00 4.170610342251284131e+00 4.215688471808315185e+00 4.174450991380478371e+00 3.961410454401435910e+00 3.961410454401435910e+00 3.728996208170245019e+00 3.497484992080295285e+00 3.380851457198784438e+00 3.383819867037209050e+00 3.408843303150786319e+00 3.362064435653525418e+00 3.247257318264936909e+00 3.249108657700379155e+00 3.188683940383376658e+00 3.167332539344095643e+00 3.177968306030301004e+00 3.177968306030301004e+00 3.232843470268651043e+00 3.183839946264023446e+00 3.151983979272797054e+00 3.159368620280055051e+00 3.179600067004958674e+00 3.170547895065209509e+00 3.124163352891106804e+00 3.159414176471367242e+00 3.101426474492895657e+00 2.993885189926241974e+00 2.680111045587799445e+00 2.323268203418296984e+00 1.471805765042148995e+00 7.444642678940829317e-01 7.444642678940829317e-01 3.932215128396080450e-01 -1.623160647073439433e-01 -3.622397058318770346e-01 -5.113534034345972312e-01 -8.910674056019391998e-01 -9.957283026514035518e-01 -1.391296313985495692e+00 -1.726594310479596217e+00 -1.866085726102428399e+00 -2.527733465270656232e+00 -3.042360329607099789e+00 -3.042360329607099789e+00 -3.372323511664328421e+00 -3.135814948785279999e+00 -3.065385770797539600e+00 -2.871601092760740492e+00 -2.876520150418370836e+00 -3.068571393997497232e+00 -3.240379540471471032e+00 -3.222193385655951481e+00 -3.515112732960763875e+00 -3.846723464005781246e+00 -3.913253702389028810e+00 -3.913253702389028810e+00
3.845893713343542686e+00 3.469964687930161773e+00 3.162568854961470333e+00 3.162568854961470333e+00 2.955646417110491697e+00 2.712102991319200740e+00 2.594849406873593889e+00 2.484847446414884864e+00 2.151021122170456934e+00 2.015456390834861722e+00 1.511046977250849466e+00 1.352764051249888633e+00 1.209606647645127264e+00 1.150592260652609999e+00 1.043442469954246610e+00 1.043442469954246610e+00 9.175250289313868768e-01 5.592841365230332151e-01 4.171666733803844895e-01 2.717862324329901047e-01 -6.574657625602697841e-02 -4.333997685706484360e-01 -1.634860143818072764e+00 -2.028748189117187462e+00 -2.302455663217367832e+00 -2.646570345200591312e+00 -2.616233201892324001e+00 -2.729769132085841488e+00 -1.803677177464328985e+00 -1.843407530251112814e+00 -1.843407530251112814e+00 -2.130780426589982568e+00 -2.792381991458678936e+00 -3.043995780742699164e+00 -3.603201914286959351e+00 -3.774057452159425452e+00 -1.338275258868458328e+00 3.378697234984129882e-01 2.656087161311492251e-01 6.791482200379345135e-01 8.432122076624639639e-01 1.116290436147075127e+00 1.116290436147075127e+00 1.274468538108858962e+00 1.378214102915061190e+00 1.553305155639299606e+00 1.580070032740696240e+00 1.752142499682837640e+00 1.953848814477777029e+00 2.166602455801906135e+00 2.214677111524866682e+00 2.341425977747185527e+00 2.729666804352149256e+00 3.098979817211152010e+00 3.098979817211152010e+00 3.410364050915720036e+00 3.702051519031731353e+00 3.831332105359176232e+00 3.950396862898337691e+00 4.155245577986588223e+00 4.170610342251284131e+00 4.191337662578120238e+00 4.196583373954222651e+00 4.101284386940066362e+00 3.881466048654583112e+00 3.806108914491075357e+00 3.601593412620637480e+00 3.423589212133564708e+00 3.390583533230042690e+00 3.390583533230042690e+00 3.443805524776444305e+00 3.307658805307952754e+00 3.249108657700379155e+00 3.193223152299566880e+00 3.164878583640682308e+00 3.136505507840618545e+00 3.207111198959555765e+00 3.213698927405646000e+00 3.193099434227239186e+00 3.146875577602399332e+00 3.203892189491320153e+00 3.203892189491320153e+00 3.199342444877760538e+00 3.159718929802302956e+00 3.159414176471367242e+00 3.134460738314412964e+00 2.910017545411005990e+00 2.680111045587799445e+00 1.820498641195823275e+00 1.386249097022958177e+00 1.009483676859967760e+00 4.100260863751274409e-01 1.981603717068548820e-02 1.981603717068548820e-02 -4.359416147113347462e-01 -8.644585280066507949e-01 -8.644585280066507949e-01 -1.255360725023196622e+00 -1.590727806165313840e+00 -1.726594310479596217e+00 -2.029920421263628594e+00 -2.674492061929976128e+00 -2.915327028994490366e+00 -3.260275711925990638e+00 -3.334845631428932311e+00 -3.219029161579073151e+00 -2.973094981304380102e+00 -2.784704103544593412e+00 -2.784704103544593412e+00 -2.868906862314484219e+00 -3.060871099620763758e+00 -3.326852195792380229e+00 -3.326852195792380229e+00 -3.691395359449487046e+00 -3.859312800720295478e+00 -3.867322322930903944e+00
3.974519325556894245e+00 3.555568690976363300e+00 3.304426814537509305e+00 3.069801906010281467e+00 2.975623498760501917e+00 2.841435555064738772e+00 2.599259340928663065e+00 2.373675086242332810e+00 2.373675086242332810e+00 2.015506844219975058e+00 1.548607549318758547e+00 1.352764051249888633e+00 1.311481214354739633e+00 1.197162962247216633e+00 1.160740918779915365e+00 1.087821788892711972e+00 1.006593514092008368e+00 7.789055164933742503e-01 4.214057671741228139e-01 9.837755361497242668e-02 9.837755361497242668e-02 -3.940504398199747293e-01 -1.411996089677438837e+00 -2.028748189117187462e+00 -2.313593582853307851e+00 -2.464261882555188521e+00 -2.616233201892324001e+00 -2.376698328694029527e+00 -1.699659131041813875e+00 -1.673956607998531965e+00 -1.925880658951292679e+00 -2.490670933373159812e+00 -2.490670933373159812e+00 -3.248788922848718119e+00 -3.816107236511163237e+00 -3.816107236511163237e+00 -3.933482831076901665e+00 -2.382457538793610663e+00 2.656087161311492251e-01 1.602308661388130162e-01 4.361080112076775595e-01 9.652627849599150212e-01 1.145640920129567197e+00 1.156857724308010482e+00 1.259999049104913782e+00 1.438375952953625969e+00 1.609366354490784579e+00 1.609366354490784579e+00 1.786047574753070633e+00 2.056334472537812985e+00 2.214677111524866682e+00 2.354631810915219337e+00 2.692334509497547934e+00 2.890249296795811329e+00 3.246271686287086400e+00 3.410969989297462313e+00 3.524591626886016016e+00 3.854580528052524269e+00 4.091908133250287349e+00 4.091908133250287349e+00 4.195245469317248066e+00 4.211392408569625267e+00 4.196583373954222651e+00 4.180195182041652302e+00 3.954006651192020882e+00 3.806108914491075357e+00 3.484368034820961579e+00 3.440542943583529301e+00 3.379732735780736075e+00 3.450855380195265276e+00 3.360672548465927445e+00 3.360672548465927445e+00 3.235676258052479604e+00 3.185760774015732988e+00 3.185760774015732988e+00 3.184656693311572084e+00 3.222737875105337935e+00 3.213698927405646000e+00 3.170407429847331926e+00 3.134098549511870502e+00 3.204499226489974095e+00 3.225790539908107490e+00 3.258870822985500126e+00 3.237247940653901424e+00 3.184408666201832716e+00 3.139924045234212979e+00 3.020516828785394736e+00 2.596243401072563461e+00 1.760359772833350878e+00 7.985707030779494175e-01 7.985707030779494175e-01 2.350329763048923104e-01 -4.401062444387719985e-01 -2.885866503738271915e-01 -7.478307088827519378e-01 -1.321460139526877686e+00 -1.207876147616758766e+00 -1.571795426381158878e+00 -1.974654687341861115e+00 -1.916341579513848981e+00 -2.333246532047660526e+00 -2.848122617148888480e+00 -2.848122617148888480e+00 -3.125377115074005729e+00 -3.227564921802391851e+00 -3.113697887926251795e+00 -2.879220073457155582e+00 -2.640444477084175290e+00 -2.699116014606428582e+00 -2.675881336737913507e+00 -2.873755701941749230e+00 -3.082732127277651557e+00 -3.311081252891738824e+00 -3.477332286362080360e+00 -3.739202175257014815e+00 -3.907762453908037337e+00
3.747087095452615202e+00 3.555568690976363300e+00 3.389327599451184447e+00 2.989770822269373518e+00 2.975623498760501917e+00 2.741624033712493524e+00 2.638910383739801357e+00 2.466015113383856594e+00 2.231588090832917537e+00 1.802489062033314493e+00 1.802489062033314493e+00 1.478546005598993185e+00 1.270044273595661855e+00 1.270044273595661855e+00 1.184989572607197061e+00 1.103187858547010070e+00 1.006593514092008368e+00 8.353070091402088337e-01 4.706182518018841021e-01 2.775663479456736971e-01 -9.468680549571981131e-02 -5.016605661251781756e-01 -9.316070111657922537e-01 -1.882892643346276929e+00 -2.269602986084954033e+00 -2.269602986084954033e+00 -2.323155543825957903e+00 -2.081988925541628621e+00 -1.699659131041813875e+00 -1.636497856003824358e+00 -1.857433475834203707e+00 -2.114774777142231166e+00 -2.879235989908498716e+00 -3.267801046443836732e+00 -3.654707015303029216e+00 -4.024454472126784310e+00 -4.353301900956981108e+00 -4.353301900956981108e+00 -2.762983297447352271e+00 -1.084468023642156387e-01 4.361080112076775595e-01 7.656147650791444992e-01 1.042674374854019703e+00 1.156857724308010482e+00 1.253917624111087425e+00 1.332060999924930655e+00 1.481505242545312795e+00 1.638662676240873139e+00 1.670918985429806991e+00 1.855301948334136641e+00 2.126498057542635323e+00 2.494419722199284983e+00 2.593301761643853176e+00 2.824464704982118324e+00 3.212551415709567149e+00 3.486738208759499358e+00 3.486738208759499358e+00 3.852418561351268700e+00 4.154506876167164187e+00 4.191240271136210893e+00 4.219880596383212890e+00 4.231634455831843056e+00 4.175331493336948974e+00 4.023155916517985098e+00 3.868710625846487616e+00 3.789449700657916864e+00 3.554560160260739288e+00 3.404012884658810911e+00 3.404012884658810911e+00 3.381000344472920194e+00 3.282452813600289954e+00 3.304756369660736937e+00 3.212589840716029599e+00 3.160929505470856604e+00 3.173738073992790731e+00 3.228685619115318151e+00 3.241017921540148894e+00 3.231335508155040337e+00 3.150039650131244429e+00 3.221380532940020469e+00 3.221380532940020469e+00 3.289118909608392816e+00 3.249278665188198634e+00 3.249278665188198634e+00 3.217646576139141068e+00 3.181789692882288634e+00 3.020516828785394736e+00 2.744171192351734234e+00 1.472754543406008976e+00 9.816508338392464506e-01 1.929974598979952438e-01 3.254694626071945041e-01 1.219354714245050320e-01 -4.726708413950515553e-01 -1.127183209018367549e+00 -1.127183209018367549e+00 -1.454998634993305950e+00 -2.084916978714950186e+00 -1.974654687341861115e+00 -2.298965470502428943e+00 -2.451435786986511545e+00 -2.618822361272285182e+00 -2.964975827419962684e+00 -2.817353227858663267e+00 -3.124637504730189530e+00 -2.987958177173212881e+00 -2.662771874796381333e+00 -2.662771874796381333e+00 -2.548448818186273890e+00 -2.694393217502532689e+00 -2.873755701941749230e+00 -2.943270868899352521e+00 -3.126138572890011069e+00 -3.477332286362080360e+00 -3.804839278168357541e+00 -4.002728710886342967e+00
4.096138741707969544e+00 3.688456077965142299e+00 3.231999603317116776e+00 3.231999603317116776e+00 2.932567072448510892e+00 2.776000456056011867e+00 2.638910383739801357e+00 2.505666156194995331e+00 2.141778997399018003e+00 1.963030480161493285e+00 1.570324763784419764e+00 1.380263995866691573e+00 1.372882354029187457e+00 1.184683503275131722e+00 1.108281215055731739e+00 1.108281215055731739e+00 1.024371250367592134e+00 6.645881756868780021e-01 2.952339351376664367e-01 2.952339351376664367e-01 -9.997854648147574963e-02 -1.144400398441691280e+00 -1.144400398441691280e+00 -1.957709002328174908e+00 -2.186801169643406428e+00 -2.225612389316600659e+00 -2.030077885759591805e+00 -1.717463121167840168e+00 -1.630098099893795949e+00 -1.664849212017666336e+00 -1.901450202163826431e+00 -2.199207208032738059e+00 -2.898245835225825573e+00 -3.692043535980928493e+00 -3.692043535980928493e+00 -4.361404984902429227e+00 -4.652461748650287277e+00 -4.273792962769074499e+00 -4.352553021002375289e+00 -3.409623092246592435e+00 -3.236476298739418000e-01 6.793023178964938680e-01 8.502608497213270944e-02 1.039246910507162003e+00 1.129621145307113661e+00 1.353687259175906599e+00 1.353687259175906599e+00 1.523606505152570234e+00 1.741356899401445890e+00 1.855301948334136641e+00 2.072988318787275741e+00 2.467778751353188138e+00 2.593301761643853176e+00 2.963927396911994805e+00 3.095846025967798898e+00 3.302308135365251474e+00 3.650251606606361499e+00 4.015163918765834339e+00 4.015163918765834339e+00 4.238458814163882593e+00 4.244673917691311082e+00 4.244673917691311082e+00 4.126816412247467980e+00 3.990973838184987965e+00 3.868710625846487616e+00 3.773355800239539093e+00 3.573710056480872144e+00 3.504294570720203783e+00 3.395418598173370661e+00 3.327893999327821373e+00 3.291951213156082190e+00 3.261761784343584658e+00 3.136075283626710952e+00 3.136075283626710952e+00 3.164107358122541847e+00 3.224686610037464263e+00 3.241017921540148894e+00 3.258990773969794308e+00 3.211126473791975577e+00 3.179472557228952390e+00 3.257407796436465830e+00 3.268600586991479595e+00 3.300427002003652355e+00 3.284059076641505648e+00 3.229397943453510944e+00 3.229397943453510944e+00 3.190204672931454155e+00 2.164723187795713599e+00 1.472754543406008976e+00 6.235233967348824402e-01 2.841129264956298028e-01 3.254694626071945041e-01 -3.745941334822029400e-01 -5.060417484230769203e-01 -8.906733980674741424e-01 -1.280155787729740258e+00 -1.553299841628486888e+00 -1.825518770738292051e+00 -2.207144566916379169e+00 -2.331112244822020951e+00 -2.331112244822020951e+00 -2.461808833197383084e+00 -2.605852175291672790e+00 -2.817353227858663267e+00 -2.532662240431215572e+00 -2.338746425555683572e+00 -2.493563586097309326e+00 -2.504289868606557778e+00 -2.625156630799056146e+00 -2.606051602850077309e+00 -2.786047843613192576e+00 -3.084746922462771046e+00 -3.084746922462771046e+00 -3.448320371861719025e+00 -3.880119816647519038e+00 -4.002728710886342967e+00
4.141319028354105924e+00 3.822674238068492603e+00 3.318528085157851137e+00 3.055045341571299033e+00 3.065682779702707972e+00 2.810622232122495845e+00 2.676188934703767064e+00 2.273671593736572571e+00 2.154683938616003935e+00 1.973912507280822126e+00 1.587901635154666424e+00 1.233963639101586018e+00 1.233963639101586018e+00 1.133275683136890422e+00 1.123901020288670338e+00 1.025360910117358193e+00 1.033756547757499256e+00 6.531689149206837408e-01 4.954586086416868373e-01 9.572836864776998467e-02 -2.465111909987058036e-01 -8.640401544495495134e-01 -1.683207316701278211e+00 -2.128618383126613445e+00 -2.128618383126613445e+00 -2.132175632345254979e+00 -1.826280388380544295e+00 -1.717463121167840168e+00 -1.639917423839607036e+00 -1.657018707498041810e+00 -1.901450202163826431e+00 -2.599529418533180980e+00 -2.863973996414580725e+00 -3.286985829949733873e+00 -4.041948848035613828e+00 -4.429595569943943545e+00 -4.595201341119322436e+00 -4.503719417186849761e+00 -4.057131969121038573e+00 -4.057131969121038573e+00 -2.616589459608109625e+00 -1.246408875354002133e+00 8.502608497213270944e-02 2.255993755173335558e-02 1.087523234598184674e+00 1.267123383796132430e+00 1.423231813185227512e+00 1.492776367194548648e+00 1.575616614994731712e+00 1.891340195206775654e+00 2.286077982767055872e+00 2.286077982767055872e+00 2.652140051323156555e+00 2.909014250104277721e+00 3.095846025967798898e+00 3.295996674944006166e+00 3.701417879730366067e+00 3.850239390494232250e+00 4.152555149584578054e+00 4.183558354624061337e+00 4.219952511674411433e+00 4.187485665610941155e+00 4.088548955485696190e+00 4.088548955485696190e+00 3.895208135294864427e+00 3.676954228726483365e+00 3.573710056480872144e+00 3.508872432562944788e+00 3.369989183061272264e+00 3.327893999327821373e+00 3.246139250398132781e+00 3.176143499205776433e+00 3.151935876250295809e+00 3.132305197774012395e+00 3.154522409357927604e+00 3.175752315287770688e+00 3.231930152701603554e+00 3.202474501320108580e+00 3.202474501320108580e+00 3.246412796940069345e+00 3.256964979781841407e+00 3.268600586991479595e+00 3.279462099333071645e+00 3.269299257867857023e+00 3.275209803352493232e+00 3.206788081316803485e+00 3.125405078363540756e+00 2.679749641558935913e+00 1.342826393947469166e+00 1.967995643700979347e-01 1.967995643700979347e-01 2.970321449158973004e-01 -2.267447000509644484e-01 -5.060417484230769203e-01 -7.883921482451261564e-01 -1.368594738605355188e+00 -1.553299841628486888e+00 -1.932666108491371215e+00 -1.926776501363172134e+00 -2.136326410607731319e+00 -2.286078571346942923e+00 -2.394722139688730156e+00 -2.394722139688730156e+00 -2.388033051157901987e+00 -2.247971253003768322e+00 -2.338746425555683572e+00 -2.210994524241900905e+00 -2.503051498661069907e+00 -2.625156630799056146e+00 -2.671254571802347044e+00 -2.827905939146231340e+00 -2.999050912074683772e+00 -3.191300905356412532e+00 -3.567718104183478900e+00 -3.732813305473510201e+00 -4.112359526938954346e+00
4.109568839248215255e+00 3.637813718369713012e+00 3.637813718369713012e+00 3.219660583259150055e+00 2.992828752194843123e+00 2.810622232122495845e+00 2.650513083178214657e+00 2.346930634486286138e+00 2.154683938616003935e+00 2.041800619699583041e+00 1.638195386931959430e+00 1.413538090391514235e+00 1.191105889869644274e+00 1.185926283126746972e+00 1.153794386512600578e+00 1.125323207179624641e+00 8.809624837885442483e-01 8.809624837885442483e-01 4.839691643636579443e-01 2.013121828817820980e-02 -2.465111909987058036e-01 -1.119877236125625730e+00 -1.674204272175670916e+00 -1.895864117878294897e+00 -2.219197206927969290e+00 -2.104847659228959778e+00 -1.981416598847253185e+00 -1.714722750206641333e+00 -1.670149256608045141e+00 -1.670149256608045141e+00 -1.887305276832595080e+00 -2.531489684200839640e+00 -2.863973996414580725e+00 -3.223472574029043525e+00 -4.062702823488653081e+00 -4.429595569943943545e+00 -4.582215410809848954e+00 -4.472214738549695312e+00 -4.393718744926697006e+00 -3.815847269687899779e+00 -2.492292013733615086e+00 -2.492292013733615086e+00 -9.664946309520454637e-01 9.654113781623090418e-01 1.087523234598184674e+00 1.230741654678658925e+00 1.394207468012539808e+00 1.492776367194548648e+00 1.562320921203869784e+00 1.811511521032252769e+00 2.049640710647276709e+00 2.438565950064252696e+00 2.550425208227791174e+00 2.745253374152071046e+00 3.096171778813235242e+00 3.501959873273954749e+00 3.501959873273954749e+00 3.856652981118774193e+00 4.101618774970694048e+00 4.183558354624061337e+00 4.105751568432131293e+00 4.079797070231587774e+00 4.114159506052807558e+00 3.972996892737207908e+00 3.899046048623097338e+00 3.793172005476864506e+00 3.600528935884537596e+00 3.457024737469099218e+00 3.457024737469099218e+00 3.264634799465456538e+00 3.197097545811068642e+00 3.176143499205776433e+00 3.140171960600334433e+00 3.129006723462164352e+00 3.154522409357927604e+00 3.185041196676996922e+00 3.202050502038527480e+00 3.216684833649212205e+00 3.222591770969457148e+00 3.250600044249564835e+00 3.250600044249564835e+00 3.272146572505734152e+00 3.230924412978574800e+00 3.230924412978574800e+00 3.232991031875069421e+00 3.124608273923557888e+00 3.125405078363540756e+00 2.539133595805509458e+00 1.202602131150194209e+00 4.648279781045321912e-01 4.296493157314176248e-01 2.547831268127374038e-01 -1.909075359995943688e-01 -3.571710330161358971e-01 -1.133684893824683515e+00 -1.353690042711598984e+00 -1.539677813874522183e+00 -1.766899073112005558e+00 -1.846243188875571484e+00 -1.846243188875571484e+00 -1.999967484567356291e+00 -2.130125905959037613e+00 -2.275339464905300702e+00 -2.100991039400905258e+00 -1.999148007174013753e+00 -2.068945438745491305e+00 -2.356403826478742136e+00 -2.501813128715582923e+00 -2.648460800897910694e+00 -2.791520693497956174e+00 -3.017446432150433733e+00 -3.017446432150433733e+00 -3.256463237822813994e+00 -3.787070113068807142e+00 -3.958723659056102573e+00 -4.177904387599404856e+00
4.120309175844663940e+00 3.925645131437030422e+00 3.449152505583824357e+00 3.295394889280039763e+00 3.139233735755181609e+00 2.874834617037466344e+00 2.501152904819164302e+00 2.501152904819164302e+00 2.190882053871216595e+00 1.857405442430579479e+00 1.638195386931959430e+00 1.491808578827518827e+00 1.188612090580580594e+00 1.185926283126746972e+00 1.155621408708877862e+00 1.153026555814828269e+00 1.107141372171216886e+00 7.001432889099821200e-01 2.456943719444873997e-01 2.456943719444873997e-01 -4.271867831533298077e-01 -1.437560698274073401e+00 -1.437560698274073401e+00 -1.851211533423602784e+00 -2.138055404570890605e+00 -2.104847659228959778e+00 -1.962935746512175061e+00 -1.758708531769838102e+00 -1.718277723364692866e+00 -1.677617854680883536e+00 -1.873157728213503237e+00 -2.139741188455403176e+00 -2.827194149918947463e+00 -3.609044624401374968e+00 -3.609044624401374968e+00 -4.398583273108762626e+00 -4.550710732172694506e+00 -4.472214738549695312e+00 -4.314739893663663395e+00 -4.136431534477017280e+00 -3.136948392186338808e+00 -2.297929591278180972e+00 -2.018015346876223859e+00 -9.937804226348472270e-01 1.050059482603737715e+00 1.285744710726052675e+00 1.285744710726052675e+00 1.463752022021860721e+00 1.671249273016033765e+00 1.811511521032252769e+00 1.922923354770254445e+00 2.295535408297954660e+00 2.550425208227791174e+00 2.895681148349367184e+00 3.092679386586936197e+00 3.300236955439570075e+00 3.670403976650650879e+00 3.996654876285484104e+00 3.996654876285484104e+00 4.053899280440744768e+00 4.030613564231152246e+00 4.068040196046862178e+00 4.014092192169824713e+00 3.929378360942982429e+00 3.796775646962059270e+00 3.796775646962059270e+00 3.593320584465204526e+00 3.387741284978182055e+00 3.317514692788690489e+00 3.258565166985325945e+00 3.179569991717642097e+00 3.162929216801579457e+00 3.096596609470298134e+00 3.199020729101706983e+00 3.160752148829116148e+00 3.219073900267258370e+00 3.224089077400651870e+00 3.224089077400651870e+00 3.211826950978081019e+00 3.201012236984849935e+00 3.225789508628985836e+00 3.203401741581413553e+00 3.197993634399036278e+00 3.224371945371120596e+00 3.158372202544837748e+00 3.111775206143929218e+00 2.909346255638689094e+00 1.897310936850394869e+00 8.093074656784962073e-01 8.093074656784962073e-01 4.134785658183966484e-01 4.138210741006516369e-03 -1.909075359995943688e-01 -5.209663281573861937e-01 -1.123546975613203269e+00 -1.353690042711598984e+00 -1.487189999739743307e+00 -1.660965581211954811e+00 -1.659110181995137490e+00 -1.750106388226233545e+00 -1.733338413338741280e+00 -1.892252311089644312e+00 -1.951472956687905880e+00 -1.993275673560494843e+00 -1.993275673560494843e+00 -2.089587967121813161e+00 -2.440138789760277760e+00 -2.501813128715582923e+00 -2.647222430952423267e+00 -2.845174341008542385e+00 -2.879078559690237960e+00 -3.159721181096606379e+00 -3.317857173358111034e+00 -3.676941833721585784e+00 -4.033307481446235521e+00 -4.479917208886736724e+00
4.228881373299091528e+00 3.845671953029109247e+00 3.417654990761052947e+00 3.295394889280039763e+00 3.157737854222061546e+00 2.931352113031896245e+00 2.742706884950374402e+00 2.346827024952061969e+00 2.197738628662272209e+00 2.015938717765163091e+00 1.652078884936360792e+00 1.293341658696447682e+00 1.293341658696447682e+00 1.156222429413615638e+00 1.172314147954736985e+00 1.153026555814828269e+00 1.141273577783398663e+00 6.599185517049487304e-01 4.742523933904249089e-01 -3.527611863031571149e-02 -6.824813042289085141e-01 -1.190265077504362168e+00 -1.633315788869682761e+00 -1.998053419411316423e+00 -1.998053419411316423e+00 -2.033676588757707293e+00 -1.877514775241299061e+00 -1.758708531769838102e+00 -1.790490668310519284e+00 -1.699300533394261681e+00 -2.066761698488581711e+00 -2.470320759720036286e+00 -2.790792562799353949e+00 -3.540227471308570628e+00 -4.083456798941692334e+00 -4.403105283438994100e+00 -4.512537071219483664e+00 -4.435378402438285406e+00 -4.045753233609842070e+00 -3.461713847654976917e+00 -3.662546629516164387e+00 -2.922146268528939217e+00 -1.607284051353424781e+00 -1.607284051353424781e+00 1.012595730609290756e+00 1.267804361122938150e+00 1.365183122839851881e+00 1.438777196439887662e+00 1.610465446976790282e+00 1.750825946905145925e+00 2.039750239532279075e+00 2.170215152649549228e+00 2.402653313537720159e+00 2.853842250827876459e+00 3.204430364702168355e+00 3.204430364702168355e+00 3.524136041741049219e+00 3.879498360080645636e+00 4.002046992449358243e+00 3.997685640655373795e+00 4.057889468824500412e+00 4.068040196046862178e+00 3.943215838617203151e+00 3.890370579252873551e+00 3.862498064790667485e+00 3.637560387445575749e+00 3.419305575064798930e+00 3.419305575064798930e+00 3.316367574079181146e+00 3.179373228759396763e+00 3.179373228759396763e+00 3.169883891249941410e+00 3.131210652927142846e+00 3.199020729101706983e+00 3.269750955057031394e+00 3.256234765604468340e+00 3.247817068814274677e+00 3.207884531223787139e+00 3.166870390734454865e+00 3.175697742105865196e+00 3.175582400243384118e+00 3.169446619600410298e+00 3.169446619600410298e+00 3.193417036512571361e+00 3.145925557702082376e+00 3.111775206143929218e+00 2.786487180643013595e+00 1.794840191084986047e+00 1.248614583638150144e+00 4.096049305179094158e-01 4.479709319338409657e-01 3.119138282652549887e-01 -3.111716318521693947e-01 -7.379025162106737090e-01 -7.379025162106737090e-01 -1.279669882004098369e+00 -1.533238663297765925e+00 -1.660965581211954811e+00 -1.430898497244289524e+00 -1.477501382760579629e+00 -1.733338413338741280e+00 -1.887995141752714989e+00 -2.038444608143755943e+00 -1.932357842800120906e+00 -2.021658727046367510e+00 -2.283861769075163028e+00 -2.283861769075163028e+00 -2.611785374445168895e+00 -2.788284737389455703e+00 -2.788284737389455703e+00 -2.941641355249271061e+00 -3.249659770918798429e+00 -3.317857173358111034e+00 -3.769560867920769720e+00 -4.090691484651403087e+00 -4.243449248259855366e+00
4.017171399242982943e+00 3.551287249975806581e+00 3.419193911928529062e+00 3.274993853580619785e+00 3.028333169448663043e+00 2.749800640584506350e+00 2.749800640584506350e+00 2.377998273125996320e+00 1.998329963457966540e+00 1.998329963457966540e+00 1.612895976084443683e+00 1.255909067622654085e+00 1.189675852449493032e+00 1.151437483846659671e+00 1.120176283507588355e+00 1.185638588508206803e+00 8.084804315126531415e-01 6.480631420060712911e-01 4.365332474892358317e-01 -8.264389624626616859e-02 -1.131105953936645481e+00 -1.131105953936645481e+00 -1.630922055819691074e+00 -1.927184940905635413e+00 -2.051660325391488016e+00 -1.992176769815511284e+00 -1.890256327322668906e+00 -1.832836241187508541e+00 -1.738940357688960159e+00 -1.803483547172975765e+00 -1.859010179594412060e+00 -2.438328117818657326e+00 -3.123768671261885732e+00 -3.123768671261885732e+00 -4.036047945754173583e+00 -4.485976835003484098e+00 -4.512537071219483664e+00 -4.392976157562212158e+00 -3.684051456598532948e+00 -3.461713847654976917e+00 -3.153886271267478669e+00 -2.470889463838463307e+00 -2.813112911900518043e+00 2.642223040457316596e-01 1.138708106931378028e+00 1.138708106931378028e+00 1.318431224775896693e+00 1.473939391721975412e+00 1.473939391721975412e+00 1.743538216407552355e+00 2.010087487072002688e+00 2.170215152649549228e+00 2.332513113453537734e+00 2.770475910632087313e+00 2.965035458332789808e+00 3.330443598479504441e+00 3.468522893583720901e+00 3.642013547038827515e+00 3.887827458972473949e+00 4.040452357339274769e+00 4.040452357339274769e+00 4.079595120817486098e+00 3.979684092002369944e+00 3.890370579252873551e+00 3.836275230648268586e+00 3.679031303973875566e+00 3.476000117774284526e+00 3.280957299302641683e+00 3.237759140289583115e+00 3.191266132987352400e+00 3.179763677722143189e+00 3.168233724903304349e+00 3.168233724903304349e+00 3.316441723751280435e+00 3.257196014178716403e+00 3.256234765604468340e+00 3.231454339637159112e+00 3.173170194825179369e+00 3.166870390734454865e+00 3.177528328690916837e+00 3.174710623356757466e+00 3.146359040491849335e+00 3.162805847818230376e+00 3.137004097465360353e+00 3.101913743301201176e+00 3.078115820427703930e+00 2.259713027120324291e+00 2.259713027120324291e+00 1.315254109474697453e+00 5.834484660145986545e-01 4.479709319338409657e-01 2.747026968752157572e-01 4.375555651796163986e-02 -3.646394221954842307e-01 -9.719015522956924169e-01 -1.131721642348422652e+00 -1.280737895837408935e+00 -1.451219296822636728e+00 -1.282511593787099446e+00 -1.282511593787099446e+00 -1.562698516082545508e+00 -1.917998246182682776e+00 -2.038444608143755943e+00 -2.057322250521364193e+00 -2.186023170682393602e+00 -2.200896143062562871e+00 -2.347824315484945856e+00 -2.470578274100495353e+00 -2.660747926235744298e+00 -2.920782744807260745e+00 -3.232517993476564211e+00 -3.232517993476564211e+00 -3.469239178428221493e+00 -3.995783142885993566e+00 -4.090691484651403087e+00 -4.365630487844817331e+00
4.017933096879622745e+00 3.593546179984910882e+00 3.419193911928529062e+00 3.296710061280801796e+00 3.007893163750636312e+00 2.873548104288407234e+00 2.553630841421732356e+00 2.401542077979740064e+00 2.241261084060601316e+00 1.880459517836853944e+00 1.365672729700506016e+00 1.365672729700506016e+00 1.193876965553581027e+00 1.150129049138297832e+00 1.120176283507588355e+00 1.083555724756219751e+00 8.742891910771921626e-01 6.480631420060712911e-01 1.781536751820860798e-01 -1.458127335155569304e-01 -7.526637069254999979e-01 -1.474797893106737812e+00 -1.637822185325958912e+00 -1.800477125121062283e+00 -1.966778914703023462e+00 -1.920861530265507211e+00 -1.920861530265507211e+00 -1.881196980529250773e+00 -1.809059841158042747e+00 -1.803483547172975765e+00 -1.968563463039876060e+00 -2.474899083964432034e+00 -2.784339737121818814e+00 -3.492270894857209207e+00 -3.998575696288561687e+00 -4.375709657694041965e+00 -4.535255818641319436e+00 -4.259376918385873623e+00 -4.259376918385873623e+00 -3.735685862011323799e+00 -2.818025121670827637e+00 -2.470889463838463307e+00 -1.143170730169769334e+00 5.429153153316781388e-01 8.231796493206680054e-01 1.251490199461604780e+00 1.312484814880416018e+00 1.410999191265063901e+00 1.594155239398576729e+00 1.860011251093665718e+00 1.860011251093665718e+00 2.166234333442174087e+00 2.508696298135406622e+00 2.770475910632087313e+00 2.980045367993649830e+00 3.289057813589582935e+00 3.468522893583720901e+00 3.606395572115083326e+00 3.864805092177713952e+00 3.977596706141179439e+00 4.081756756092902449e+00 4.076626157239060078e+00 4.060388010549895732e+00 3.932932333327360919e+00 3.870362894241563545e+00 3.870362894241563545e+00 3.581986381748226922e+00 3.277001257476844120e+00 3.237759140289583115e+00 3.193258676512994221e+00 3.212663278188728988e+00 3.195097724979020448e+00 3.246995740729150093e+00 3.268245414059059328e+00 3.280140356530783841e+00 3.229151964033860622e+00 3.201857705501835127e+00 3.201857705501835127e+00 3.202537751187370496e+00 3.189171723984151274e+00 3.174710623356757466e+00 3.183866396736870996e+00 3.200263471360541789e+00 3.137004097465360353e+00 3.128253036833378520e+00 2.813222766587346158e+00 2.544829874049434171e+00 1.687273818879396092e+00 9.987888951542187588e-01 9.987888951542187588e-01 4.004541393156748619e-01 2.556819736493771283e-02 4.375555651796163986e-02 -1.388445030480866260e-01 -8.301147885947810501e-01 -1.131721642348422652e+00 -1.180216275701132744e+00 -1.565307140027555111e+00 -1.659274533210180369e+00 -1.391081559412662427e+00 -1.458537972244348335e+00 -1.767710281966041741e+00 -2.376674634275227849e+00 -2.117414629444405616e+00 -2.183381194431146977e+00 -2.200772976943114578e+00 -2.406946656901522541e+00 -2.648129382222832007e+00 -2.648129382222832007e+00 -3.012146901374573638e+00 -3.413666339141558037e+00 -3.395823078836738063e+00 -3.657826952168985901e+00 -4.140033528611923863e+00 -4.227724525797603050e+00 -4.705694978580492460e+00
4.047974469714397117e+00 3.799480868396729605e+00 3.431512043052576288e+00 3.118329692221751159e+00 3.118329692221751159e+00 2.820365350441396579e+00 2.604107786891812992e+00 2.401542077979740064e+00 2.292435023142994410e+00 1.922344983787793948e+00 1.629719963051978082e+00 1.260303497497011538e+00 1.209307556270931450e+00 1.161135576733783425e+00 1.134848615769043612e+00 1.046935166004850926e+00 1.046935166004850926e+00 6.419492161052018364e-01 1.302869985412843656e-01 -1.458127335155569304e-01 -5.938297173973370313e-01 -1.453536814363896923e+00 -1.637822185325958912e+00 -1.932039937046057698e+00 -1.976471926152802538e+00 -1.973447237920055608e+00 -1.877527944743067723e+00 -1.901131280414080749e+00 -1.901131280414080749e+00 -1.913241073745222565e+00 -2.156003873939819293e+00 -2.474899083964432034e+00 -2.772706797899617381e+00 -3.519514839977659459e+00 -3.998575696288561687e+00 -4.329485864716858146e+00 -4.580309245737122836e+00 -4.570970929144621664e+00 -4.077965681410084642e+00 -4.129600086822876825e+00 -3.787320267424115539e+00 -2.000952571705971295e+00 2.701061583608281857e-01 2.701061583608281857e-01 8.174280194263234822e-01 1.231736145285696526e+00 1.312484814880416018e+00 1.389606867081635500e+00 1.592966842140034922e+00 1.714371087075178046e+00 2.002157038005382805e+00 2.157886590885667477e+00 2.327589139383490213e+00 2.741374621856203397e+00 3.105085481738597331e+00 3.105085481738597331e+00 3.445329866127379681e+00 3.740780075515541814e+00 3.864805092177713952e+00 3.936584813112877779e+00 4.037273446973268065e+00 4.076626157239060078e+00 4.034057062332821353e+00 3.959731447389131631e+00 3.901592583145339521e+00 3.712823923670677928e+00 3.402821878678826018e+00 3.402821878678826018e+00 3.187715520230754773e+00 3.206929220819828785e+00 3.279845411953386858e+00 3.261166459711091647e+00 3.273681817313268461e+00 3.268221052295464890e+00 3.268221052295464890e+00 3.255556191853391734e+00 3.244013942269439177e+00 3.209396237618705072e+00 3.238561054265108652e+00 3.205473357873706242e+00 3.202861590787150270e+00 3.182461692573860912e+00 3.156659497400775116e+00 3.138589867184149007e+00 3.032020238452868277e+00 2.401432230028737180e+00 2.401432230028737180e+00 1.649762428211106524e+00 8.638077861781046085e-01 6.009254474923138023e-01 5.104271281924270820e-01 1.974952716838455913e-02 -1.572231885107731597e-01 -1.825005051605552708e-01 -4.562406945698571636e-01 -8.616434973846465173e-01 -1.228710909053843059e+00 -1.691025757250569583e+00 -1.691025757250569583e+00 -1.286660886120473801e+00 -1.612348913622081881e+00 -1.767710281966041741e+00 -1.899996878390544319e+00 -2.145709576534128971e+00 -2.183381194431146977e+00 -2.312879211935216617e+00 -2.519860171338806687e+00 -2.583631041500069614e+00 -2.895933251909083239e+00 -3.091593762103328924e+00 -3.283666557515668494e+00 -3.584410852577502471e+00 -3.976915303694303017e+00 -3.976915303694303017e+00 -4.383477961932181088e+00 -4.819435248239957836e+00
4.047974469714397117e+00 3.649667043932965704e+00 3.594463701867703254e+00 3.271107164840717729e+00 2.964887206525053109e+00 2.771126493875192498e+00 2.771126493875192498e+00 2.501542586855522998e+00 2.143824848740679911e+00 2.143824848740679911e+00 1.672974041518128230e+00 1.289343692153172238e+00 1.209307556270931450e+00 1.169869081931328658e+00 1.150593765449628325e+00 1.098228057017675008e+00 8.708770184175680384e-01 5.877358724879140350e-01 3.843274081126342168e-01 -1.725787101972096060e-01 -1.005189325816946866e+00 -1.005189325816946866e+00 -1.669118199107653355e+00 -1.933387730333425258e+00 -1.976471926152802538e+00 -1.952234063156986554e+00 -1.864799562163466540e+00 -1.889208207013818086e+00 -1.880235988690780680e+00 -1.972006683977601593e+00 -2.027475101247274480e+00 -2.437348139325757224e+00 -3.162746300596031901e+00 -3.162746300596031901e+00 -3.961103446822949348e+00 -4.472283036193626771e+00 -4.580309245737122836e+00 -4.723942401958186821e+00 -4.471879906221637668e+00 -3.598077593433419707e+00 -2.881074772655645155e+00 -2.349425754162427715e+00 3.868152777435074352e-01 6.236275800290544957e-01 9.214902112999746597e-01 1.209407839369691651e+00 1.308640984885999892e+00 1.487625326700048323e+00 1.598120549126421430e+00 1.745643642399968165e+00 1.984390640413154161e+00 2.311980577257215508e+00 2.311980577257215508e+00 2.644062596326277159e+00 3.074316756794580385e+00 3.284264160139676036e+00 3.401529122265242400e+00 3.725526681927759931e+00 3.832865612856330984e+00 3.994094251702232423e+00 4.064529301650200210e+00 4.067055307264302755e+00 4.047684706720564130e+00 3.872704317454045864e+00 3.872704317454045864e+00 3.711252094728386020e+00 3.397103236781938485e+00 3.287763342527891819e+00 3.215039303552189143e+00 3.267783850888261732e+00 3.279845411953386858e+00 3.268014109059369510e+00 3.219804836460187225e+00 3.218109619122944132e+00 3.227664167038681420e+00 3.273427803098292177e+00 3.273427803098292177e+00 3.247842657973427638e+00 3.217375205198876209e+00 3.205473357873706242e+00 3.195180766462060618e+00 3.118886124216575073e+00 3.156659497400775116e+00 3.122698674147728504e+00 2.933047366036034109e+00 2.668515016793628458e+00 1.945384925277951593e+00 1.724177435637165967e+00 1.283089179140223024e+00 4.922570201076257312e-01 2.430812963042493779e-01 2.430812963042493779e-01 -2.100575812328529246e-01 -3.791438551183935468e-01 -4.562406945698571636e-01 -8.728358473340048773e-01 -9.224602206157347384e-01 -1.240984859952195318e+00 -1.300724280188142012e+00 -1.255392341231991837e+00 -1.427796336220834128e+00 -1.818572422446218084e+00 -1.985945035844301376e+00 -1.985945035844301376e+00 -2.315371873515459811e+00 -2.549957466217190216e+00 -2.519860171338806687e+00 -2.687152944605240901e+00 -2.965691835699750367e+00 -3.091593762103328924e+00 -3.577188582990413757e+00 -3.764564930706678414e+00 -3.846414725909749865e+00 -4.243125176986202618e+00 -4.667469454244148608e+00 -4.667469454244148608e+00
4.078015842549170600e+00 3.695299849970938855e+00 3.594463701867703254e+00 3.332331127998140463e+00 3.004910334832700869e+00 2.900298400535090693e+00 2.755373217305518097e+00 2.546246708792547775e+00 2.165788354278902261e+00 1.971724627486614256e+00 1.414595976029866087e+00 1.312217777808010855e+00 1.190190333609636886e+00 1.179114289667805293e+00 1.170869904218024615e+00 1.170869904218024615e+00 7.771002212242080764e-01 3.277317363125175076e-01 1.256510153060233781e-01 -3.164373133021625706e-01 -1.176786339933076686e+00 -1.416548934236556700e+00 -1.626150018640653006e+00 -1.966456265105116730e+00 -1.986713979320445356e+00 -1.894100949461680283e+00 -1.836348870035740433e+00 -1.884397591815654138e+00 -1.944268437231117197e+00 -1.964842077994479963e+00 -1.964842077994479963e+00 -2.307361893285461818e+00 -3.105272222204662924e+00 -3.557828128337536366e+00 -3.929379698798730836e+00 -4.451804948417962926e+00 -4.613797404152252923e+00 -4.737472885681958346e+00 -4.579387633947193947e+00 -4.132671357126241674e+00 -3.133734576608936617e+00 -1.304718447861498820e+00 -1.304718447861498820e+00 8.153871476727343470e-01 1.092011292383126664e+00 1.209407839369691651e+00 1.290898504491367227e+00 1.451106502643426666e+00 1.598120549126421430e+00 1.847095873489378981e+00 1.986783212347249084e+00 2.195091810035660451e+00 2.463433698058365096e+00 2.836102840279364656e+00 2.836102840279364656e+00 3.286764307977810162e+00 3.632654680943612213e+00 3.632654680943612213e+00 3.844307409008891341e+00 3.975939510871093319e+00 4.064529301650200210e+00 4.049991647243539106e+00 4.023151519950209476e+00 3.964890926559014872e+00 3.775921022635217561e+00 3.670499816338274712e+00 3.577180733652727262e+00 3.227935700419289233e+00 3.237698756818596202e+00 3.237698756818596202e+00 3.263654796599115837e+00 3.214057751734663348e+00 3.219804836460187225e+00 3.207576617074195724e+00 3.284634584072564145e+00 3.318682377536263051e+00 3.313784951985180971e+00 3.290393984613656730e+00 3.248165720773262599e+00 3.204386944569860063e+00 3.161695476333067134e+00 3.161695476333067134e+00 3.142339272694086638e+00 3.057326035492633487e+00 2.933047366036034109e+00 2.486780880376140423e+00 1.942253822824282494e+00 1.724177435637165967e+00 8.560423149093994155e-01 5.649539190039821746e-01 4.810964160856564531e-01 -7.559713192325841040e-03 -1.995045480346294420e-01 -3.547815265537349605e-01 -6.458152292683143614e-01 -9.985709656810420887e-01 -9.985709656810420887e-01 -9.213143493649067484e-01 -1.521680855881070604e+00 -1.255392341231991837e+00 -1.415811347857762748e+00 -1.747225605894415779e+00 -1.943664494533409393e+00 -2.316432147281324294e+00 -2.445905927204610197e+00 -2.549997700669996092e+00 -2.710567993507978279e+00 -2.914000897053681705e+00 -2.914000897053681705e+00 -3.155261743089704307e+00 -3.470020896148986456e+00 -3.764564930706678414e+00 -3.882828268205491540e+00 -4.349720434066398411e+00 -4.501697576128073308e+00 -4.910059725290647492e+00
4.255211760992263947e+00 3.813760237823978994e+00 3.531852561534912560e+00 3.200239561657339138e+00 3.055736978437821882e+00 2.917868359770849018e+00 2.640472183981689369e+00 2.357626365708771488e+00 2.357626365708771488e+00 1.975354105686313089e+00 1.553124984442532330e+00 1.312217777808010855e+00 1.193862863141501141e+00 1.171027007068881076e+00 1.178531091398433039e+00 1.018080885741054153e+00 7.975935901221147262e-01 5.356419678233462767e-01 -8.678412807788856570e-04 -9.399233011049736852e-01 -9.399233011049736852e-01 -1.424923721181659442e+00 -1.845332111427063548e+00 -1.966456265105116730e+00 -1.963414778648204573e+00 -1.859677209257331487e+00 -1.836348870035740433e+00 -1.939949772630082281e+00 -1.888997045360719218e+00 -1.920831650031686655e+00 -2.115012897899846589e+00 -2.257098556705973813e+00 -2.594232428968518356e+00 -3.498775134977747392e+00 -4.302132884608279362e+00 -4.302132884608279362e+00 -4.673460541191314377e+00 -4.696277177226082955e+00 -4.579387633947193947e+00 -4.353418689983936218e+00 -3.825021668741175329e+00 -2.665534769761613632e+00 1.489657387763719254e-01 7.332047714596007237e-01 9.752805135737618869e-01 1.185658227970787459e+00 1.376851377072977334e+00 1.376851377072977334e+00 1.571898628319838398e+00 1.802224833245567925e+00 1.986783212347249084e+00 2.134272577562711604e+00 2.427168602267479436e+00 2.603515862665050751e+00 3.008728991572586331e+00 3.223558329429744074e+00 3.505052389660750833e+00 3.711961209222431890e+00 3.896126779383948691e+00 3.896126779383948691e+00 3.989411115975649125e+00 4.064472623436840237e+00 4.023151519950209476e+00 3.880290564441656542e+00 3.724083222529952497e+00 3.670499816338274712e+00 3.411622108524640762e+00 3.347513149282595801e+00 3.231779994371226650e+00 3.227475888691728301e+00 3.196764136624441921e+00 3.197743977108619795e+00 3.201672407292637690e+00 3.259722202876628838e+00 3.259722202876628838e+00 3.297154162542608624e+00 3.295201609052104796e+00 3.290393984613656730e+00 3.246282403139193473e+00 3.217141381179458470e+00 3.177395610839046203e+00 3.159659848765103085e+00 3.160721581031456839e+00 3.102758845253121400e+00 2.738732100152313720e+00 2.106827101810364145e+00 2.106827101810364145e+00 1.599506879859027064e+00 6.581926632630693552e-01 5.649539190039821746e-01 4.519852806237414367e-01 -6.281367016516145596e-03 -1.995045480346294420e-01 -3.419496712661932447e-01 -5.769301918077867075e-01 -7.866872879268899110e-01 -8.914570607673175662e-01 -9.728252423815058059e-01 -9.728252423815058059e-01 -1.256582583755080140e+00 -1.564215746628381698e+00 -1.747225605894415779e+00 -1.933390642024889861e+00 -2.297466200450128504e+00 -2.445905927204610197e+00 -2.618036011812652220e+00 -2.930632477904494770e+00 -2.929711108205415027e+00 -3.091934765731499279e+00 -3.276490326630690397e+00 -3.404547797845919987e+00 -3.720197213382646417e+00 -4.174532345490358232e+00 -4.456949722622756127e+00 -4.569472673786330041e+00 -4.920099054242392356e+00
4.099596319534244415e+00 3.813760237823978994e+00 3.586515157693254352e+00 3.249079173011993671e+00 3.055736978437821882e+00 2.740879482754593699e+00 2.595798011410686001e+00 2.504351504574865217e+00 2.157420496909214780e+00 2.000362477370099423e+00 1.794032191077053806e+00 1.363346063777961970e+00 1.171953840168436844e+00 1.171953840168436844e+00 1.149134316031535485e+00 9.455698304700235202e-01 7.975935901221147262e-01 5.236089328762261186e-01 -2.458170931905736406e-02 -4.454488654113056834e-01 -1.219869398451420839e+00 -1.437061411990335991e+00 -1.639780882467128276e+00 -1.929670543793121862e+00 -1.863415571798622272e+00 -1.863415571798622272e+00 -1.800646820961103067e+00 -1.868540677019673524e+00 -1.888997045360719218e+00 -1.879181585979886160e+00 -2.077658508767505907e+00 -2.257098556705973813e+00 -3.006948520979640271e+00 -3.398577978323519044e+00 -3.858512437028607689e+00 -4.532648197199176110e+00 -4.732374846538846214e+00 -4.732374846538846214e+00 -4.540491857001949683e+00 -4.120680717884894761e+00 -3.825021668741175329e+00 -2.682137683538746042e+00 -8.347934510862803359e-02 7.332047714596007237e-01 9.228836292384219320e-01 1.161683761232862766e+00 1.274869847496654884e+00 1.452493902589972574e+00 1.573286028266384307e+00 1.692690753996249686e+00 1.928165583953170392e+00 2.250821341869908121e+00 2.250821341869908121e+00 2.555914978227650458e+00 2.946964001111790576e+00 3.223558329429744074e+00 3.381086628653760862e+00 3.659828917555602246e+00 3.769806024503131958e+00 3.932498672350906777e+00 3.947864435981812470e+00 4.013736586949215202e+00 3.975243577767247682e+00 3.801273299278073559e+00 3.801273299278073559e+00 3.687010550084735439e+00 3.464452532106624183e+00 3.347513149282595801e+00 3.280332996679518498e+00 3.207231750141211091e+00 3.196764136624441921e+00 3.198357181468795662e+00 3.217563899993399090e+00 3.234794878091148185e+00 3.266511323517249821e+00 3.293963857938063011e+00 3.293963857938063011e+00 3.238685667113650357e+00 3.220865860137002379e+00 3.220865860137002379e+00 3.204659418044397245e+00 3.161607829136688252e+00 3.094659759209290595e+00 3.094659759209290595e+00 2.499672930974072838e+00 1.809527278312970333e+00 1.775869951303078231e+00 1.431374497907795362e+00 6.527912834795310815e-01 5.408186664644378805e-01 2.393718432201372981e-01 1.308521883570279432e-01 -2.171483757864039743e-01 -5.152262290704715531e-01 -6.077232800659497780e-01 -6.077232800659497780e-01 -8.306404865915875124e-01 -9.161052242815137525e-01 -1.060672075503306999e+00 -1.351295813501232956e+00 -1.642665822906623330e+00 -1.745160568109995314e+00 -2.089302313347744189e+00 -2.219416944279017923e+00 -2.472349722353873069e+00 -2.836514026242676678e+00 -3.088963741754611192e+00 -3.088963741754611192e+00 -3.291040146055647320e+00 -3.461963566112254753e+00 -3.594655963380326558e+00 -3.750316316980101483e+00 -4.279614203801560990e+00 -4.456949722622756127e+00 -4.735089660365797926e+00 -4.945433794992762699e+00
4.265546090955717240e+00 3.809125011790952087e+00 3.357267182249019655e+00 3.357267182249019655e+00 3.098056186055425876e+00 2.828948930531180572e+00 2.595798011410686001e+00 2.462456300357183103e+00 2.111319819985441271e+00 2.000362477370099423e+00 1.599004109402721641e+00 1.392364274922737177e+00 1.190660489015426649e+00 1.166727458563341369e+00 1.035123284725612214e+00 1.035123284725612214e+00 7.819740089799180893e-01 2.457329461058205544e-01 2.457329461058205544e-01 -5.453255245904257142e-01 -1.260114364793754271e+00 -1.437061411990335991e+00 -1.636307986436676742e+00 -1.833048192026484280e+00 -1.944166688022268330e+00 -1.781586794667397555e+00 -1.765427273555939758e+00 -1.792829323219934157e+00 -1.831314754592331395e+00 -1.912227608661116518e+00 -1.912227608661116518e+00 -2.230953370775762501e+00 -2.896252020954941830e+00 -3.398577978323519044e+00 -3.788078200374628945e+00 -4.619247739388099738e+00 -4.733920665267565830e+00 -4.667987850017988549e+00 -4.506067683550432079e+00 -4.331468949920024514e+00 -3.774419062510286693e+00 -1.499031056266187267e+00 -1.499031056266187267e+00 6.900377541875052367e-01 1.051374082192365833e+00 1.161683761232862766e+00 1.263100602888789670e+00 1.453881302536518705e+00 1.573286028266384307e+00 1.769294246248288349e+00 1.876672864814761033e+00 2.143722682017082271e+00 2.374004217266056926e+00 2.731652666222252446e+00 2.885101856176972124e+00 3.068229652613682301e+00 3.409449795033815622e+00 3.642974505203232294e+00 3.692646286261482391e+00 3.890247011523943144e+00 3.985504421996613811e+00 3.985504421996613811e+00 3.942439582762890637e+00 3.787192057252496191e+00 3.737779650372279772e+00 3.659069447031972899e+00 3.517715955450270826e+00 3.356727622799775101e+00 3.224296881047403307e+00 3.208567906813015291e+00 3.191034790528434417e+00 3.237083483602664735e+00 3.243915251944151645e+00 3.243915251944151645e+00 3.280604751167880195e+00 3.242479811003286638e+00 3.242873327467786115e+00 3.183226323217461129e+00 3.194921895059855910e+00 3.198986688500542463e+00 3.192051395594230456e+00 3.156316981520039366e+00 3.175899379223562580e+00 2.762256177390081113e+00 2.006727599696466413e+00 2.006727599696466413e+00 1.600324913391457216e+00 9.471542880432590739e-01 6.527912834795310815e-01 4.587088741759522970e-01 1.100710900018913863e-01 1.308521883570279432e-01 -2.899390238566887934e-01 -6.080343832919576919e-01 -7.182808228784476334e-01 -6.296939855282348564e-01 -7.529459316894595577e-01 -9.219558851998532756e-01 -1.199628289192048003e+00 -1.531813216825065105e+00 -1.531813216825065105e+00 -1.938983303749692189e+00 -2.126132956632797111e+00 -2.219416944279017923e+00 -2.404497787721727509e+00 -3.042726072816949401e+00 -3.031100709212168898e+00 -3.349389761321838410e+00 -3.544184909257906746e+00 -3.576894541652576365e+00 -3.662162795882954125e+00 -3.982737707056696053e+00 -3.982737707056696053e+00 -4.526044860261837499e+00 -4.818220792936698693e+00 -4.945433794992762699e+00
4.335486048952104099e+00 3.762022564844860639e+00 3.509031257543049342e+00 3.131901534261558151e+00 3.111242123651594582e+00 2.904887848497765379e+00 2.677205690267169924e+00 2.307343274414459522e+00 2.307343274414459522e+00 2.012033301807195862e+00 1.574264547388718016e+00 1.392364274922737177e+00 1.229902542856915693e+00 1.170016083237373383e+00 1.119737540664637931e+00 9.606211788688153730e-01 7.786554401002458992e-01 4.953798325641930456e-01 -6.514445650014948075e-02 -1.118897682994630882e+00 -1.321765686250770067e+00 -1.461436914957130018e+00 -1.697793415166419351e+00 -1.918730568709516415e+00 -1.918730568709516415e+00 -1.702209600412887491e+00 -1.761622452443174058e+00 -1.792781895028435990e+00 -1.786761827789415280e+00 -1.896592649543454412e+00 -2.057089905818847431e+00 -2.185486493296947774e+00 -2.743725370019245435e+00 -3.261977571987230817e+00 -4.237553884603389776e+00 -4.431460421060950949e+00 -4.737666164659926515e+00 -4.631719606979293857e+00 -4.385311695050869929e+00 -4.385311695050869929e+00 -3.938151673465744906e+00 -2.022918476034496926e+00 -6.680499441551832618e-01 4.983543611487604719e-01 8.704011277137685409e-01 1.137445851552517428e+00 1.343712483388989964e+00 1.430625927525291052e+00 1.508687426900141793e+00 1.702797294211255696e+00 1.985951266815055405e+00 1.985951266815055405e+00 2.320894246093554436e+00 2.657380928324374114e+00 2.885101856176972124e+00 2.998413876772107578e+00 3.411807230553659753e+00 3.642974505203232294e+00 3.863360506695776131e+00 3.932452306784273155e+00 3.933750729881269947e+00 3.931574703743093036e+00 3.851388953232293577e+00 3.851388953232293577e+00 3.717920061152941713e+00 3.579147427208954291e+00 3.579147427208954291e+00 3.427799541207208645e+00 3.287705608106524124e+00 3.208567906813015291e+00 3.206300719533182519e+00 3.165860050780039181e+00 3.215738826800393024e+00 3.242844890772753619e+00 3.258969349676513971e+00 3.257317615219954554e+00 3.186337051147844601e+00 3.195095729417131381e+00 3.195095729417131381e+00 3.210462534894604758e+00 3.224130501090624268e+00 3.156316981520039366e+00 3.137912009556782511e+00 2.539277219187463519e+00 2.297857593433782153e+00 1.796279450135427336e+00 1.776836424194860875e+00 1.368966303444890675e+00 5.083493025214321781e-01 2.916152897206568673e-01 2.916152897206568673e-01 -2.907144716554457831e-02 -4.461484369093153268e-01 -6.080343832919576919e-01 -1.277554172689172596e+00 -6.709943992710302174e-01 -7.529459316894595577e-01 -1.182821507236787140e+00 -1.443693335098720443e+00 -1.522244863772252321e+00 -1.840584103743505562e+00 -2.207936711732876756e+00 -2.207936711732876756e+00 -2.357069795432169101e+00 -2.602992256911987656e+00 -2.602992256911987656e+00 -3.039205055354198937e+00 -3.302336385878594349e+00 -3.544184909257906746e+00 -3.822304829741489662e+00 -3.949511346137824397e+00 -3.970926901035086054e+00 -4.214293848529113262e+00 -4.505998258547244006e+00 -4.606689940194595323e+00 -5.109135328143072918e+00
4.009818359142197863e+00 3.556318376898635947e+00 3.556318376898635947e+00 3.298543648146408103e+00 3.071398696266467443e+00 3.071398696266467443e+00 2.730951057431941997e+00 2.365673291336598982e+00 2.149900938384356586e+00 2.022396049264639561e+00 1.723756636141421827e+00 1.477086164135859470e+00 1.202391938705910324e+00 1.188583796677042947e+00 1.117132441107082208e+00 9.172334047745139829e-01 5.025818668255410682e-01 5.025818668255410682e-01 -1.533866532245319048e-01 -1.149850293759646203e+00 -1.321765686250770067e+00 -1.454772548011277422e+00 -1.664831893100288340e+00 -1.779109342262717108e+00 -1.684117378476798654e+00 -1.614211887858647110e+00 -1.689193947002160856e+00 -1.776260583640934643e+00 -1.835831973879191281e+00 -1.835831973879191281e+00 -2.039489039858392694e+00 -2.338470313282752677e+00 -2.743725370019245435e+00 -3.175665034899222583e+00 -4.082391537394928882e+00 -4.431460421060950949e+00 -4.639347761128622238e+00 -4.589097599394531102e+00 -4.580671929723485469e+00 -4.332656349633901449e+00 -3.612988618363995652e+00 -3.612988618363995652e+00 -8.236885408591448909e-01 6.054975819257344405e-01 6.054975819257344405e-01 1.095852333297899772e+00 1.317331795309797826e+00 1.430625927525291052e+00 1.477251863538168619e+00 1.663425303975406999e+00 1.835717894828028829e+00 2.142914006909609981e+00 2.272111486262399005e+00 2.449989213890789053e+00 2.804194236792173278e+00 3.171370839116897766e+00 3.171370839116897766e+00 3.615846051566446562e+00 3.914252793016378185e+00 3.932452306784273155e+00 4.005131388518576863e+00 3.957169307503288547e+00 3.894484662097063676e+00 3.861713997489874650e+00 3.734519121519768614e+00 3.663945560361788090e+00 3.483777845108456006e+00 3.384317313111910863e+00 3.384317313111910863e+00 3.198393707876650893e+00 3.139974384041479993e+00 3.165860050780039181e+00 3.186172210270407756e+00 3.215582534100231538e+00 3.258969349676513971e+00 3.212584102289233190e+00 3.179826731710316601e+00 3.189835509480648312e+00 3.212011635785935404e+00 3.245128190043078398e+00 3.282457769353031019e+00 3.193337959089514122e+00 2.823775242350146542e+00 2.823775242350146542e+00 2.099354408880206524e+00 1.737932854046514208e+00 1.776836424194860875e+00 1.182159438387020201e+00 4.171409782826815960e-01 3.469880743576870263e-01 6.678186035075833749e-03 -2.286381431963293853e-01 -3.162620766809188244e-01 -1.136590131232705136e+00 -5.890428668526008771e-01 -5.890428668526008771e-01 -9.042132028214919792e-01 -1.322750081158438729e+00 -1.443693335098720443e+00 -1.620793580494079400e+00 -1.900310964082471354e+00 -2.057858535980929826e+00 -2.364454974091644512e+00 -2.546469230144707385e+00 -2.559534709232098137e+00 -2.785601231460198779e+00 -3.110350736070670141e+00 -3.110350736070670141e+00 -3.580956757347087738e+00 -4.045563947908325630e+00 -3.949511346137824397e+00 -4.099159046651784877e+00 -4.397083219674119192e+00 -4.505998258547244006e+00 -4.692688314108213632e+00 -5.166842861587563007e+00
3.950686082317542702e+00 3.778818102928824807e+00 3.488309067998118351e+00 3.399359560702467586e+00 3.241366448941748857e+00 2.928173454863087777e+00 2.581445644288841379e+00 2.581445644288841379e+00 2.224004165585281356e+00 1.917369861492738581e+00 1.723756636141421827e+00 1.581140755986824020e+00 1.240933624141229430e+00 1.188583796677042947e+00 1.031722930987378994e+00 8.964593511283928118e-01 7.819698249155279113e-01 1.879656525876856055e-01 -7.609620262148657222e-02 -7.197905814355329834e-01 -1.309555355226348361e+00 -1.570655373235458008e+00 -1.570655373235458008e+00 -1.693447785735578970e+00 -1.530716165066682510e+00 -1.614211887858647110e+00 -1.611592097668666845e+00 -1.767576187443644642e+00 -1.782394397016039855e+00 -1.895753250663931633e+00 -2.018113031205790442e+00 -2.138204775123202062e+00 -2.665119840699039955e+00 -3.569544342984977803e+00 -3.569544342984977803e+00 -4.276476295008230011e+00 -4.556576617551860942e+00 -4.589097599394531102e+00 -4.718310244097744466e+00 -4.571649208410394571e+00 -4.219356579812333585e+00 -2.476404754423072063e+00 -1.893593192920837831e+00 2.851359177562434732e-02 7.928532660791538511e-01 1.170352019880468220e+00 1.170352019880468220e+00 1.397877547565625989e+00 1.527730273947052186e+00 1.663425303975406999e+00 1.796345904592179910e+00 2.094233758634008957e+00 2.272111486262399005e+00 2.366723585825225129e+00 2.723286617407373988e+00 2.956204850910019388e+00 3.375409660129684131e+00 3.562661026376941820e+00 3.765723352749532626e+00 4.010373478512286205e+00 3.979619410721618955e+00 3.979619410721618955e+00 3.916358159567135289e+00 3.757526727511932396e+00 3.734519121519768614e+00 3.562050760496841662e+00 3.457488081695486937e+00 3.482243173763492461e+00 3.255204157035274548e+00 3.139868687005372916e+00 3.114088717302921694e+00 3.152514262842845749e+00 3.175221429495685754e+00 3.175221429495685754e+00 3.196097811992812954e+00 3.181729775406978877e+00 3.179826731710316601e+00 3.192379840544778080e+00 3.246133708309799193e+00 3.245128190043078398e+00 3.253032760795971701e+00 3.155046437683751037e+00 3.116189259285460533e+00 2.356450963388118769e+00 1.629100303303253394e+00 1.629100303303253394e+00 1.568691063670630825e+00 5.975783365992037854e-01 4.171409782826815960e-01 2.387161209101194004e-01 -1.304750338938696352e-01 -2.286381431963293853e-01 -1.834707368846598685e-01 -4.899924069194258047e-01 -9.995168588594417480e-01 -9.930586276167036042e-01 -1.175791635911873190e+00 -1.328311143114957460e+00 -1.482372266589306653e+00 -1.676809407160805065e+00 -1.920599965072948390e+00 -2.151659692207370078e+00 -2.506015999139465045e+00 -2.755573205694859418e+00 -2.755573205694859418e+00 -2.950729271031836465e+00 -3.169332097461420084e+00 -3.322924219039983473e+00 -3.508301023744364588e+00 -3.842193437754704455e+00 -4.148635051315676670e+00 -4.262930820694728951e+00 -4.548015170299175125e+00 -4.628395816640300531e+00 -4.948026793179328919e+00 -5.307381241228372737e+00
4.347836780931284117e+00 3.821810078228503826e+00 3.491157687417756339e+00 3.399359560702467586e+00 3.254610042457662722e+00 3.034710770655853374e+00 2.784696424596714071e+00 2.425612281905922707e+00 2.312035871448985702e+00 2.102554403955020135e+00 1.795015574509335243e+00 1.434442105798702460e+00 1.434442105798702460e+00 1.225187037686489955e+00 1.010948877341257823e+00 8.964593511283928118e-01 7.777706240217703293e-01 2.835156467605812747e-01 -7.609620262148657222e-02 -1.079960808709228282e+00 -1.251234122842156404e+00 -1.430274139416473300e+00 -1.665653370986972748e+00 -1.475550022462972066e+00 -1.475550022462972066e+00 -1.513512094581408896e+00 -1.653911768405782912e+00 -1.767576187443644642e+00 -1.784000910181689825e+00 -1.903929472683941082e+00 -2.018113031205790442e+00 -2.110297776349062904e+00 -2.590474525865821498e+00 -3.101689956105968538e+00 -3.967320612340704322e+00 -4.194597021892833233e+00 -4.463364371725230484e+00 -4.672133607186307991e+00 -4.742844502207312019e+00 -4.742844502207312019e+00 -4.491024099477057163e+00 -3.225765704703573711e+00 -1.893593192920837831e+00 -2.075910610404461565e+00 8.153936231344818264e-01 1.040225403261605397e+00 1.288598840427743975e+00 1.353879886612602945e+00 1.444525333767533226e+00 1.624053313739557858e+00 1.909460995285795715e+00 1.909460995285795715e+00 2.188845858196835081e+00 2.489618049996722426e+00 2.723286617407373988e+00 2.913968736897556866e+00 3.330073278180003093e+00 3.562661026376941820e+00 3.890813834057041287e+00 3.973058700525734288e+00 4.022272754706932574e+00 3.977391744064509460e+00 3.842736777215039368e+00 3.745911441743855264e+00 3.590629201388695790e+00 3.457691274365615186e+00 3.401849440635070554e+00 3.408452939536233295e+00 3.231933015788542640e+00 3.092852495305325800e+00 3.092852495305325800e+00 3.146046471527232491e+00 3.200835009793704167e+00 3.177811021829671567e+00 3.141282004333788347e+00 3.165489985365952386e+00 3.180282602691386629e+00 3.196650509135088747e+00 3.246490871347979201e+00 3.281144674153049667e+00 3.262954255356318001e+00 2.947946625916909813e+00 2.947946625916909813e+00 2.090645639561262037e+00 1.775323806392053338e+00 1.774960418978380305e+00 1.156506669605847026e+00 3.837510549597193954e-01 2.322119316671463762e-01 3.956603047334063261e-02 -1.904221632859284252e-01 -2.514974423381617918e-01 -4.543938240591830491e-01 -5.655410722713085647e-01 -5.655410722713085647e-01 -1.188495959506400634e+00 -1.272063464697607671e+00 -1.328311143114957460e+00 -1.345541785416360936e+00 -1.511700760188492643e+00 -1.920599965072948390e+00 -2.136971706537605709e+00 -2.649410819365978220e+00 -2.712643478794977803e+00 -2.962082669127628520e+00 -3.165769129249818459e+00 -3.142490059692211180e+00 -3.466943495254560137e+00 -3.733483080429985002e+00 -3.733483080429985002e+00 -4.072994143817898482e+00 -4.410787855252792156e+00 -4.548015170299175125e+00 -4.742017375010703972e+00 -5.044236511739441653e+00 -5.184458127479135925e+00
4.058982243621847452e+00 3.700279363203542893e+00 3.700279363203542893e+00 3.405696631178335210e+00 3.147595258260843298e+00 3.147595258260843298e+00 2.974937039786070603e+00 2.517240543302630584e+00 2.312035871448985702e+00 2.080690806971036366e+00 1.812279763077859540e+00 1.620008064779123513e+00 1.287743455610580234e+00 1.257330918523268615e+00 1.141433987778717629e+00 8.962961812868778244e-01 6.097047161415661831e-01 6.097047161415661831e-01 1.564230545272188022e-01 -8.083689677874401625e-01 -1.251234122842156404e+00 -1.253410570455690820e+00 -1.319423619546544746e+00 -1.427389397655104641e+00 -1.436104215190836086e+00 -1.471726676154671010e+00 -1.558082323312876882e+00 -1.717159780354958087e+00 -1.855671831555407936e+00 -1.855671831555407936e+00 -1.985667506408312244e+00 -2.197848976480912597e+00 -3.001797653049814052e+00 -3.001797653049814052e+00 -3.839523472844170726e+00 -4.409561187584484898e+00 -4.572148399292195187e+00 -4.728581946032496930e+00 -4.758530598323881478e+00 -4.765462789988202275e+00 -4.686969135667913733e+00 -4.197876390872655072e+00 -3.883573020793342767e+00 -1.460596653323653182e+00 5.506488244648215929e-02 6.747708443092994557e-01 1.225294944293044086e+00 1.402646893235290015e+00 1.402646893235290015e+00 1.583930257508888051e+00 1.847535915673719220e+00 2.003628408851044540e+00 2.093223293485190872e+00 2.410168514179241050e+00 2.645606071133310699e+00 3.099922476538735872e+00 3.305656157549839769e+00 3.507546256699829001e+00 3.806792154698416475e+00 3.928396827816901915e+00 3.928396827816901915e+00 3.914261386372943186e+00 3.768032020782545288e+00 3.745911441743855264e+00 3.530563279691210088e+00 3.453884857751365001e+00 3.401849440635070554e+00 3.358294169909027183e+00 3.108494915269099934e+00 3.084836234344054073e+00 3.103697884739216928e+00 3.197993356632274686e+00 3.197993356632274686e+00 3.182021097540431942e+00 3.180485268095800677e+00 3.165489985365952386e+00 3.171944658003329032e+00 3.222955480701402475e+00 3.246490871347979201e+00 3.294871972101958590e+00 3.275461878689095219e+00 3.158186537691905826e+00 2.330883427945654951e+00 1.923386939254014827e+00 1.848501491532631436e+00 1.470374140482549219e+00 5.689761430933522046e-01 5.689761430933522046e-01 2.378640709549170729e-01 -7.887739171048489817e-02 -1.904221632859284252e-01 -3.398221999654643666e-01 -2.719260514202186396e-01 -4.486889562960681421e-01 -1.028711838526261690e+00 -1.133705003641885201e+00 -1.300264883684386419e+00 -1.296521105367071103e+00 -1.504511169411145044e+00 -1.504511169411145044e+00 -1.943885374387942955e+00 -2.363249341883145505e+00 -2.649410819365978220e+00 -2.762599851060248746e+00 -3.055755787779478538e+00 -3.165769129249818459e+00 -3.321196217520794747e+00 -3.510142603196329869e+00 -3.605282253062356279e+00 -3.918808112062615479e+00 -4.300586212480922654e+00 -4.300586212480922654e+00 -4.606830463171753820e+00 -4.970679478806026452e+00 -4.970679478806026452e+00 -5.328585783511511131e+00
4.112495248478516885e+00 3.726547117343970594e+00 3.552899129817637558e+00 3.474799742671025982e+00 3.183130911213273961e+00 3.079033975499672504e+00 2.667652208172259343e+00 2.493275432309123296e+00 2.311128339705628587e+00 1.951111912450417485e+00 1.684197793225414408e+00 1.684197793225414408e+00 1.271309866256080667e+00 1.167625852115965701e+00 1.027881748439845033e+00 9.356127464269758942e-01 7.032779341966954867e-01 3.789516342831611428e-01 2.511174330701449464e-01 -7.648828893899568826e-03 -5.146963309291042732e-01 -1.167571621399917881e+00 -1.067178085588941006e+00 -1.200351784410349953e+00 -1.396762278683231884e+00 -1.610261675024733385e+00 -1.610261675024733385e+00 -1.774599013606626752e+00 -1.915156667045373240e+00 -1.927455651150998373e+00 -1.964624699576519085e+00 -2.147501519707801343e+00 -2.488870019179844295e+00 -3.326146923346347872e+00 -3.754101561051323976e+00 -4.115065001103328512e+00 -4.596854547412759118e+00 -4.758551562649135036e+00 -4.758551562649135036e+00 -4.698095834918886382e+00 -4.358700870998289290e+00 -4.197876390872655072e+00 -3.638592102815508156e+00 -2.711568928857910343e+00 5.506488244648215929e-02 1.048940238546012704e+00 1.128503996809526067e+00 1.266889502182322103e+00 1.463254457418020182e+00 1.654720637569610853e+00 1.654720637569610853e+00 1.915520220316066391e+00 2.195762553145759632e+00 2.195762553145759632e+00 2.569478452542308222e+00 3.028611976953582641e+00 3.305656157549839769e+00 3.402631931770399909e+00 3.671220904761112180e+00 3.823838799311880976e+00 3.914383894811763742e+00 3.847967729282526950e+00 3.768813650499803547e+00 3.640079644024716732e+00 3.424659435241773409e+00 3.424659435241773409e+00 3.314544613494908365e+00 3.144999359949609108e+00 3.108494915269099934e+00 3.042987861728618348e+00 3.130322223355083366e+00 3.165178925385838227e+00 3.208852207502352005e+00 3.202113321372952015e+00 3.193882534252429295e+00 3.163612520217404800e+00 3.221463693958574126e+00 3.221463693958574126e+00 3.277786414498031764e+00 3.245670743602932617e+00 3.275461878689095219e+00 2.997411420949688043e+00 2.240362157610181093e+00 1.923386939254014827e+00 1.636435178955305547e+00 1.063334605758010420e+00 7.757231665372538165e-01 3.493950630628342990e-01 5.734043490514002805e-02 5.734043490514002805e-02 -3.006316602994671960e-01 -3.989912644108833950e-01 -3.989912644108833950e-01 -6.575941112132142052e-01 -1.002473449333973088e+00 -1.133705003641885201e+00 -1.007060081226881731e+00 -1.238103594670334484e+00 -1.367197910152756490e+00 -1.792073162742025882e+00 -1.979345483540892570e+00 -2.202705334639892598e+00 -2.653374464076312833e+00 -2.919487387193083094e+00 -2.919487387193083094e+00 -3.231388866469618204e+00 -3.457674000678621962e+00 -3.510142603196329869e+00 -3.697243419992146674e+00 -4.031906909494162861e+00 -4.156653034289200299e+00 -4.488131560571903655e+00 -4.668281955687320739e+00 -4.869352366806803722e+00 -5.282262684760697269e+00 -5.620624197895843999e+00
4.182435206474902856e+00 3.898881581787530415e+00 3.588220063703684293e+00 3.258415713949042392e+00 3.258415713949042392e+00 2.937637191182574714e+00 2.695893726251765710e+00 2.493275432309123296e+00 2.376744959970849447e+00 2.062151232977762483e+00 1.845148140534905501e+00 1.504790210869284106e+00 1.268944146045599242e+00 1.238604190833408669e+00 1.063626755160994808e+00 8.401990224242039673e-01 8.401990224242039673e-01 4.970282333930860497e-01 1.924282287377511169e-01 -7.648828893899568826e-03 -5.743246003452430470e-02 -9.340043867675315026e-01 -1.067178085588941006e+00 -1.265020365155867799e+00 -1.357420342175627237e+00 -1.513396399054390162e+00 -1.723779901711420592e+00 -1.832038246858295416e+00 -1.880222603518336477e+00 -1.958787498051234088e+00 -2.008660690193127873e+00 -2.008660690193127873e+00 -2.379258752021649936e+00 -3.245249416558705136e+00 -3.754101561051323976e+00 -4.015234998934042565e+00 -4.617894423568948525e+00 -4.769451229243834689e+00 -4.790025732706353345e+00 -4.640794269484074697e+00 -4.490721842937280606e+00 -4.006330988715960828e+00 -2.921438107660588646e+00 -2.921438107660588646e+00 -1.236685907573205068e-01 9.242001780975874770e-01 1.128503996809526067e+00 1.209467018566264374e+00 1.387151265363548935e+00 1.515780111573405753e+00 1.741051966541728113e+00 1.781383867475324623e+00 1.974662917120959982e+00 2.334387391567681380e+00 2.763098060764142883e+00 2.763098060764142883e+00 3.208250096418746367e+00 3.467642162631753955e+00 3.671220904761112180e+00 3.712176049265698552e+00 3.782139881808689097e+00 3.847967729282526950e+00 3.626243247868647046e+00 3.599224709578727310e+00 3.490548375725840646e+00 3.318847300482565377e+00 3.174681515588373415e+00 3.122403576587908347e+00 3.052466839383181973e+00 3.088071137860910476e+00 3.088071137860910476e+00 3.171820501245476542e+00 3.206672636840513402e+00 3.202113321372952015e+00 3.165753989195325691e+00 3.219615035713301321e+00 3.219971907215745777e+00 3.277361266430023790e+00 3.230873521238746271e+00 3.247536780811406398e+00 3.216712780022894513e+00 2.634519416055267627e+00 2.634519416055267627e+00 1.826852399820989348e+00 1.300554391088794226e+00 1.063334605758010420e+00 4.965770441649099975e-01 2.926623209117018010e-01 1.876534037703892488e-01 -3.561897310813133544e-01 -3.268468218804084779e-01 -4.392852070268764564e-01 -5.494035946260725778e-01 -8.513966018183345419e-01 -8.513966018183345419e-01 -7.263153521057625905e-01 -1.103643154409108540e+00 -1.238103594670334484e+00 -1.388151716473778885e+00 -1.779828602348864308e+00 -1.979345483540892570e+00 -2.204802857803197735e+00 -2.631579900037018138e+00 -2.945017983564718556e+00 -3.110198144495631034e+00 -3.297079085846443824e+00 -3.646834117315107981e+00 -3.672576668989322002e+00 -3.837928490866951314e+00 -4.040694519602456403e+00 -4.246524658026739729e+00 -4.497707701677097880e+00 -4.917407483325373363e+00 -4.917407483325373363e+00 -5.397695072437856290e+00 -5.835486697505968046e+00
4.182435206474902856e+00 3.726132740741276983e+00 3.602357523188005395e+00 3.356041664060389618e+00 3.062024899347291829e+00 3.016502747933237139e+00 2.894413175718554054e+00 2.558892052574344600e+00 2.260214487632575597e+00 2.260214487632575597e+00 1.933764596831119897e+00 1.573383170836258671e+00 1.268944146045599242e+00 1.214695308461282597e+00 1.096570821711796651e+00 9.651181619376831833e-01 7.339749863724371881e-01 5.455347727215056342e-01 3.672625439775745737e-01 1.150962985206678835e-01 -1.018126399500946799e-01 -1.018126399500946799e-01 -9.584066004013322981e-01 -1.194559959954146100e+00 -1.357420342175627237e+00 -1.555066121954109315e+00 -1.770151276427024634e+00 -1.832038246858295416e+00 -1.963146078033717545e+00 -1.990859026865035020e+00 -1.960312081538483131e+00 -2.097197605526860187e+00 -2.700671634555004808e+00 -2.700671634555004808e+00 -3.657010300148778370e+00 -4.278765724099203638e+00 -4.617894423568948525e+00 -4.810320512455172448e+00 -4.743093960491493455e+00 -4.640794269484074697e+00 -4.544128578527338647e+00 -3.954497192570922692e+00 -3.430638671788121208e+00 -1.772381833779899774e+00 5.063112906608849967e-02 7.942186631145153886e-01 1.070150940520079752e+00 1.262555471420686359e+00 1.262555471420686359e+00 1.437188665027315349e+00 1.593854384036780480e+00 1.781383867475324623e+00 1.901404694591741995e+00 2.310927817664372164e+00 2.500393638832697274e+00 2.966478918012497523e+00 3.130130440127830038e+00 3.297597337746025481e+00 3.536139280325055978e+00 3.722955375097656283e+00 3.722955375097656283e+00 3.680854793916578327e+00 3.577511778021661204e+00 3.599224709578727310e+00 3.415048349038275699e+00 3.239011510277681971e+00 3.174681515588373415e+00 3.098103596996911069e+00 3.049058788840068424e+00 3.037287756408052264e+00 3.151580399955151712e+00 3.183846823864652897e+00 3.181004402748557336e+00 3.203920223485463570e+00 3.216380932653404301e+00 3.241865598867352816e+00 3.241865598867352816e+00 3.173380272384399348e+00 3.200192969978267410e+00 3.200192969978267410e+00 3.007179117861203288e+00 2.309015897353805080e+00 2.055028008831925046e+00 1.682498387522334493e+00 7.965375177120272987e-01 5.809434245811954112e-01 3.246411280132339705e-01 1.089942447410961190e-01 5.134051971197769321e-02 -2.621760126788846290e-01 -4.246482946803231129e-01 -4.246482946803231129e-01 -5.318906051449228123e-01 -3.733594911110393877e-01 -5.796430755662458356e-01 -7.012022570613792860e-01 -1.073064264352597386e+00 -1.051729705275027626e+00 -1.552778993228709270e+00 -2.572633300952742452e+00 -2.062537231283976702e+00 -2.392783562666349617e+00 -2.636908050312017249e+00 -2.636908050312017249e+00 -3.043570098645259403e+00 -3.544376923129513468e+00 -3.646834117315107981e+00 -3.800539597524756008e+00 -4.149134349734377558e+00 -4.040694519602456403e+00 -4.358226358311911852e+00 -4.592472679350594333e+00 -4.642426143324868804e+00 -4.904797100568331736e+00 -5.210005082016404110e+00 -5.505154563160186143e+00
4.252375164471288826e+00 3.823389978018575164e+00 3.602357523188005395e+00 3.432877819018952614e+00 3.110134453582756642e+00 3.016502747933237139e+00 2.741039145177839753e+00 2.624508672839565904e+00 2.442361580236069862e+00 2.137843128605650733e+00 1.805377960684477756e+00 1.805377960684477756e+00 1.332241923861250399e+00 1.187388758615665729e+00 1.096570821711796651e+00 9.893681388352191242e-01 6.782140961274553126e-01 5.455347727215056342e-01 4.189666489522386739e-01 1.862113418336057702e-01 5.158668912409151985e-02 -2.238829779808634846e-01 -7.934363921910914108e-01 -9.445338020485134489e-01 -1.305138755107499549e+00 -1.653937116142158326e+00 -1.653937116142158326e+00 -1.752443805380857533e+00 -1.992456863704137771e+00 -1.990859026865035020e+00 -1.997718131506636130e+00 -2.121565599975909322e+00 -2.255885777029137174e+00 -3.137082704092659213e+00 -3.545949446973961194e+00 -3.927262867468144236e+00 -4.617140376141350977e+00 -4.821454479426924067e+00 -4.821454479426924067e+00 -4.725735999650328978e+00 -4.320532155200738522e+00 -3.725260680673255109e+00 -3.725260680673255109e+00 -2.357685874394096714e+00 4.369170041202244947e-01 8.908617491331980442e-01 1.032452657069721447e+00 1.177728028867734755e+00 1.305979629274248044e+00 1.475191143680341099e+00 1.552410003299217633e+00 1.723134560942001903e+00 2.114848120769596385e+00 2.282728160387669014e+00 2.486221214249618061e+00 2.920491661461399602e+00 3.168178721294504285e+00 3.168178721294504285e+00 3.404711266575027651e+00 3.516188075800554369e+00 3.624355867068376202e+00 3.491256228755809765e+00 3.337126394429226650e+00 3.325989952875696432e+00 3.284246589078659628e+00 3.137760480078191527e+00 3.171575871113630818e+00 3.083561498293584169e+00 3.157222407063169811e+00 3.157222407063169811e+00 3.114368981755524679e+00 3.129636781762269671e+00 3.181004402748557336e+00 3.195292230895155239e+00 3.259061465457799400e+00 3.304487006213943090e+00 3.230625510869504780e+00 3.166280618157401250e+00 3.165777445569143644e+00 3.193635221552333370e+00 2.467167264723479470e+00 2.467167264723479470e+00 1.756847537245503466e+00 9.426805081391401719e-01 7.965375177120272987e-01 4.339717469128486216e-01 1.630939521186294816e-01 1.089942447410961190e-01 -1.212035839183184249e-01 -3.152533968792819441e-01 -3.683970274840591141e-01 -6.280397406516585734e-01 -5.472545656581826456e-01 -5.909945241464922283e-01 -5.805501083704517340e-01 -1.050854896850641484e+00 -1.050854896850641484e+00 -1.426395413381306598e+00 -2.072352799322065842e+00 -2.572633300952742452e+00 -2.146351510704332721e+00 -2.447556342709803268e+00 -2.579130179855856575e+00 -2.883345413966253545e+00 -3.184166871826461520e+00 -3.309289595651089932e+00 -3.655645668511515289e+00 -4.024871367420089108e+00 -4.024871367420089108e+00 -4.310107287183290836e+00 -4.492787191015069403e+00 -4.592472679350594333e+00 -4.788255769883357438e+00 -5.070479917671552705e+00 -5.210005082016404110e+00 -5.795511528958788183e+00
4.322315122467674797e+00 4.037440470491072020e+00 3.688768210070660025e+00 3.396089303344697274e+00 3.396089303344697274e+00 3.105333330384830060e+00 2.806655765443060613e+00 2.624508672839565904e+00 2.507978200501291610e+00 2.209300635559522608e+00 1.881069856312366229e+00 1.685951800996836170e+00 1.443711126059478822e+00 1.184435894936079814e+00 1.112094007579128130e+00 8.595736945894953962e-01 7.296424594083971149e-01 6.472563656490262218e-01 3.310479287927418079e-01 6.306161365201924662e-02 6.306161365201924662e-02 -2.956261094126327871e-01 -9.341410783535073481e-01 -1.082920383698073419e+00 -1.337026844346753229e+00 -1.719040215709796371e+00 -1.808442081019605796e+00 -1.969977490028652856e+00 -2.130181229436535428e+00 -2.068643772011396820e+00 -2.049266753195226887e+00 -2.269642286529037989e+00 -2.447453746650694928e+00 -3.089462431283394039e+00 -3.084796564221925053e+00 -3.084796564221925053e+00 -4.571833577020780304e+00 -4.884851061367720959e+00 -4.814046197764309198e+00 -4.725379841726118357e+00 -4.337466975605084762e+00 -4.130746248718979885e+00 -3.829438427249963972e+00 -2.957987909138770188e+00 -1.250331965045444305e+00 5.760398173301753966e-01 1.074305986965660598e+00 1.074305986965660598e+00 1.244145123323143975e+00 1.415128630135065624e+00 1.552410003299217633e+00 1.744450408714039336e+00 2.091787404749485102e+00 2.282728160387669014e+00 2.664912094695763844e+00 2.728316692354986195e+00 2.947794672011888828e+00 3.206540561572082115e+00 3.384259193144203870e+00 3.384259193144203870e+00 3.439488803663067529e+00 3.342428753889088888e+00 3.337126394429226650e+00 3.196834130956851094e+00 3.171740881626814446e+00 3.137760480078191527e+00 3.132317497037060416e+00 3.069255337853980414e+00 3.080931815397594420e+00 3.193216186098848830e+00 3.181646123378987667e+00 3.100554499589822655e+00 3.145244016128867059e+00 3.229116887952321324e+00 3.229116887952321324e+00 3.236695007843212402e+00 3.185821369500704492e+00 3.166280618157401250e+00 3.167647890871746696e+00 2.844205858757648642e+00 2.655686561740564056e+00 1.813306003845098768e+00 1.102625679283767646e+00 9.875075445800804985e-01 4.654691952065171945e-01 1.777860848618590395e-01 1.777860848618590395e-01 -8.037590426176174918e-02 -3.075817371850794735e-01 -3.152533968792819441e-01 -4.197560623895056908e-01 -5.578714922534819820e-01 -5.472545656581826456e-01 -6.886644613977528362e-01 -9.684856968573147817e-01 -9.467003977219521360e-01 -1.460209918144426133e+00 -1.783207268626001873e+00 -1.783207268626001873e+00 -2.062679482765522820e+00 -2.399962739851135840e+00 -2.399962739851135840e+00 -2.639563176757076413e+00 -3.019220754195377943e+00 -3.184166871826461520e+00 -3.373003096806491463e+00 -3.610938188634182922e+00 -3.842851047315848145e+00 -4.159395263924104746e+00 -4.329195044605684828e+00 -4.459580626547033688e+00 -4.723208518397802536e+00 -5.002407720634392874e+00 -5.002407720634392874e+00 -5.357353877937661935e+00 -5.817948655435986716e+00
4.151459674416679846e+00 3.910514686902858639e+00 3.765310885041373457e+00 3.523445048147050507e+00 3.331867975675503857e+00 3.282255908638315400e+00 2.933345611853905410e+00 2.690125293104786319e+00 2.391447728163017317e+00 2.274345788322182482e+00 2.085148388086896620e+00 1.808292188738026107e+00 1.248740472442901872e+00 1.248740472442901872e+00 1.123917727742076433e+00 8.948736252072974073e-01 7.296424594083971149e-01 7.123067918955089395e-01 3.674311784985968554e-01 2.088518993909742605e-01 -6.003352116820211831e-02 -3.802623396135305645e-01 -8.134642822540358864e-01 -1.185437133406467058e+00 -1.547915723021582313e+00 -1.547915723021582313e+00 -1.892447221004108560e+00 -2.120117815632954539e+00 -2.130181229436535428e+00 -2.077604373437632823e+00 -1.973631593573611509e+00 -2.269642286529037989e+00 -2.828968364579372619e+00 -3.169415853705026542e+00 -3.549392945405206667e+00 -4.320173531614475593e+00 -4.757175135965115764e+00 -4.757175135965115764e+00 -4.832778087575523962e+00 -4.510158167836273435e+00 -4.510158167836273435e+00 -4.213530654111347751e+00 -3.606737107813079657e+00 -2.957987909138770188e+00 -2.591061246869837298e+00 -3.999816841617719332e-01 8.617106276554278299e-01 1.114853633817112666e+00 1.170551641904968188e+00 1.304236847394884879e+00 1.527357103249924464e+00 1.890828076525874479e+00 1.890828076525874479e+00 2.232367948982062700e+00 2.532291217242097048e+00 2.728316692354986195e+00 2.834346454961072848e+00 3.104554573010973151e+00 3.252330310487852483e+00 3.325274151531585787e+00 3.254768272623714154e+00 3.328468833341211131e+00 3.193601279022368011e+00 3.147118463291848300e+00 3.147118463291848300e+00 3.147658560914234016e+00 3.083579352212451052e+00 3.069255337853980414e+00 3.156615476631658090e+00 3.145144937832669463e+00 3.181646123378987667e+00 3.200888404229631057e+00 3.193140564310439800e+00 3.224078858734263253e+00 3.210873544368814780e+00 3.302707720246699896e+00 3.196114049492672748e+00 3.160580310085844058e+00 3.103979078823697613e+00 3.103979078823697613e+00 2.222412241243972630e+00 1.165039547885500459e+00 1.102625679283767646e+00 5.047150442784639202e-01 1.976924608234946201e-01 1.866275149572109993e-01 -2.732083219863827850e-01 -8.083780622272527250e-01 -2.210463206173436390e-01 -2.945352278527659795e-01 -4.637087827876604784e-01 -4.637087827876604784e-01 -6.484191824400433735e-01 -1.169243179113855557e+00 -9.684856968573147817e-01 -1.389282691551922300e+00 -1.738705435251798104e+00 -1.733393313808793801e+00 -2.025170829128394967e+00 -2.287498213482499931e+00 -2.355397726581716977e+00 -2.555771051515847603e+00 -2.839238014756729989e+00 -2.839238014756729989e+00 -3.277799759050875394e+00 -3.591511051324125070e+00 -3.610938188634182922e+00 -3.775583869705160023e+00 -4.123822310719774897e+00 -4.329195044605684828e+00 -4.661447451154756116e+00 -4.957769963010940195e+00 -4.937145613568866054e+00 -5.232248277320700858e+00 -5.464948964077905202e+00 -5.776928524106118346e+00
4.392255080464060768e+00 3.954015303430982620e+00 3.696591106200848298e+00 3.696591106200848298e+00 3.425080270019341455e+00 3.122071846507271431e+00 2.933345611853905410e+00 2.802264955558838366e+00 2.484093777249528401e+00 2.274345788322182482e+00 1.977055782067683953e+00 1.852738817076776678e+00 1.566146017146512914e+00 1.211650906117160531e+00 1.146928042688129645e+00 1.060104791006197367e+00 8.182745351973882419e-01 5.593000923053939033e-01 5.593000923053939033e-01 2.653802612865544530e-01 -1.975634772973705600e-02 -3.802623396135305645e-01 -8.064199888729445265e-01 -1.278269421986633958e+00 -1.368914933586006910e+00 -1.731472414445996311e+00 -1.946083825910862375e+00 -2.050911061831201199e+00 -2.209058078444643858e+00 -2.018586513201085175e+00 -2.018586513201085175e+00 -2.140817357500082618e+00 -2.723850261882112100e+00 -3.169415853705026542e+00 -3.534723566434353259e+00 -4.366064685843768167e+00 -4.591759837631160579e+00 -4.888394786143949844e+00 -4.815192154123691282e+00 -4.695774992474868625e+00 -4.221928254063918473e+00 -4.009415632512782324e+00 -4.009415632512782324e+00 -3.248264373423376927e+00 -2.374765105753857242e+00 -3.999816841617719332e-01 1.989505721119644577e-01 9.520267441691866450e-01 1.170551641904968188e+00 1.349748542398920170e+00 1.516290040619814095e+00 1.728085819425051906e+00 2.045143808668138163e+00 2.176954113441185612e+00 2.319438969628301539e+00 2.628351920338845904e+00 2.962835824917416705e+00 2.962835824917416705e+00 3.160424562907276247e+00 3.134360227262616760e+00 3.254768272623714154e+00 3.154885066117218084e+00 3.050342523499495417e+00 3.083953267190260750e+00 3.113345587611740406e+00 3.133570783279049810e+00 3.134775811325986705e+00 3.096767930166901106e+00 3.182868651461680187e+00 3.182868651461680187e+00 3.131977008859236022e+00 3.152426098855045211e+00 3.193140564310439800e+00 3.241421800738087722e+00 3.229527989694780832e+00 3.302707720246699896e+00 3.193120475391258761e+00 3.262038815419808557e+00 3.160579805791065233e+00 2.445423280995009385e+00 1.242705883423166124e+00 1.242705883423166124e+00 4.863597235512203687e-01 1.584543491885382627e-01 -7.816858012337406236e-02 -7.816858012337406236e-02 -3.843843081997314615e-01 -2.695902873555848234e-01 -2.695902873555848234e-01 -4.079982154992436438e-01 -5.573399679461379375e-01 -3.930064467843649711e-01 -8.845739758661035346e-01 -1.225205333892603221e+00 -1.208622504293748179e+00 -1.606545970934386780e+00 -1.509535058164151788e+00 -1.828906055111499063e+00 -2.081971342599129304e+00 -2.564661982167360854e+00 -2.564661982167360854e+00 -2.774669278535697892e+00 -2.855392139623179837e+00 -3.035617027923472211e+00 -3.224982401654719499e+00 -3.660341351236940710e+00 -3.883598926853736533e+00 -4.027836093906567605e+00 -4.220970937033523107e+00 -4.342990054717512649e+00 -4.831783810791552725e+00 -5.082552877980209161e+00 -5.082552877980209161e+00 -5.366162326062791088e+00 -5.670247217733690448e+00 -5.776928524106118346e+00
4.459979490474114350e+00 3.994193209603514205e+00 3.844238997485704967e+00 3.538576735644378690e+00 3.401697887550522825e+00 3.258404957741782404e+00 2.982371123050693740e+00 2.662097025509194026e+00 2.662097025509194026e+00 2.355693334971990183e+00 2.026996181461309554e+00 1.852738817076776678e+00 1.677431968902513448e+00 1.228662240381071191e+00 1.146928042688129645e+00 9.620861916038205841e-01 8.828043372431668701e-01 7.074946123737477777e-01 4.382207050189469433e-01 1.540855677863716688e-01 1.540855677863716688e-01 -8.863561851945762626e-01 -1.167212571326480042e+00 -1.278269421986633958e+00 -1.442968604132964350e+00 -1.737459382335595492e+00 -1.946083825910862375e+00 -2.097178494277514016e+00 -2.181626434240448997e+00 -2.127531732959127897e+00 -1.943650502959155091e+00 -2.086404850404844247e+00 -2.272419157379599319e+00 -3.139057121782715232e+00 -4.018621187234229453e+00 -4.018621187234229453e+00 -4.639255765716284508e+00 -4.826147323968570824e+00 -4.815192154123691282e+00 -4.698031212137515844e+00 -4.239414478567838707e+00 -3.923456506204925365e+00 -3.690240519578399603e+00 -3.654298064067602603e+00 -3.249625128175680278e+00 -2.197025184726646874e+00 3.387321649153598457e-01 3.387321649153598457e-01 8.403195142360385672e-01 1.336900622123074811e+00 1.516290040619814095e+00 1.660435443368592168e+00 2.024589715789578470e+00 2.281103121012081125e+00 2.442547824278164192e+00 2.573790429530916413e+00 2.822403861608701714e+00 3.008059434148279365e+00 3.185651851486200670e+00 2.964164047280207548e+00 3.092070315079216591e+00 3.064005943006072208e+00 3.091597945958771909e+00 3.084408856380877584e+00 3.116703970506080168e+00 3.139705534962413669e+00 3.139705534962413669e+00 3.145820063886027640e+00 3.169881566335598144e+00 3.182265454367651181e+00 3.113789855503505066e+00 3.198222485872868504e+00 3.263768511538414963e+00 3.202061470083979788e+00 3.178548990572810151e+00 3.178949171903628468e+00 3.161890132359527428e+00 2.867935512180336932e+00 2.867935512180336932e+00 1.831239821819043989e+00 6.474887704064105076e-01 4.991180515424368247e-01 -7.716308327949848722e-02 -1.167482098586928030e-01 -8.225887526219032020e-02 -1.733612881716494747e-01 -2.361793174526990169e-01 -2.336540332568023126e-01 -3.841326514804119241e-01 -5.083782114343783354e-01 -5.083782114343783354e-01 -7.194275080858030247e-01 -1.039376363140074089e+00 -1.225205333892603221e+00 -1.261531375549907130e+00 -1.391614412420663083e+00 -1.509535058164151788e+00 -1.872056746740554445e+00 -2.214310915814258429e+00 -2.395512024603378087e+00 -2.857835980910908180e+00 -3.000063071565973516e+00 -2.980111344506201299e+00 -3.141247094644950888e+00 -3.551455052046661454e+00 -3.551455052046661454e+00 -3.933544001235713683e+00 -4.215254525075742720e+00 -4.220970937033523107e+00 -4.474898883440519448e+00 -4.919188182859035585e+00 -5.136221651971614399e+00 -5.294485936250900693e+00 -5.513987636256332259e+00 -5.595259191680256095e+00 -5.844100949085705210e+00
