2.875212748374187943e-01 -5.522854215457938948e-02 -5.297572731444033511e-02 2.882372592040082226e-01 6.952082281912845829e-01 7.213971101423215515e-01 8.930653197396702936e-01 1.026222144381257362e+00 1.045311359404654139e+00 1.045858859748180603e+00 1.060239059248429205e+00 1.045993190271373496e+00 1.044812241816420961e+00 1.067089972440864010e+00 1.067089972440864010e+00 1.089679598559283313e+00 1.072140471106046933e+00 1.076960688256841214e+00 1.033174262831507706e+00 1.007258353120985106e+00 1.020570511367935085e+00 9.430140475546856527e-01 8.711463632562435055e-01 8.544509677332494668e-01 7.408941313583250476e-01 6.498415082282611444e-01 6.498415082282611444e-01 5.651865825464937876e-01 4.658158855767250417e-01 4.179814341095777208e-01 2.663514430954955770e-01 7.773629251643500090e-03 -5.419984336607396730e-02 -3.655686434521427941e-01 -5.152532167299715971e-01 -6.258185570119922936e-01 -1.282015979917394022e+00 -1.810731879855620896e+00 -1.810731879855620896e+00 -2.339447779793847548e+00 -2.721885670979019789e+00 -2.778163933088277915e+00 -2.799151653956132080e+00 -2.876350389941034535e+00 -2.958755855025690717e+00 -2.893366569773544228e+00 -2.865331235760923967e+00 -2.967961448058221485e+00 -2.965025689024555877e+00 -2.874323945142515324e+00 -2.868464153513760273e+00 -2.733349664619486141e+00 -2.687326973631075866e+00 -2.687326973631075866e+00 -2.818969077393250089e+00 -2.954671616941484391e+00 -2.998348570834555638e+00 -3.436082233477689041e+00 -3.931104777947264317e+00 -4.053703260680328491e+00 -4.543503779597287462e+00 -4.810877894538409194e+00 -4.967858933877087324e+00 -5.378373363627140691e+00 -5.628436686012874723e+00 -5.628436686012874723e+00 -5.954769453259070033e+00 -6.250665999562717623e+00 -6.312948635812292153e+00 -6.431591303051581221e+00 -6.707768911695179526e+00 -6.732945230787847457e+00 -6.898411491119665229e+00 -7.134440648800445928e+00 -7.156045935633403410e+00 -7.309859070490878352e+00 -7.502103126355698315e+00 -7.502103126355698315e+00 -7.598556759626916346e+00 -7.773182150315653516e+00 -7.773182150315653516e+00 -7.842576861072590333e+00 -8.067834448079555187e+00 -8.024742586626814500e+00 -8.117407818667544461e+00 -8.173089495359590728e+00 -8.144393698156687122e+00 -8.254279694488646513e+00 -8.309870444245703425e+00 -8.339108441431719143e+00 -8.401505742090435547e+00 -8.551539594181596371e+00 -8.551539594181596371e+00 -8.627923762058459900e+00 -8.687414973226818660e+00 -8.707780509382111234e+00 -8.776289956744642851e+00 -8.858433199907807420e+00 -8.817215215554123020e+00 -8.878549922151929508e+00 -8.974777845278834931e+00 -8.949427356727253979e+00 -9.020751866999502155e+00 -9.073485186602349373e+00 -9.073485186602349373e+00 -9.116992503819997040e+00 -9.240012788777338670e+00 -9.193395859093726585e+00 -9.268989152710478407e+00 -9.361338235840962696e+00 -9.344371530070386456e+00 -9.449480062886289389e+00 -9.547048170103796139e+00 -9.515536297675030397e+00 -9.634897469662389469e+00 -9.727885304793955967e+00
1.521238109634429625e-01 1.248453176060343450e-01 -4.609213696595615417e-03 5.566829230926383376e-01 5.566829230926383376e-01 8.467712772090207896e-01 9.926937435185605452e-01 1.026222144381257362e+00 1.030867363691673200e+00 1.071640993934121822e+00 1.060239059248429205e+00 1.085054572467270440e+00 1.056190144046938562e+00 1.100128553437358825e+00 1.084994686044257195e+00 1.057533519796232779e+00 1.057533519796232779e+00 1.041450107451856955e+00 1.015406224067188612e+00 1.015406224067188612e+00 1.004977752203280783e+00 8.865804990797121476e-01 8.711463632562435055e-01 7.884278071297234902e-01 7.164776981161975478e-01 7.187336038395107929e-01 6.160481430763989907e-01 6.125489619800688068e-01 5.364811614822863062e-01 3.164753694435432640e-01 8.717277792641475731e-02 8.717277792641475731e-02 -1.830033183434071065e-01 -4.197774570874948652e-01 -5.152532167299715971e-01 -9.275794226544782362e-01 -1.567479821287649955e+00 -1.592940061935186780e+00 -2.108278094920859935e+00 -2.576932413618139517e+00 -2.621836213994283238e+00 -2.831199223796522890e+00 -2.889617822263058855e+00 -2.889617822263058855e+00 -2.964417499371151177e+00 -2.870237778266769624e+00 -2.865331235760923967e+00 -2.822858491031035477e+00 -2.775479203795300887e+00 -2.874323945142515324e+00 -2.753413091449688821e+00 -2.702170369926352844e+00 -2.640395184223918612e+00 -2.800251222910170590e+00 -3.012805403880397748e+00 -3.012805403880397748e+00 -3.251855849971303503e+00 -3.808506295214200588e+00 -3.808506295214200588e+00 -4.362678030924660888e+00 -4.794600602609317086e+00 -4.810877894538409194e+00 -5.120682564066908249e+00 -5.457392485244040081e+00 -5.532145443252090899e+00 -5.858478210498285321e+00 -6.094857582681717290e+00 -6.212688842778018916e+00 -6.383199393160944091e+00 -6.644631966203359497e+00 -6.644631966203359497e+00 -6.846726057999692472e+00 -7.075656617485464039e+00 -7.134440648800445928e+00 -7.263844847837743757e+00 -7.456088903702562831e+00 -7.479096015029131017e+00 -7.671340070893950980e+00 -7.726210311914699425e+00 -7.732827976010205440e+00 -7.829503311305857416e+00 -7.992525999283708771e+00 -7.992525999283708771e+00 -8.157440121782402187e+00 -8.210073050708274423e+00 -8.173089495359590728e+00 -8.268554610093190149e+00 -8.390188967371235762e+00 -8.309870444245703425e+00 -8.462611262399949652e+00 -8.534439755180510900e+00 -8.511382313086762963e+00 -8.631144859961857208e+00 -8.741376009225229282e+00 -8.717118472424601805e+00 -8.838669872690578799e+00 -8.913697150897618826e+00 -8.913697150897618826e+00 -8.926293220381822380e+00 -9.008780820401925737e+00 -8.974777845278834931e+00 -9.066942584972498054e+00 -9.137846669389956489e+00 -9.068214718775971406e+00 -9.187636493663408288e+00 -9.247676954878844668e+00 -9.353531589166172111e+00 -9.303318234096316530e+00 -9.381223579039508209e+00 -9.471095753597133182e+00 -9.444999608741868613e+00 -9.555826275832137284e+00 -9.630758691321755549e+00 -9.630758691321755549e+00 -9.732364916787677345e+00 -9.816035905285033891e+00
1.521238109634429625e-01 -1.524878079053007540e-03 -6.157745968864963837e-02 1.757384426129696142e-02 7.045503555676063678e-01 8.826281862814800983e-01 9.624967988620850567e-01 1.045172678713903291e+00 1.054857675578950271e+00 1.054857675578950271e+00 1.088684757332888386e+00 1.058855460094097811e+00 1.056190144046938562e+00 1.070623742324457783e+00 1.076905923263674625e+00 1.070289259156494310e+00 1.015818410427860918e+00 9.737148030487725592e-01 1.020704212168602965e+00 1.003294656838160881e+00 9.173020978070806075e-01 9.173020978070806075e-01 8.209053907193916144e-01 7.272808045150677136e-01 7.164776981161975478e-01 6.980388522053790901e-01 6.484752840754957059e-01 6.125489619800688068e-01 3.996296623369474110e-01 2.244048337812091509e-01 1.671348533103615142e-01 -8.754638905397546522e-02 -3.395390260235554014e-01 -3.802851054275115938e-01 -7.103969519562305379e-01 -1.436446854834138920e+00 -1.436446854834138920e+00 -2.026899159357881341e+00 -2.532028613241995352e+00 -2.576932413618139517e+00 -2.768873997811034826e+00 -2.856919369424668176e+00 -2.884774198298439618e+00 -2.962707891761329648e+00 -2.946061162478977202e+00 -2.894730183072389273e+00 -2.812165925393141475e+00 -2.757894310094815449e+00 -2.757894310094815449e+00 -2.735553908039926263e+00 -2.719440045141810813e+00 -2.702170369926352844e+00 -2.651561399911875672e+00 -2.811874124844440548e+00 -2.921711176722371572e+00 -3.088636860908201331e+00 -3.441330149559320262e+00 -3.564178813381946753e+00 -4.157650132163685619e+00 -4.713487973097065797e+00 -4.713487973097065797e+00 -5.081066986763744353e+00 -5.408554316623516378e+00 -5.457392485244040081e+00 -5.776419381691530575e+00 -6.014515860029333361e+00 -6.094857582681717290e+00 -6.267381449908703495e+00 -6.551661809391143620e+00 -6.598146887797252447e+00 -6.816108679637555845e+00 -6.960506885211538375e+00 -7.018081751348500319e+00 -7.205656759243683318e+00 -7.384787635721519194e+00 -7.471778503584934228e+00 -7.546244021329798990e+00 -7.754981944419695239e+00 -7.902400672498991696e+00 -7.902400672498991696e+00 -8.044432873627389569e+00 -8.184397647187623193e+00 -8.202452591591100628e+00 -8.285388815994409129e+00 -8.348481967467311193e+00 -8.302738282749006160e+00 -8.364019724826786018e+00 -8.502957104283794365e+00 -8.502064880903072108e+00 -8.599481964387283739e+00 -8.615630935730820283e+00 -8.615630935730820283e+00 -8.751019693067794591e+00 -8.831810946819043551e+00 -8.807635936271024590e+00 -8.954152088253504616e+00 -9.035833016714832411e+00 -8.972757715037653625e+00 -9.014424293488676909e+00 -9.144202884561982714e+00 -9.081739604612302230e+00 -9.129874342783104169e+00 -9.214208692694061398e+00 -9.214208692694061398e+00 -9.296630507306506530e+00 -9.366014891474172543e+00 -9.366014891474172543e+00 -9.413240609098904699e+00 -9.487804263635656099e+00 -9.471095753597133182e+00 -9.545627687413352547e+00 -9.662172488777983403e+00 -9.661953747504195888e+00 -9.746656921533951135e+00 -9.838674373291617314e+00 -9.814463251361264184e+00
2.085947803404021583e-01 1.092814691240865804e-01 -6.157745968864963837e-02 5.348548240598112180e-01 7.824170543168056380e-01 8.826281862814800983e-01 9.476063012715080225e-01 1.045987887883846668e+00 1.061789745483881831e+00 1.081188074902337704e+00 1.089035987926594728e+00 1.098519890916227926e+00 1.099937224311655193e+00 1.086484171528629972e+00 1.086484171528629972e+00 1.040039904837377405e+00 1.015878439681914491e+00 9.737148030487725592e-01 9.916032377965813271e-01 9.597464008193080653e-01 9.532836338647989738e-01 8.486990253256905259e-01 7.897029489262873403e-01 7.454595558029313285e-01 5.939428575018563805e-01 6.793183034754153304e-01 6.793183034754153304e-01 5.550235320845469111e-01 2.856861517470730139e-01 2.244048337812091509e-01 6.239701668314088373e-02 -2.039359479949918175e-01 -3.395390260235554014e-01 -6.000510401873153654e-01 -9.885382301987304388e-01 -1.182453354637137855e+00 -2.020650664360986504e+00 -2.489458176447087112e+00 -2.489458176447087112e+00 -2.753614318719928900e+00 -2.966073649027791692e+00 -2.856919369424668176e+00 -2.932049514950818114e+00 -2.893923242662553186e+00 -2.790030867795951774e+00 -2.790030867795951774e+00 -2.753118827599957630e+00 -2.699952836980576087e+00 -2.692058316469950530e+00 -2.723427066448429024e+00 -2.758630723456626743e+00 -2.708501278194573647e+00 -2.670486290546397967e+00 -2.721215949837350934e+00 -2.868496966026336192e+00 -3.209871580354775489e+00 -3.857223066177115189e+00 -3.857223066177115189e+00 -4.367334538403468969e+00 -4.919108552460016881e+00 -5.013168587739617266e+00 -5.301468874770422168e+00 -5.590667787900438057e+00 -5.668987692375868193e+00 -5.882719255383079826e+00 -6.116640892088833326e+00 -6.168001327492985020e+00 -6.478451079110199018e+00 -6.640111451229122608e+00 -6.640111451229122608e+00 -6.924448447579933941e+00 -7.206516158018640539e+00 -7.224853450073620564e+00 -7.208806634254882439e+00 -7.492732868594498719e+00 -7.471778503584934228e+00 -7.633234889193213135e+00 -7.791216198151794892e+00 -7.892055721508411281e+00 -8.006621495723248216e+00 -8.066995911661066998e+00 -8.126907719645943828e+00 -8.243126823643837753e+00 -8.337778973539393235e+00 -8.337778973539393235e+00 -8.467369390066309620e+00 -8.488180636763289044e+00 -8.502957104283794365e+00 -8.626540219507329965e+00 -8.697202946361716869e+00 -8.688919095956407546e+00 -8.732540641362042777e+00 -8.885374154764392074e+00 -8.856576657859779544e+00 -8.932168492025482465e+00 -9.006122510066806086e+00 -9.006122510066806086e+00 -9.087082230167501606e+00 -9.130832520222703863e+00 -9.144202884561982714e+00 -9.200790047390384530e+00 -9.247272163284574020e+00 -9.254941471780410822e+00 -9.276994887448212879e+00 -9.405624520949601219e+00 -9.378361405937692297e+00 -9.466714282441092365e+00 -9.479162720654597862e+00 -9.479162720654597862e+00 -9.580853271353305445e+00 -9.677303396390353640e+00 -9.662172488777983403e+00 -9.776859324904593862e+00 -9.851293533425316440e+00 -9.838674373291617314e+00 -9.915173574539970502e+00
4.958072880339104566e-02 -9.103880920273749178e-02 3.108128233923079797e-01 6.603816297521752920e-01 6.603816297521752920e-01 8.712168655482170898e-01 1.008636890957105736e+00 1.045987887883846668e+00 1.082180346385545278e+00 1.081419250009781008e+00 1.089035987926594728e+00 1.096402610996145111e+00 1.095407613850146511e+00 1.084545292891144319e+00 1.076252702985194265e+00 1.045865868098574847e+00 1.028573708595625469e+00 9.685373949180202668e-01 9.563502603680733571e-01 9.103493536774396322e-01 9.025236789719904840e-01 8.205687035889465131e-01 6.806570519588536206e-01 6.806570519588536206e-01 4.923494636355294496e-01 6.178659912764994377e-01 5.825455587863710427e-01 4.426381885176156605e-01 1.940580465725100789e-01 1.227021555329443347e-01 -1.559752299624643512e-01 -3.615420253610469592e-01 -4.076747488679942077e-01 -8.397308707408239759e-01 -1.572013398425105679e+00 -1.572013398425105679e+00 -2.345271259906479777e+00 -2.781630099263459055e+00 -2.774615132870311918e+00 -2.887718010587009054e+00 -2.982333116029072695e+00 -3.033952299467595815e+00 -2.888481486527002762e+00 -2.826178334116931978e+00 -2.821623080059012079e+00 -2.729549285812837400e+00 -2.743839169134208777e+00 -2.743839169134208777e+00 -2.663472891503021245e+00 -2.739445811121559160e+00 -2.758630723456626743e+00 -2.689064065557761118e+00 -2.619411688527998106e+00 -2.721215949837350934e+00 -3.024317743770728040e+00 -3.411920684256217307e+00 -3.618311061579454702e+00 -4.291188958519092544e+00 -4.584506544349073565e+00 -4.719750975622519107e+00 -5.202259727880164775e+00 -5.478644450039256597e+00 -5.478644450039256597e+00 -5.783655526807907066e+00 -6.042323420683830548e+00 -6.116640892088833326e+00 -6.329669953660424397e+00 -6.558742176735756324e+00 -6.614029556595090398e+00 -6.802301354782084530e+00 -6.969291464324838259e+00 -6.970622667211400447e+00 -7.329715349729626794e+00 -7.381664147018369704e+00 -7.381664147018369704e+00 -7.644298444133992732e+00 -7.762154688234923938e+00 -7.791216198151794892e+00 -7.886680709535335509e+00 -8.037534808309217738e+00 -8.066995911661066998e+00 -8.153507639393241746e+00 -8.245102355520185000e+00 -8.325467267324004439e+00 -8.390169131084380894e+00 -8.581093101698701986e+00 -8.581093101698701986e+00 -8.597980245899430329e+00 -8.762053329250953482e+00 -8.697202946361716869e+00 -8.829854343825768836e+00 -8.851086333942294715e+00 -8.885374154764392074e+00 -8.924642746484696687e+00 -9.024195353908549322e+00 -9.060791331966951745e+00 -9.157968882532045996e+00 -9.175916257227511252e+00 -9.145185251846616126e+00 -9.260403905132974955e+00 -9.260400322900098402e+00 -9.260400322900098402e+00 -9.372036274170865155e+00 -9.370594516810097474e+00 -9.405624520949601219e+00 -9.509045856996539925e+00 -9.576545348825797888e+00 -9.523318408266506552e+00 -9.594384948231803989e+00 -9.687592066477497710e+00 -9.651642059678783525e+00 -9.768518701723829523e+00 -9.861203478615205853e+00 -9.861203478615205853e+00 -9.945254783825575373e+00 -1.002074297644481682e+01
-2.002518899104382688e-01 -2.002518899104382688e-01 3.748975710276841733e-01 7.450646244447780564e-01 7.897540849360311643e-01 8.635652861077630638e-01 9.906390271039937634e-01 1.040626859523108072e+00 1.080017375632319920e+00 1.064132074903660019e+00 1.088741642568513690e+00 1.087575919716289308e+00 1.089985605436919691e+00 1.089985605436919691e+00 1.072131936657144236e+00 1.060934936090489833e+00 1.028573708595625469e+00 9.978969207633882066e-01 9.095308183514050349e-01 9.103493536774396322e-01 8.511000764560585630e-01 7.983189954416201051e-01 7.645000509329620275e-01 5.693574686660187734e-01 5.231412566304700640e-01 5.231412566304700640e-01 5.194806365619399902e-01 2.503443225417639195e-01 1.940580465725100789e-01 2.682060761373224536e-02 -2.979102478783866581e-01 -3.615420253610469592e-01 -5.769739377638989364e-01 -1.077004633481886353e+00 -1.316230470023649346e+00 -2.307072430413817710e+00 -2.576001397920035352e+00 -2.608714670673299985e+00 -3.060756374461750529e+00 -3.084653002972105984e+00 -3.084653002972105984e+00 -3.081906822464179019e+00 -2.908417888819309738e+00 -2.826178334116931978e+00 -2.740851630878950118e+00 -2.633670320300689482e+00 -2.767787469928396860e+00 -2.646735938490100803e+00 -2.796917867102492128e+00 -2.740844682817167310e+00 -2.740226732537639265e+00 -2.582949494805002022e+00 -2.582949494805002022e+00 -2.852482567526043233e+00 -3.224882042556999728e+00 -3.411920684256217307e+00 -3.798582305207754750e+00 -4.426325009129851829e+00 -4.584506544349073565e+00 -5.079700230818541939e+00 -5.283280799410170481e+00 -5.377297769839657349e+00 -5.683627638394478154e+00 -5.944700848965235096e+00 -5.944700848965235096e+00 -6.187362453392905692e+00 -6.454836284234243493e+00 -6.454836284234243493e+00 -6.665687622864620465e+00 -6.907156539485199254e+00 -6.969291464324838259e+00 -7.088307005914495917e+00 -7.284753526208550767e+00 -7.391251272991998356e+00 -7.487045310263166442e+00 -7.667872347340646932e+00 -7.651484809922263430e+00 -7.831815070442458726e+00 -8.019632165852302208e+00 -8.019632165852302208e+00 -8.097785043853548359e+00 -8.241780451485897885e+00 -8.245102355520185000e+00 -8.368680694739625281e+00 -8.428431151012020450e+00 -8.488413575182759629e+00 -8.632567744251851138e+00 -8.639188583709142222e+00 -8.717431376881084049e+00 -8.717706631921940286e+00 -8.859541103881518609e+00 -8.859541103881518609e+00 -8.926381517346079875e+00 -8.981270596586561794e+00 -9.024195353908549322e+00 -9.018976251041339154e+00 -9.190870757436325533e+00 -9.175916257227511252e+00 -9.223357067108221230e+00 -9.296943126999030582e+00 -9.294499005016080062e+00 -9.347186561756114287e+00 -9.424300108903638673e+00 -9.474680944630469170e+00 -9.482251850764463086e+00 -9.538784881933869642e+00 -9.538784881933869642e+00 -9.609770641943224945e+00 -9.716978357458270210e+00 -9.687592066477497710e+00 -9.736524931203547339e+00 -9.845400017319349217e+00 -9.891764902304991836e+00 -9.955930145316683522e+00 -1.001237384813467735e+01 -1.001588389771867682e+01
2.847047740919523423e-02 3.122886040421548604e-01 6.618496194562479840e-01 6.618496194562479840e-01 7.905892934931176841e-01 9.373592950204880925e-01 9.373592950204880925e-01 1.020643169269454198e+00 1.039874479795698914e+00 1.064132074903660019e+00 1.068712489045244629e+00 1.097902470851683132e+00 1.103597484268030060e+00 1.082075866574890632e+00 1.064356101035674129e+00 1.054412171117927954e+00 1.029479676841353442e+00 9.495439310824825840e-01 9.495439310824825840e-01 8.693406712432093508e-01 8.015000017164489732e-01 7.983189954416201051e-01 7.069245846866769600e-01 4.839669976650099459e-01 4.612701557702409971e-01 5.678402242042681625e-01 4.283349833506809867e-01 3.388162977207968551e-01 1.181880216233121145e-01 -1.734325820577207744e-01 -1.734325820577207744e-01 -5.588338517197607436e-01 -8.491161844439802930e-01 -1.077004633481886353e+00 -1.539048511340726400e+00 -2.213976831447727278e+00 -2.576001397920035352e+00 -2.762322112642876082e+00 -2.902675542632410899e+00 -2.971067764413714229e+00 -3.078697831406608465e+00 -3.065322668987687571e+00 -3.063687159147630901e+00 -2.877088370140468587e+00 -2.723458797743678161e+00 -2.723458797743678161e+00 -2.596295903634595170e+00 -2.763697552362259557e+00 -2.796917867102492128e+00 -2.722022239976741531e+00 -2.747261670799512778e+00 -2.774114021124207685e+00 -2.712575940506861905e+00 -2.970250617442792063e+00 -3.157320312843233445e+00 -3.632999364616810389e+00 -4.274396620107222766e+00 -4.274396620107222766e+00 -4.719185436462954186e+00 -5.162577236846412454e+00 -5.283280799410170481e+00 -5.465026759241247589e+00 -5.742793830675230637e+00 -5.856836370692482419e+00 -6.073878650507126054e+00 -6.298830960410152002e+00 -6.342033522749440877e+00 -6.569847919873232023e+00 -6.817439426558502547e+00 -6.817439426558502547e+00 -7.051463559829098671e+00 -7.208455805369048619e+00 -7.284753526208550767e+00 -7.416111592945595632e+00 -7.576007463094002858e+00 -7.667872347340646932e+00 -7.833615249615444753e+00 -7.927405347591706786e+00 -7.967955309962523991e+00 -8.077854817111948194e+00 -8.156903647408963565e+00 -8.199342049447430725e+00 -8.326242292701158121e+00 -8.453142535954885517e+00 -8.453142535954885517e+00 -8.542999022140715937e+00 -8.663612810742545634e+00 -8.751254483121524430e+00 -8.751254483121524430e+00 -8.721013586425817365e+00 -8.886674963583017117e+00 -8.908367575068291799e+00 -8.953714996061885145e+00 -9.015532744346547389e+00 -9.062748332484542146e+00 -9.127696115382073927e+00 -9.201832907221730196e+00 -9.205840761262154004e+00 -9.257768441764802958e+00 -9.327393239089452948e+00 -9.327393239089452948e+00 -9.364887506817900942e+00 -9.492955119014300891e+00 -9.414586114544913897e+00 -9.510225201878339973e+00 -9.569760021099829927e+00 -9.606650093131202439e+00 -9.629690697167626823e+00 -9.743441447481751894e+00 -9.729059246179311060e+00 -9.822030525950292912e+00 -9.927166633359650660e+00 -9.927166633359650660e+00 -9.985505717554346461e+00 -1.003041839980840777e+01 -1.003041839980840777e+01
-6.769183125415045854e-02 3.829983810348139839e-01 5.685806478532134944e-01 7.609104200052836386e-01 8.497006764642343057e-01 8.840795629369827546e-01 9.466037540468077438e-01 1.013298593229654765e+00 1.013298593229654765e+00 1.044956836681603107e+00 1.081597908860018498e+00 1.097902470851683132e+00 1.098891279265079124e+00 1.077654314124184110e+00 1.064356101035674129e+00 1.036692405578711673e+00 1.026491499832335563e+00 9.982986904049138133e-01 9.009174875721239761e-01 8.507206825337054745e-01 8.217526447863184869e-01 7.384328415536399737e-01 5.359228109460447698e-01 5.359228109460447698e-01 3.240154156053613455e-01 3.870047856946843279e-01 4.283349833506809867e-01 2.623590474156278218e-01 3.006086163530057725e-02 -7.115878187794377752e-02 -3.889296542706899285e-01 -5.927552836560231464e-01 -6.723644494258790294e-01 -1.282790864726344848e+00 -1.927966709757431119e+00 -1.927966709757431119e+00 -2.643455144701353898e+00 -2.834283320851107568e+00 -2.902675542632410899e+00 -2.935275906388900236e+00 -3.046511881293697321e+00 -3.065322668987687571e+00 -2.969886576667449596e+00 -2.898091810590432083e+00 -2.861654635810229053e+00 -2.668326170369308414e+00 -2.609764848897788703e+00 -2.609764848897788703e+00 -2.714203016332914054e+00 -2.680620859356650065e+00 -2.747261670799512778e+00 -2.737603369946587151e+00 -2.770099177714598682e+00 -2.970250617442792063e+00 -3.214584198217647959e+00 -3.818867491971134065e+00 -4.387697653455693292e+00 -4.553441544959323295e+00 -4.823697874608130931e+00 -5.264236881445108374e+00 -5.372727471282708223e+00 -5.642068767370918003e+00 -5.807954501743165743e+00 -5.928432098807653539e+00 -6.349029767836642080e+00 -6.435587734241326352e+00 -6.435587734241326352e+00 -6.642106623111684982e+00 -6.872419373389234032e+00 -6.992035172401549481e+00 -7.092285485426160996e+00 -7.341591152623514915e+00 -7.385070689301470814e+00 -7.539111162009096034e+00 -7.593599070308345134e+00 -7.630303882467471155e+00 -7.948904047022201880e+00 -7.942940997037735151e+00 -7.942940997037735151e+00 -8.114434654119456525e+00 -8.241365488624222024e+00 -8.283803890662689184e+00 -8.368265731877949420e+00 -8.494198290713086408e+00 -8.467323660051945922e+00 -8.637408792543217473e+00 -8.694768312797714671e+00 -8.684529925445316323e+00 -8.812197626030483733e+00 -8.769989058085052136e+00 -8.863853169945157262e+00 -8.965648816194288884e+00 -8.993167042004669653e+00 -8.993167042004669653e+00 -9.106294722159399058e+00 -9.157834423256469236e+00 -9.201832907221730196e+00 -9.235765265296796755e+00 -9.292179816421386462e+00 -9.321964077504437896e+00 -9.347021652596033903e+00 -9.394396964750674428e+00 -9.448593304484822042e+00 -9.449511422401680960e+00 -9.578336936784054956e+00 -9.578336936784054956e+00 -9.627724806679104574e+00 -9.663020120314921968e+00 -9.743441447481751894e+00 -9.757773940897791931e+00 -9.845866065571668102e+00 -9.864529576064231975e+00 -9.967058927862819218e+00 -9.995754184607736903e+00 -1.003276853877727071e+01 -1.008522449755964345e+01
-9.190778269661464828e-02 -9.190778269661464828e-02 6.128564134176981426e-01 8.097628967307645143e-01 8.497006764642343057e-01 8.991322619272015260e-01 9.452968854944889809e-01 1.003487695373721955e+00 1.034540060508729153e+00 1.031330925659076359e+00 1.054768413419577611e+00 1.074996766330425846e+00 1.060210532649155990e+00 1.060210532649155990e+00 1.039678589152107646e+00 1.019146645655059302e+00 1.026491499832335563e+00 9.548894827172887956e-01 8.654310619752041411e-01 8.507206825337054745e-01 7.593168069134803577e-01 6.550083312268178970e-01 5.768284325460960593e-01 4.021921819313318269e-01 3.901436570173337781e-01 3.627827965487196993e-01 3.259516193084803781e-01 9.824544055989675728e-02 -6.895508094800888166e-02 -1.835950466205608089e-01 -5.122123350931342411e-01 -9.028247970809271106e-01 -9.028247970809271106e-01 -1.537467382797486071e+00 -2.207399467778070612e+00 -2.329446046832939210e+00 -2.846698375568643691e+00 -2.977329232997505848e+00 -2.970172124818520221e+00 -3.056839458782502739e+00 -3.156774846768114706e+00 -3.070648661406856661e+00 -2.932999630022268267e+00 -2.777359270376611011e+00 -2.777359270376611011e+00 -2.659067587993473758e+00 -2.605045802286204193e+00 -2.623233794160982235e+00 -2.582892475364971574e+00 -2.647944469164092318e+00 -2.712347013178382227e+00 -2.783937730919451070e+00 -2.859451698081006299e+00 -3.012700397509551209e+00 -3.543706705198690798e+00 -4.293992236767525839e+00 -4.293992236767525839e+00 -4.700717008882896231e+00 -5.132102277426833226e+00 -5.264236881445108374e+00 -5.485489597951641372e+00 -5.713599255119834908e+00 -5.807954501743165743e+00 -6.114070366940077328e+00 -6.359712142426388937e+00 -6.418793259563711828e+00 -6.605376979494268497e+00 -6.732583529709450509e+00 -6.802501451549341382e+00 -7.029234048603836271e+00 -7.298111615945559905e+00 -7.298111615945559905e+00 -7.463630165132756566e+00 -7.600847983681575215e+00 -7.593599070308345134e+00 -7.648086978607592457e+00 -7.769663162247933741e+00 -7.856302079642835778e+00 -8.068282426604222124e+00 -8.156217991027087777e+00 -8.198927086585754864e+00 -8.325827329839482260e+00 -8.452727573093207880e+00 -8.452727573093207880e+00 -8.506248988539713451e+00 -8.666787021818576520e+00 -8.694768312797714671e+00 -8.729871267181486871e+00 -8.843162015355256145e+00 -8.769989058085052136e+00 -8.925165597517475291e+00 -8.999894617079396753e+00 -8.983958350746240384e+00 -9.049794892106534761e+00 -9.118883238881720033e+00 -9.118883238881720033e+00 -9.212795057007133082e+00 -9.236665521658753875e+00 -9.292179816421386462e+00 -9.346985028009845209e+00 -9.407706446017035873e+00 -9.394396964750674428e+00 -9.475257385977824853e+00 -9.485562645255811276e+00 -9.538305376058804796e+00 -9.600735160265791990e+00 -9.648799520227008486e+00 -9.668438008606051071e+00 -9.769801196625147455e+00 -9.787541774562868113e+00 -9.787541774562868113e+00 -9.892542940688976216e+00 -9.982038232011351653e+00 -9.995754184607736903e+00 -1.005286394804971550e+01 -1.009397261884732266e+01
2.683844474136343750e-01 5.859897413801792299e-01 7.442190436624542826e-01 7.925631939706143658e-01 8.589191980112630409e-01 8.928774318533885257e-01 8.939669114190900157e-01 9.185152687795177240e-01 1.008420583881084243e+00 1.027552041435218388e+00 1.027552041435218388e+00 1.041431281206653292e+00 1.066572165647277748e+00 1.054806815992042290e+00 1.049403099334928591e+00 1.005689979858687799e+00 9.643151590500204096e-01 9.004346615707184975e-01 8.461684353736120823e-01 8.111648357780976148e-01 7.165782092378859547e-01 5.401198213068770793e-01 5.401198213068770793e-01 3.973546925724662504e-01 4.275075163860596605e-01 3.627827965487196993e-01 2.660959435066314605e-01 3.577289796537659605e-02 -6.895508094800888166e-02 -4.248052528944929462e-01 -6.569415134881595453e-01 -7.774833964483092164e-01 -1.369772975611367682e+00 -2.102726197508291150e+00 -2.102726197508291150e+00 -2.739084043466432306e+00 -3.017286704010988529e+00 -2.977329232997505848e+00 -3.116685040774676452e+00 -3.202145787806788935e+00 -3.156774846768114706e+00 -3.108220659895730265e+00 -2.882367537427050763e+00 -2.823926520139067531e+00 -2.684224584328164909e+00 -2.634243127104664683e+00 -2.607515893489492420e+00 -2.582281361334283432e+00 -2.618145242085138324e+00 -2.618145242085138324e+00 -2.625967656955999097e+00 -2.682130786981747228e+00 -2.859451698081006299e+00 -3.225883465078445589e+00 -3.861144616384727613e+00 -3.988412130149952439e+00 -4.591787766444190844e+00 -4.906418271272108278e+00 -4.996605268284183943e+00 -5.401422770124176154e+00 -5.635309670410197036e+00 -5.635309670410197036e+00 -5.873115172811099960e+00 -6.215566514973549062e+00 -6.359712142426388937e+00 -6.415624336493306323e+00 -6.712009526104612434e+00 -6.732583529709450509e+00 -6.962896279986997783e+00 -7.157819931622711351e+00 -7.254632079267604006e+00 -7.420150628454802444e+00 -7.536477791494464284e+00 -7.536477791494464284e+00 -7.655335891980822538e+00 -7.725810742568921974e+00 -7.725810742568921974e+00 -7.895004591814421602e+00 -8.106984938775807947e+00 -8.156217991027087777e+00 -8.240641931945056342e+00 -8.367850769016273560e+00 -8.410289171054742496e+00 -8.534290390514275515e+00 -8.548316856785643125e+00 -8.629234870325515061e+00 -8.726516459819338323e+00 -8.816981289351884854e+00 -8.816981289351884854e+00 -8.847524496321055310e+00 -8.965804950876018253e+00 -8.999894617079396753e+00 -9.021749604300874026e+00 -9.084057039866522132e+00 -9.137765549868184678e+00 -9.187634361968536112e+00 -9.223757206792534191e+00 -9.265689769331439507e+00 -9.316640379666512928e+00 -9.386702290262071813e+00 -9.386702290262071813e+00 -9.423906422683449691e+00 -9.537266422942355604e+00 -9.485562645255811276e+00 -9.566385550239271396e+00 -9.631710299431752276e+00 -9.648799520227008486e+00 -9.697508206160057043e+00 -9.796160945768541239e+00 -9.787515543297573117e+00 -9.869701605193041516e+00 -9.961254159970994948e+00 -9.961254159970994948e+00 -9.999971704385387739e+00 -1.005826905666927651e+01 -1.005826905666927651e+01
7.235497938300709808e-02 6.737826402380939772e-01 7.091499282249019709e-01 7.925631939706143658e-01 8.278907861127490220e-01 8.723140728387095422e-01 8.939669114190900157e-01 9.291724687266453842e-01 9.954536771231718983e-01 1.006115650219210789e+00 9.876479974561566122e-01 1.060266384537982276e+00 1.060266384537982276e+00 1.062307066915351816e+00 1.047710844386112505e+00 1.047710844386112505e+00 9.916371221706307137e-01 8.944746042129282371e-01 8.461684353736120823e-01 7.796368630941474809e-01 6.483272686248082728e-01 6.281610790438555414e-01 4.520552853695259943e-01 4.357478450466170106e-01 4.888810906863972350e-01 2.991634206294511156e-01 8.937595940264253525e-02 8.937595940264253525e-02 -1.841215722445855019e-01 -5.383039150137162165e-01 -6.569415134881595453e-01 -8.320380529504657341e-01 -1.580501018349674824e+00 -1.967351306154125457e+00 -2.646175001197544230e+00 -2.824681191351891663e+00 -2.959466329814938845e+00 -3.141604652167591993e+00 -3.247755603406811353e+00 -3.247755603406811353e+00 -3.225316751426576811e+00 -3.046511328844181410e+00 -2.882367537427050763e+00 -2.824453323023808249e+00 -2.606003554422728019e+00 -2.634243127104664683e+00 -2.581670247303595733e+00 -2.589896939479026550e+00 -2.621693944152372779e+00 -2.509792335875189018e+00 -2.580665947144789918e+00 -2.580665947144789918e+00 -3.056804244709404372e+00 -3.544386684930911358e+00 -3.544386684930911358e+00 -4.344616026506072259e+00 -4.777249201227414588e+00 -4.906418271272108278e+00 -5.221048776100026600e+00 -5.543383639271098673e+00 -5.625335808875914445e+00 -5.785129742868751812e+00 -5.938275843879034177e+00 -6.076029074400095098e+00 -6.401177157133750129e+00 -6.626024983584148487e+00 -6.626024983584148487e+00 -6.823060436307215149e+00 -7.053190262303852265e+00 -7.157819931622711351e+00 -7.223592625615205876e+00 -7.463506710949391554e+00 -7.542189640964043207e+00 -7.662584805354054396e+00 -7.693457099429959811e+00 -7.751436454858431802e+00 -7.822988625140412822e+00 -8.020346021380909463e+00 -8.020346021380909463e+00 -8.215301152273951857e+00 -8.325412366977804624e+00 -8.367850769016273560e+00 -8.452312610231532020e+00 -8.574382490315466399e+00 -8.548316856785643125e+00 -8.693130810482532667e+00 -8.758264606840961974e+00 -8.768783688398396947e+00 -8.876036815840301131e+00 -8.937371635856202090e+00 -8.865573261311723741e+00 -9.023811550999893072e+00 -9.078161651110791652e+00 -9.078161651110791652e+00 -9.119174082148141736e+00 -9.217434300680604764e+00 -9.294171740496686596e+00 -9.294171740496686596e+00 -9.339406679640100961e+00 -9.417136395263870696e+00 -9.468391239438037843e+00 -9.453415880616224953e+00 -9.563374215196358108e+00 -9.530232517475658582e+00 -9.631646147710913652e+00 -9.662685438597712562e+00 -9.665247353042214939e+00 -9.731996292005188565e+00 -9.817257145697356080e+00 -9.817257145697356080e+00 -9.893537144814416706e+00 -9.977109837801981129e+00 -9.997017536159885864e+00 -1.000418922416303857e+01 -1.007213605417687319e+01 -1.010272074013500188e+01
6.074909397423420288e-01 6.783655274198638896e-01 6.657078713721361618e-01 7.348991307610459600e-01 8.556514793947480602e-01 8.556514793947480602e-01 9.133854796286967614e-01 9.837287901344099472e-01 9.954536771231718983e-01 1.000167002078340861e+00 1.006234182351757767e+00 9.999746800406654756e-01 1.035440009528041383e+00 1.021914608267866065e+00 1.029934322026570204e+00 1.011546410381535699e+00 9.346289309376510923e-01 9.346289309376510923e-01 8.276377825106414621e-01 6.898472055558351190e-01 6.483272686248082728e-01 5.536794671361278120e-01 4.452194849700136237e-01 4.357478450466170106e-01 3.421925439634204147e-01 2.363978717537158214e-01 1.536774158304342053e-01 -1.314176837720283930e-01 -3.308744222880385943e-01 -4.037308469729578020e-01 -7.562096247748387734e-01 -1.420003881431251225e+00 -1.420003881431251225e+00 -2.211943039496356178e+00 -2.622288607510138370e+00 -2.824681191351891663e+00 -3.012594045198333514e+00 -3.221163664322859166e+00 -3.217215881550766987e+00 -3.260550357371151176e+00 -3.220774722630172171e+00 -3.137758934475284978e+00 -2.909685840870687379e+00 -2.706876323808305784e+00 -2.706876323808305784e+00 -2.606376513851305088e+00 -2.565572956092891932e+00 -2.589896939479026550e+00 -2.548573404461419223e+00 -2.470680115136287380e+00 -2.494334194417678230e+00 -2.888407047690739748e+00 -3.254190722064791874e+00 -3.297507880146648862e+00 -3.933263876197142572e+00 -4.555382060395729127e+00 -4.555382060395729127e+00 -5.057237373290135451e+00 -5.475157527851743922e+00 -5.543383639271098673e+00 -5.736095718196079218e+00 -6.031326024576304512e+00 -5.938275843879034177e+00 -6.223681509519816579e+00 -6.495445160901804904e+00 -6.712044498479594168e+00 -6.827738793800385508e+00 -6.870072544777384493e+00 -7.086321528941159187e+00 -7.221009494806121864e+00 -7.386700537742141748e+00 -7.506812125492684729e+00 -7.595980593294235916e+00 -7.824915840749056883e+00 -7.832266367824467501e+00 -7.832266367824467501e+00 -7.920136848212065317e+00 -8.059048533552493510e+00 -8.145687450947395547e+00 -8.266951563859869623e+00 -8.368353903465969523e+00 -8.409874208193064860e+00 -8.536774451446792256e+00 -8.614474590116655506e+00 -8.590384725031576352e+00 -8.716823160024187445e+00 -8.803368725862656063e+00 -8.803368725862656063e+00 -8.904249145672043397e+00 -8.902314709407546545e+00 -8.990923674678375832e+00 -9.044805454815531220e+00 -9.108039714036095802e+00 -9.118975607952041429e+00 -9.201318437663758232e+00 -9.247234239392671640e+00 -9.236720986358976759e+00 -9.297572984503084115e+00 -9.399994947655150312e+00 -9.399994947655150312e+00 -9.507373266043805060e+00 -9.532191463701490619e+00 -9.532191463701490619e+00 -9.609369440942248985e+00 -9.658300753174343001e+00 -9.662685438597712562e+00 -9.680067168728392346e+00 -9.766484377850321863e+00 -9.822520694911936801e+00 -9.845030612177509965e+00 -9.917372684435791896e+00 -9.949661723603526298e+00 -1.001199684030842008e+01 -1.008075885978178299e+01 -1.008075885978178299e+01 -1.011146886142267931e+01
6.530734733600256359e-01 6.783655274198638896e-01 6.775272637226773531e-01 7.145881564196283620e-01 8.143100303802159878e-01 8.850588042502398611e-01 9.123677101552698510e-01 9.550348715672556388e-01 9.867780045301018932e-01 1.014815108156388979e+00 1.014815108156388979e+00 1.031663862535311171e+00 1.031349406262897395e+00 1.021914608267866065e+00 1.008917768051948993e+00 9.812848009112549175e-01 9.732584192981689197e-01 8.687108160201393314e-01 7.857132095679966177e-01 7.431513114342548354e-01 6.030136658470084399e-01 4.756419578168671336e-01 4.756419578168671336e-01 4.368923085430292952e-01 3.012486262748003130e-01 2.363978717537158214e-01 9.080501566043781836e-02 -2.156553875143817633e-01 -3.308744222880385943e-01 -6.007495158957671944e-01 -1.064608531943831204e+00 -1.259802728768897762e+00 -1.965464504121336997e+00 -2.375810072135119633e+00 -2.705476493762950518e+00 -2.786155640148901380e+00 -3.225111447094951345e+00 -3.211737172807453078e+00 -3.211737172807453078e+00 -3.197396038619091829e+00 -3.108942057794946034e+00 -3.108942057794946034e+00 -2.950574163774741798e+00 -2.794060938495902757e+00 -2.624577638876195884e+00 -2.608273987456021903e+00 -2.470984181337562813e+00 -2.504353575564245205e+00 -2.391497392391979115e+00 -2.658425044323426967e+00 -2.717222668850524769e+00 -2.975293753328256408e+00 -3.467570929580573669e+00 -3.467570929580573669e+00 -4.115162606925855115e+00 -4.658646747636901786e+00 -4.863709956701319115e+00 -5.056288841656061628e+00 -5.406632974558339910e+00 -5.604787722491384017e+00 -5.936401214133680604e+00 -6.059783889990351113e+00 -6.141732699755083402e+00 -6.335370977701725970e+00 -6.628221743724492576e+00 -6.628221743724492576e+00 -6.829018366651350647e+00 -7.013390280022393064e+00 -7.086321528941159187e+00 -7.220320511972650124e+00 -7.380012153814956122e+00 -7.506812125492684729e+00 -7.698396494561648318e+00 -7.784243403101834602e+00 -7.876397710834059929e+00 -7.920107188712223412e+00 -8.017285071283716036e+00 -8.017314730783557053e+00 -8.184389963118981370e+00 -8.342890057455807806e+00 -8.342890057455807806e+00 -8.447618838929608742e+00 -8.578797890623585332e+00 -8.614474590116655506e+00 -8.632452593277504249e+00 -8.740515509565840446e+00 -8.790012753862585626e+00 -8.871780847387322311e+00 -8.925261076895520063e+00 -8.969631398219776841e+00 -9.007322874994891038e+00 -9.079625801408660379e+00 -9.079625801408660379e+00 -9.153974134390738371e+00 -9.217896334554961157e+00 -9.247234239392671640e+00 -9.274306450734087548e+00 -9.330191727321816231e+00 -9.377981165549964970e+00 -9.447930414799630583e+00 -9.528333632122510721e+00 -9.482925338548998440e+00 -9.590451446703898597e+00 -9.616901613371940272e+00 -9.616901613371940272e+00 -9.693660577763674624e+00 -9.766022207427104362e+00 -9.766484377850321863e+00 -9.848880444055332362e+00 -9.873775030984830892e+00 -9.917372684435791896e+00 -9.992965515632965534e+00 -1.002697614445695429e+01 -1.000840674394068763e+01 -1.008600305168447164e+01 -1.012021698271036030e+01
5.984847641589995382e-01 6.855259257532756445e-01 7.552981944604661990e-01 8.330556587346715780e-01 8.330556587346715780e-01 8.990544650712204433e-01 9.635758612784521837e-01 1.001787906592521038e+00 1.030662194924841568e+00 1.040645258800584338e+00 1.016820315523419449e+00 1.026803379399161775e+00 1.042555105345756461e+00 1.025014638371176900e+00 9.911171972798651364e-01 9.710802245110594644e-01 9.537815085387862934e-01 8.365289568751548277e-01 7.119183203644470215e-01 7.119183203644470215e-01 5.701659946764783271e-01 3.835276939273331021e-01 3.236248395990395377e-01 3.539625349135773202e-01 2.587175806926415023e-01 1.638451030988738455e-01 -9.461940553093982353e-02 -2.856606979707513316e-01 -3.999755624138568999e-01 -8.691226028356882072e-01 -1.649032569223630951e+00 -1.649032569223630951e+00 -2.351334987986360758e+00 -2.648803991959038928e+00 -2.705476493762950518e+00 -3.044508672921224957e+00 -3.110825687314048515e+00 -3.211355531304720845e+00 -3.256954304545529588e+00 -3.248271089501955089e+00 -3.281187730776413680e+00 -3.064615925398136653e+00 -2.848681628400151933e+00 -2.848681628400151933e+00 -2.621829402553362165e+00 -2.519062554356232830e+00 -2.470984181337562813e+00 -2.446353142841319883e+00 -2.361821354541107976e+00 -2.658425044323426967e+00 -2.905004077511935456e+00 -3.233082880295478745e+00 -3.346733636702139858e+00 -3.884812780220963990e+00 -4.281434322022819927e+00 -4.484274883090391128e+00 -4.950874782207335123e+00 -5.283895482074644434e+00 -5.283895482074644434e+00 -5.642478927945210998e+00 -5.986212145835664522e+00 -6.059783889990351113e+00 -6.243907185937893622e+00 -6.501602226040121835e+00 -6.447060445883637136e+00 -6.790522695815518261e+00 -6.840328721886726804e+00 -6.923802848642583996e+00 -7.147389263053882225e+00 -7.353913221245935716e+00 -7.353913221245935716e+00 -7.599510906007887812e+00 -7.675567527968906845e+00 -7.784243403101834602e+00 -7.863049307123629816e+00 -8.013602697118205498e+00 -8.017285071283716036e+00 -8.114492613355047013e+00 -8.223092475290568970e+00 -8.309731392685469231e+00 -8.419364351115959266e+00 -8.536359488585116395e+00 -8.536359488585116395e+00 -8.654566689917846389e+00 -8.705437387091370383e+00 -8.740515509565840446e+00 -8.821760900884209278e+00 -8.899912927599205048e+00 -8.925261076895520063e+00 -8.998437706654037527e+00 -9.012039916062139611e+00 -9.065552993139780469e+00 -9.137513823682521519e+00 -9.188972660829431760e+00 -9.188268338593562845e+00 -9.277034178104740292e+00 -9.344439279721891367e+00 -9.344439279721891367e+00 -9.410778133580391724e+00 -9.478724434335390470e+00 -9.528333632122510721e+00 -9.512434796481773702e+00 -9.617528678211439086e+00 -9.642217953232680827e+00 -9.685055665716390649e+00 -9.719729822267240138e+00 -9.721454609510640665e+00 -9.800972463695455161e+00 -9.876740350496920229e+00 -9.876740350496920229e+00 -9.941208224057167087e+00 -1.000882119346395349e+01 -1.002697614445695429e+01 -1.003103630567523474e+01 -1.009987004919206655e+01 -1.012021698271036030e+01
6.452071234770212493e-01 6.928333616810367079e-01 7.407770360585125280e-01 7.786396769935413076e-01 8.162690305510749145e-01 9.188141526460582575e-01 9.401125917087320705e-01 9.993200690354997473e-01 1.048321218007243871e+00 1.048321218007243871e+00 1.074453265953492220e+00 1.064377935219720905e+00 1.042555105345756461e+00 1.038274433820547848e+00 9.784557071187671706e-01 9.710802245110594644e-01 8.891015523349503624e-01 8.248695751913779350e-01 7.630251140896353590e-01 6.170226373588231228e-01 4.902728979153633260e-01 4.902728979153633260e-01 2.845487499808755372e-01 3.107725533907657600e-01 2.587175806926415023e-01 1.294440735570594747e-01 -1.582498252199059374e-01 -2.856606979707513316e-01 -5.109938892909003938e-01 -9.216604744637244551e-01 -1.364312433362620869e+00 -2.156986084358907263e+00 -2.628467947593878584e+00 -2.690903549409896289e+00 -2.987836171117312922e+00 -3.098637256184199273e+00 -3.098637256184199273e+00 -3.271071745361446848e+00 -3.326054901266104924e+00 -3.248271089501955089e+00 -3.301182758463086842e+00 -3.044166285843698638e+00 -2.891494336631686313e+00 -2.683398998540976521e+00 -2.551472398703548805e+00 -2.600990538077149417e+00 -2.515549254260355916e+00 -2.382371164080297810e+00 -2.382371164080297810e+00 -2.646673518459565333e+00 -3.060387134185802438e+00 -3.233082880295478745e+00 -3.583924658545583952e+00 -4.080851283716666167e+00 -4.281434322022819927e+00 -4.825135940084392061e+00 -5.066311007502672936e+00 -5.180627172421749194e+00 -5.511502122493228129e+00 -5.873188659574759996e+00 -5.873188659574759996e+00 -6.114335956565006391e+00 -6.372654600002887193e+00 -6.372654600002887193e+00 -6.630349640105116293e+00 -6.746647077314799290e+00 -6.840328721886726804e+00 -6.977533152507781722e+00 -7.208456997166606151e+00 -7.281388246085372273e+00 -7.454670018379085938e+00 -7.538887290848363953e+00 -7.603068018390407801e+00 -7.798868579581585081e+00 -7.976568889054588496e+00 -7.976568889054588496e+00 -8.108678921868481382e+00 -8.211640836426699508e+00 -8.223092475290568970e+00 -8.348433904857055055e+00 -8.440102406277278035e+00 -8.502277370894532282e+00 -8.620821329800374855e+00 -8.694658789719035497e+00 -8.674520461523435699e+00 -8.782125467478826053e+00 -8.872538800791179625e+00 -8.872538800791179625e+00 -8.954345512660903950e+00 -8.988316867385625741e+00 -9.012039916062139611e+00 -9.098194071353475465e+00 -9.166987933328947236e+00 -9.188972660829431760e+00 -9.238548866854705111e+00 -9.306834116816808944e+00 -9.311891915109198337e+00 -9.362810470140550123e+00 -9.462885852506650153e+00 -9.462885852506650153e+00 -9.549293998201218159e+00 -9.584300119776530735e+00 -9.584300119776530735e+00 -9.665415102525191315e+00 -9.712237367020659207e+00 -9.719729822267240138e+00 -9.762842050292885432e+00 -9.835460549540586683e+00 -9.906481952896703191e+00 -9.902519449792151818e+00 -9.965043763678540500e+00 -1.002467687129493967e+01 -1.004195544860548672e+01 -1.010961339898138078e+01 -1.011373704669966500e+01 -1.012981214514360495e+01
6.482254056625214034e-01 6.863316122013662923e-01 6.863316122013662923e-01 7.443916669919988793e-01 7.858650341974693365e-01 9.188141526460582575e-01 9.488764743900073295e-01 1.009960695521422869e+00 1.031163671730369380e+00 1.062675530901467491e+00 1.099021225283134839e+00 1.082519981991016955e+00 1.067934612182456222e+00 1.023862966953189568e+00 1.023862966953189568e+00 9.602324294562940565e-01 8.581791195535826144e-01 8.248695751913779350e-01 7.366918017549102249e-01 5.702603551633328438e-01 5.304831023336753493e-01 1.966780991536132284e-01 1.526443333129199054e-01 2.371886807995995661e-01 2.413997892291616654e-01 -3.650644055034230062e-02 -3.650644055034230062e-02 -4.115686293824335484e-01 -6.584076738634041526e-01 -9.216604744637244551e-01 -1.334806132717666349e+00 -2.384738998239828600e+00 -2.628467947593878584e+00 -2.910899310929658590e+00 -3.025790515543182124e+00 -2.951292171013569110e+00 -3.235211331119659306e+00 -3.338398024723174373e+00 -3.338398024723174373e+00 -3.386084080506516436e+00 -3.163759389744306816e+00 -3.163759389744306816e+00 -2.878041940253081243e+00 -2.559134623974079759e+00 -2.551472398703548805e+00 -2.578404318293620712e+00 -2.450740894764344979e+00 -2.385996573268646337e+00 -2.513219444182208662e+00 -2.799334275277762796e+00 -2.938011718897220792e+00 -3.300313657031482606e+00 -3.885808102063055713e+00 -3.885808102063055713e+00 -4.514178980245096895e+00 -5.016288113296266005e+00 -5.066311007502672936e+00 -5.285020664414703973e+00 -5.629757409946307689e+00 -5.739108762911810935e+00 -6.056241860921877773e+00 -6.180475398387400787e+00 -6.242734324947067037e+00 -6.501402014067879875e+00 -6.700104634870395870e+00 -6.700104634870395870e+00 -6.917638859081561620e+00 -7.125356643897310605e+00 -7.208456997166606151e+00 -7.342191459056294889e+00 -7.525146955725588782e+00 -7.538887290848363953e+00 -7.734687852039540346e+00 -7.831615560594705094e+00 -7.901403463479779177e+00 -8.059621039323225489e+00 -8.134069190708729025e+00 -8.298831371369033150e+00 -8.308818718998191244e+00 -8.453280487666933851e+00 -8.535536961328471506e+00 -8.551178727571050686e+00 -8.662089665747679135e+00 -8.716588329769365373e+00 -8.716588329769365373e+00 -8.828558623659864324e+00 -8.907123838255440518e+00 -8.928045007811086009e+00 -8.985477181442435679e+00 -9.049412950664285304e+00 -9.043147022087349995e+00 -9.153885048634604615e+00 -9.196462042975372952e+00 -9.225646953210533852e+00 -9.270387356615348295e+00 -9.349477379484309125e+00 -9.349477379484309125e+00 -9.395429212959284015e+00 -9.490779108448844426e+00 -9.507527321654691832e+00 -9.570254364279925596e+00 -9.614466569428429921e+00 -9.642980244829178815e+00 -9.706537112156608416e+00 -9.739419068324927764e+00 -9.740060510025649876e+00 -9.831078339974473224e+00 -9.901599942342123484e+00 -9.901599942342123484e+00 -9.931263868599472744e+00 -1.001459030683076534e+01 -1.001459030683076534e+01 -1.005693475275402271e+01 -1.012530805816517443e+01 -1.011373704669966500e+01 -1.014249863480434577e+01
6.786717387528963252e-01 6.738096096854993000e-01 7.012667644677185175e-01 7.670974761205945347e-01 7.670974761205945347e-01 9.003567447760552067e-01 9.988889700140927141e-01 1.009960695521422869e+00 1.052248147811101431e+00 1.080271939741330733e+00 1.099021225283134839e+00 1.062236945909789787e+00 1.058893293627402477e+00 1.028374760063455406e+00 9.881673919623635838e-01 9.338017861468157488e-01 8.942354383895716463e-01 7.789234025915640069e-01 6.459351869611116292e-01 6.459351869611116292e-01 4.712603620044071295e-01 2.391172824607658565e-01 1.526443333129199054e-01 1.376794861136782233e-01 1.944408284196478542e-01 7.904428887983719343e-02 -2.759763437829765853e-01 -4.880921276397178765e-01 -5.798655838593774758e-01 -1.132447487407888698e+00 -1.915513453896051210e+00 -1.915513453896051210e+00 -2.742522246550828324e+00 -2.936761152357028948e+00 -3.025790515543182124e+00 -3.046216231319957224e+00 -3.239190265287829273e+00 -3.278826272791584007e+00 -3.341268176843960269e+00 -3.360379051013227425e+00 -3.413035303659028852e+00 -3.104054810436417178e+00 -2.674984654355769376e+00 -2.674984654355769376e+00 -2.494183869792109931e+00 -2.426911768994367780e+00 -2.419224997181456338e+00 -2.419224997181456338e+00 -2.680653864642760009e+00 -3.087665770247892905e+00 -3.087665770247892905e+00 -3.527397927063828487e+00 -4.012204016941928408e+00 -4.180637436725838540e+00 -4.691541942536847642e+00 -5.055922950725649123e+00 -5.149211887653979858e+00 -5.509145340642832345e+00 -5.740272510725509925e+00 -5.832828160773552817e+00 -6.109255592906540855e+00 -6.355431357962888939e+00 -6.355431357962888939e+00 -6.539255634854969301e+00 -6.806410212341372556e+00 -6.886618829434056899e+00 -6.994906734857387676e+00 -7.212161025469669084e+00 -7.273453212249665789e+00 -7.440538168674806663e+00 -7.567087168596687619e+00 -7.636111642063579730e+00 -7.763654406647075845e+00 -7.982357693038128588e+00 -7.982357693038128588e+00 -8.111832665191027303e+00 -8.272416103995501757e+00 -8.298831371369033150e+00 -8.362498452593609244e+00 -8.496160103808330533e+00 -8.535536961328471506e+00 -8.636200838323091489e+00 -8.691820331259018317e+00 -8.734750889520224604e+00 -8.790722542143159401e+00 -8.885257194927454805e+00 -8.885257194927454805e+00 -8.956257430590637725e+00 -9.061917269696960986e+00 -9.061917269696960986e+00 -9.079245414280771698e+00 -9.187499621580775155e+00 -9.196462042975372952e+00 -9.251445444213471703e+00 -9.302100156657838070e+00 -9.336634055528877596e+00 -9.394706818947096139e+00 -9.427427726630847715e+00 -9.453840524694797409e+00 -9.533903891931418073e+00 -9.571453712347320675e+00 -9.571453712347320675e+00 -9.671211832888481297e+00 -9.745334255322857686e+00 -9.739419068324927764e+00 -9.756434374104328455e+00 -9.863606406248155878e+00 -9.869948635385719982e+00 -9.936223555296486154e+00 -9.960008287406791894e+00 -9.988879303299915691e+00 -1.004053254912592763e+01 -1.007498499172923800e+01 -1.007498499172923800e+01 -1.012760404420726168e+01 -1.017438043956233606e+01
6.786717387528963252e-01 6.767448753177632836e-01 7.441975387000470121e-01 7.183746826274968189e-01 7.902773936777837127e-01 8.718303511621114943e-01 9.679373835291092965e-01 1.043033393545574672e+00 1.081052235397541139e+00 1.081052235397541139e+00 1.101143708867911686e+00 1.085065435406904699e+00 1.058893293627402477e+00 1.038399101985204576e+00 9.639020681918271105e-01 8.483601188604280585e-01 8.049858887666541118e-01 7.376221692985514000e-01 6.147902553474585696e-01 5.393480990570280742e-01 3.329576616052578042e-01 2.986848457181720540e-01 2.158191815773320005e-02 1.776373232508332289e-01 -3.468395123960296700e-02 -3.468395123960296700e-02 -4.039754766804561914e-01 -6.700446544118003889e-01 -6.700446544118003889e-01 -1.364113830873149524e+00 -2.279774857622072659e+00 -2.557235066107184096e+00 -2.809909485455821976e+00 -2.999891210179124190e+00 -3.055282566636628339e+00 -3.183255750489672131e+00 -3.253405876598926660e+00 -3.283509300471972203e+00 -3.330782255845119444e+00 -3.280833541857917091e+00 -3.280833541857917091e+00 -3.039993848804056320e+00 -2.689292094267134114e+00 -2.560659760620430436e+00 -2.518028999531487067e+00 -2.456112233270672185e+00 -2.420853433760921547e+00 -2.606648871500155451e+00 -2.759137497897034663e+00 -2.949972897992544585e+00 -3.355100013382338542e+00 -3.871278236662934802e+00 -3.871278236662934802e+00 -4.397863349139876199e+00 -4.932758263541533239e+00 -5.055922950725649123e+00 -5.327323265021945531e+00 -5.627360825587850002e+00 -5.740272510725509925e+00 -6.004201693993946876e+00 -6.161094600663784782e+00 -6.256220553906167048e+00 -6.517594901041556810e+00 -6.590000984797319106e+00 -6.757901096883337289e+00 -6.957248705237977227e+00 -7.044095063821755431e+00 -7.044095063821755431e+00 -7.247589312293285957e+00 -7.464504821434767123e+00 -7.567087168596687619e+00 -7.635273440776761511e+00 -7.827838189156603121e+00 -7.919079403395511640e+00 -8.070656659928125976e+00 -8.146168316371127816e+00 -8.172515358745021885e+00 -8.320264145978411463e+00 -8.439223462475801796e+00 -8.439223462475801796e+00 -8.550853026872339058e+00 -8.669304270797429268e+00 -8.691820331259018317e+00 -8.757759177373399595e+00 -8.818446079064596432e+00 -8.866792627727971166e+00 -8.940530989273559825e+00 -8.973621130849231520e+00 -9.011429307400877775e+00 -9.080809310738434448e+00 -9.149517995642376889e+00 -9.149517995642376889e+00 -9.226986759900009716e+00 -9.305459637230825365e+00 -9.302100156657838070e+00 -9.359419041690468788e+00 -9.420546519983449940e+00 -9.427427726630847715e+00 -9.465239327862866148e+00 -9.561633822728643040e+00 -9.590197485752815609e+00 -9.638950089145122746e+00 -9.680379908213026852e+00 -9.711996842831936760e+00 -9.759123298832045990e+00 -9.833577801776419491e+00 -9.833577801776419491e+00 -9.891133876630647137e+00 -9.950143679376465045e+00 -9.960008287406791894e+00 -1.000445843224817821e+01 -1.005900707995354892e+01 -1.007191405690255692e+01 -1.014100271734896808e+01 -1.014541589664337273e+01 -1.015057071823117241e+01
6.404508545000777708e-01 6.738214809127966998e-01 6.819172002368466545e-01 6.943250890367130834e-01 7.580017314880054258e-01 9.669005810631094988e-01 9.669005810631094988e-01 1.065953046033193630e+00 1.098913076323026816e+00 1.105646548699614540e+00 1.117606218843239185e+00 1.081368777829483818e+00 1.071077725287686633e+00 9.928939799202999295e-01 9.273431085599216361e-01 8.915197263914287351e-01 7.713430158811753756e-01 6.777659758449919858e-01 6.777659758449919858e-01 5.290988073416109660e-01 3.931020252308092267e-01 2.986848457181720540e-01 1.869734861327476683e-01 6.780948056686615655e-02 8.917594791679919752e-02 -2.601260522527045760e-01 -4.598194909332911084e-01 -5.199778151621547995e-01 -1.116491897472551287e+00 -2.069161696198402733e+00 -2.069161696198402733e+00 -2.825081588637469832e+00 -2.972871768398932968e+00 -2.999891210179124190e+00 -3.108281465350699158e+00 -3.272684491089730585e+00 -3.253405876598926660e+00 -3.290088441825538279e+00 -3.248496564126092778e+00 -3.271185338445365076e+00 -2.979304167279353877e+00 -2.835344253051764518e+00 -2.793082710901857890e+00 -2.644865426194737079e+00 -2.472948125402146591e+00 -2.472948125402146591e+00 -2.416570893233657369e+00 -2.655088609067868255e+00 -2.759137497897034663e+00 -3.069127787539341679e+00 -3.557858404655169782e+00 -3.683906566242730829e+00 -4.161594809352079594e+00 -4.640211101017348128e+00 -4.774923467515963971e+00 -5.196932567453957930e+00 -5.522281010336632434e+00 -5.522281010336632434e+00 -5.843611906964056857e+00 -6.081230917889477006e+00 -6.161094600663784782e+00 -6.355917893610113723e+00 -6.620182764913469242e+00 -6.590000984797319106e+00 -6.913592834595275960e+00 -7.036671858888880138e+00 -7.133571511017418487e+00 -7.194327775694104865e+00 -7.416516658029989273e+00 -7.416516658029989273e+00 -7.639423680077056744e+00 -7.725875816793390527e+00 -7.827838189156603121e+00 -8.013789052576193228e+00 -8.119821273997231970e+00 -8.146168316371127816e+00 -8.205286680958820966e+00 -8.338611132488946254e+00 -8.387099345415446550e+00 -8.519907617888145879e+00 -8.557279151878899981e+00 -8.590523729887010518e+00 -8.708717308678270541e+00 -8.762749748133925820e+00 -8.762749748133925820e+00 -8.874234151353055822e+00 -8.936839797298597787e+00 -8.973621130849231520e+00 -9.032681016137674490e+00 -9.094162486843107018e+00 -9.113461012476948397e+00 -9.205071121961143632e+00 -9.254919530307539333e+00 -9.278461714418630990e+00 -9.339738249978122298e+00 -9.394388491131657304e+00 -9.394388491131657304e+00 -9.456199025320081830e+00 -9.540780418665487872e+00 -9.561633822728643040e+00 -9.607868616949293283e+00 -9.652056218925771702e+00 -9.680379908213026852e+00 -9.757786948969256358e+00 -9.768606829079011789e+00 -9.761896126442245247e+00 -9.869706238038917334e+00 -9.942113209511212801e+00 -9.942113209511212801e+00 -9.971781020662664474e+00 -1.003700786973749715e+01 -1.003700786973749715e+01 -1.007529646150790370e+01 -1.013817116526622897e+01 -1.014541589664337273e+01 -1.015826235271442357e+01
5.919347803187310353e-01 6.579776815096461950e-01 6.819172002368466545e-01 6.879590820758711978e-01 7.326365578283862146e-01 8.194188881279073078e-01 1.044330839476464767e+00 1.092019896102017773e+00 1.092019896102017773e+00 1.124175725981659824e+00 1.113420864484870654e+00 1.081368777829483818e+00 1.057368734170810454e+00 9.600155778799455142e-01 9.273431085599216361e-01 8.595843988224438625e-01 7.461258169098616833e-01 7.190400434519135242e-01 6.060862123286920866e-01 5.373328129355032790e-01 4.434073593357634735e-01 2.786313237331656811e-01 1.074425706029835254e-01 1.074425706029835254e-01 -7.225003417006267865e-03 -3.604856010248037035e-01 -4.598194909332911084e-01 -6.694912733512553560e-01 -1.509559990023956688e+00 -1.804922158714304281e+00 -2.573151137523960408e+00 -2.775646650703573304e+00 -2.896623600245846308e+00 -3.051029144599682219e+00 -3.162433525380812682e+00 -3.162433525380812682e+00 -3.301437246983658813e+00 -3.227561440488289524e+00 -3.248496564126092778e+00 -3.243293520484733072e+00 -2.877923171956409121e+00 -2.835344253051764518e+00 -2.700379732342487848e+00 -2.619215876497263285e+00 -2.565314007734796675e+00 -2.441090505312804915e+00 -2.598563539255401622e+00 -2.598563539255401622e+00 -2.953394543900695002e+00 -3.339986559653878917e+00 -3.339986559653878917e+00 -3.920913084476264743e+00 -4.517711913188971806e+00 -4.640211101017348128e+00 -4.869147673059371684e+00 -5.220073221900035421e+00 -5.371573550542191100e+00 -5.724585769304468386e+00 -5.906978578019700166e+00 -6.019852471660761317e+00 -6.214336933268270968e+00 -6.512713874099883782e+00 -6.512713874099883782e+00 -6.639596576272847273e+00 -6.901141027462109889e+00 -7.036671858888880138e+00 -7.044959978914573817e+00 -7.363677135290713771e+00 -7.286742348755252507e+00 -7.560532506411686171e+00 -7.634801394324514767e+00 -7.633273064206187897e+00 -7.880964278560934844e+00 -8.093474231623337900e+00 -8.093474231623337900e+00 -8.178939638584925120e+00 -8.313715674755391305e+00 -8.338611132488946254e+00 -8.411700238237283855e+00 -8.543655131967961225e+00 -8.557279151878899981e+00 -8.690833750127060497e+00 -8.725614286097524541e+00 -8.775377356728148115e+00 -8.842829075385797211e+00 -8.879665616285601359e+00 -8.939324837820503689e+00 -9.001074880782439891e+00 -9.087131963887363995e+00 -9.107515662947779589e+00 -9.153808792287257745e+00 -9.227844210555586457e+00 -9.310241853230287745e+00 -9.310241853230287745e+00 -9.377376343298408301e+00 -9.405416582814604354e+00 -9.446768021245052438e+00 -9.480760552699031507e+00 -9.564978125244904206e+00 -9.578162569199930587e+00 -9.623261543507563687e+00 -9.669688926390856309e+00 -9.684788911309409443e+00 -9.767720527936337049e+00 -9.772284830261479982e+00 -9.772284830261479982e+00 -9.873389092085396612e+00 -9.955788719934158593e+00 -9.945911378126655933e+00 -9.982754931613932570e+00 -1.006005644523858678e+01 -1.006221152965744636e+01 -1.007853718835682599e+01 -1.013468806598934435e+01 -1.016838142415094559e+01 -1.019536258275926066e+01
6.328812959771905611e-01 6.328812959771905611e-01 6.045441537402993504e-01 6.341838678317516242e-01 7.326365578283862146e-01 7.725419051873729792e-01 1.061651542096344603e+00 1.090651884719080034e+00 1.125792179730103371e+00 1.146174141190849927e+00 1.139542136705930409e+00 1.096233202073462643e+00 1.000300249504445294e+00 1.000300249504445294e+00 8.953927751350994058e-01 7.837737075720093705e-01 7.461258169098616833e-01 6.605940500936666737e-01 5.904403628707155516e-01 5.373328129355032790e-01 2.938472895198008250e-01 1.482446479670237460e-01 2.123337106904049087e-01 9.187958172860960504e-02 -1.343262987939500830e-01 -2.537059581774234185e-01 -5.338131375055660266e-01 -1.241348017331487252e+00 -1.241348017331487252e+00 -2.012496782029794762e+00 -2.656802566688653222e+00 -2.775646650703573304e+00 -2.918652035550126200e+00 -3.086552807073827509e+00 -3.175450863717119709e+00 -3.321353293601287504e+00 -3.163381345770966302e+00 -3.213721654183124610e+00 -3.114930720970178868e+00 -3.070334952788095872e+00 -3.070334952788095872e+00 -2.708193102746003333e+00 -2.677883553470742584e+00 -2.619215876497263285e+00 -2.528762188743200134e+00 -2.470649163722535846e+00 -2.503029882008198204e+00 -2.785746595564233985e+00 -3.113241033735312691e+00 -3.237823223738256928e+00 -3.817535727122407518e+00 -4.256015643446632524e+00 -4.256015643446632524e+00 -4.791106409931796151e+00 -5.156172814353501721e+00 -5.220073221900035421e+00 -5.500933113244420802e+00 -5.785048265035817039e+00 -6.059495106428991917e+00 -6.146902953751160581e+00 -6.306008601985264583e+00 -6.492567288476093879e+00 -6.624470742775541154e+00 -6.682879066805586632e+00 -6.938600751735052086e+00 -7.078986135995883444e+00 -7.262005808881380808e+00 -7.352153006769948540e+00 -7.339650826265941674e+00 -7.576323821669490144e+00 -7.740082450779930845e+00 -7.740082450779930845e+00 -7.899223944558492860e+00 -8.083631499183972835e+00 -8.152592596211032827e+00 -8.211710960798725978e+00 -8.327870321320965274e+00 -8.356958118999481044e+00 -8.495546545382302028e+00 -8.567666646251787199e+00 -8.563705276885462681e+00 -8.712930403992766415e+00 -8.794217825050960613e+00 -8.794217825050960613e+00 -8.867212071706997989e+00 -8.959818415807042413e+00 -8.941050836367876897e+00 -9.028528630715648262e+00 -9.096880772663936909e+00 -9.107515662947779589e+00 -9.221070687841020685e+00 -9.246270202039111652e+00 -9.288000217012102766e+00 -9.353261854420583887e+00 -9.396989176791498366e+00 -9.396989176791498366e+00 -9.471269576818428959e+00 -9.509490626590645590e+00 -9.509490626590645590e+00 -9.598340867236812457e+00 -9.648779989090757070e+00 -9.669688926390856309e+00 -9.691602487344248118e+00 -9.787061131849583262e+00 -9.778090359325977587e+00 -9.864502684284275347e+00 -9.877071946131877667e+00 -9.901118156146988980e+00 -9.941679076876848598e+00 -1.006837353835108573e+01 -1.006837353835108573e+01 -1.006729476458719574e+01 -1.007506218789190910e+01 -1.013468806598934435e+01 -1.019134695165852023e+01 -1.020322325374275074e+01
5.589984910186104328e-01 6.097376366287522442e-01 6.089850731387529414e-01 6.416841921344065280e-01 6.757511886871667706e-01 9.538411730153929513e-01 9.538411730153929513e-01 1.096857890723565765e+00 1.131411954695596966e+00 1.146174141190849927e+00 1.147066967106512347e+00 1.095810466186448728e+00 1.039028999744578741e+00 9.318595681940334829e-01 8.595065353099259342e-01 8.245260009107134858e-01 6.971696703603013079e-01 5.698143210294034366e-01 5.698143210294034366e-01 5.430060374518528299e-01 3.089150724587657604e-01 1.482446479670237460e-01 -1.184481703911880769e-02 -3.979246722614225573e-02 -1.343262987939500830e-01 -4.905933818640512700e-01 -5.992463127338851780e-01 -1.285120309359273350e+00 -1.739159846668061782e+00 -2.398618048815638115e+00 -2.747644776440660408e+00 -2.839270593420618383e+00 -3.038652870232604997e+00 -3.081890556645565660e+00 -3.081890556645565660e+00 -3.199441542767768709e+00 -3.170052775704411019e+00 -3.170052775704411019e+00 -3.038558461512637088e+00 -3.083532272348245229e+00 -2.998169056519515152e+00 -2.690576235295578655e+00 -2.639230562636084354e+00 -2.446945652868985910e+00 -2.527302173476988045e+00 -2.476464836772787947e+00 -2.594200809640360372e+00 -2.910251416204781005e+00 -3.391163726984412818e+00 -3.391163726984412818e+00 -3.984475184428834638e+00 -4.572161744316080245e+00 -4.679645607413734254e+00 -4.999897442611754173e+00 -5.298151177625098462e+00 -5.397173714028472347e+00 -5.677274534261969485e+00 -5.864798995556895989e+00 -5.945298760664475601e+00 -6.193669145789372443e+00 -6.424442913856021953e+00 -6.424442913856021953e+00 -6.620223905198881376e+00 -6.829511104170833846e+00 -6.938600751735052086e+00 -7.017104539459703361e+00 -7.248652726388025158e+00 -7.352153006769948540e+00 -7.555958731437493192e+00 -7.562911181358393797e+00 -7.660944968214061568e+00 -7.786346326912600091e+00 -7.904922625071820974e+00 -7.964274511517817956e+00 -8.129247533544434745e+00 -8.270829325386419129e+00 -8.270829325386419129e+00 -8.383106210702296224e+00 -8.555645585653254059e+00 -8.567666646251787199e+00 -8.575120654811998477e+00 -8.737656866661797750e+00 -8.735957834152891621e+00 -8.794685831290909306e+00 -8.897996948132337991e+00 -8.885010518867540341e+00 -8.993864362880776397e+00 -9.087421210249727821e+00 -9.087421210249727821e+00 -9.120868839052450383e+00 -9.250913787461570337e+00 -9.246270202039111652e+00 -9.300046799956454890e+00 -9.375978616171495972e+00 -9.415014436618694305e+00 -9.419878495986507616e+00 -9.495347724444627602e+00 -9.505322080077981184e+00 -9.579099557710058832e+00 -9.643195557525004347e+00 -9.643195557525004347e+00 -9.687321633855942693e+00 -9.731216873136045109e+00 -9.787061131849583262e+00 -9.787305359093501522e+00 -9.869081412147119536e+00 -9.877071946131877667e+00 -9.966285455816045413e+00 -9.937446775627039486e+00 -9.993728842565204218e+00 -1.008062465097504656e+01 -1.007654719873771043e+01 -1.005236298272612494e+01 -1.013288485162351549e+01 -1.017640148230180230e+01 -1.017640148230180230e+01
5.555025555405112003e-01 5.958221477804312993e-01 6.223004101496509843e-01 6.580567679921138780e-01 6.563487902363893678e-01 9.640652307290854539e-01 1.085160745614181188e+00 1.124408618945841098e+00 1.121169751860340291e+00 1.138550254578763354e+00 1.125870878148878873e+00 1.084075485590605403e+00 1.025389541734528898e+00 8.969448955979487659e-01 7.879543748999647823e-01 7.879543748999647823e-01 6.607305622369333831e-01 6.371412329727035306e-01 5.733869354040930233e-01 5.451175308003827213e-01 2.558512438583044335e-01 7.209669532891148369e-02 4.500161030680703556e-03 -1.402306077259701800e-01 -2.519160088547512943e-01 -5.354470249142310179e-01 -9.380189035118096097e-01 -9.380189035118096097e-01 -1.941589872691528162e+00 -2.550677023868865856e+00 -2.747644776440660408e+00 -2.848059045306945425e+00 -3.069754827122919139e+00 -3.120062548872848840e+00 -3.237672251124182665e+00 -3.255189773909435758e+00 -3.235565866582285288e+00 -3.105028244877951593e+00 -3.045850346666016950e+00 -3.045850346666016950e+00 -2.882621504126659850e+00 -2.586789662666784562e+00 -2.639230562636084354e+00 -2.469988021800721079e+00 -2.443180630501877726e+00 -2.476464836772787947e+00 -2.825803680041412136e+00 -3.123305878303574534e+00 -3.178402449008730812e+00 -3.751871408138561126e+00 -4.229899481006366813e+00 -4.420235172469049623e+00 -4.730263762114922166e+00 -5.268289043373981961e+00 -5.268289043373981961e+00 -5.525610873271094015e+00 -5.785620421053112139e+00 -5.864798995556895989e+00 -6.001240918162986659e+00 -6.247955916825622680e+00 -6.322845838600358981e+00 -6.542810169407332843e+00 -6.631496209203003644e+00 -6.724689479682749216e+00 -6.947467021463888948e+00 -7.134374744299539550e+00 -7.134374744299539550e+00 -7.360347603283337925e+00 -7.550456403071826195e+00 -7.562911181358393797e+00 -7.696314005658317470e+00 -7.816371596901445784e+00 -7.904922625071820974e+00 -8.028611587540579464e+00 -8.101867185923360637e+00 -8.156905084544870732e+00 -8.342024967886539244e+00 -8.484562250779976722e+00 -8.484562250779976722e+00 -8.565749152693447499e+00 -8.681081042904402523e+00 -8.737656866661797750e+00 -8.743479179256992140e+00 -8.820290679828397984e+00 -8.897996948132337991e+00 -8.907872904376310075e+00 -9.066045568493391826e+00 -9.055982380648856633e+00 -9.106629581440508048e+00 -9.132979135252520919e+00 -9.231284916411492958e+00 -9.270282984261967840e+00 -9.373439495783205899e+00 -9.373439495783205899e+00 -9.448970936297286016e+00 -9.435288112672482796e+00 -9.495347724444627602e+00 -9.527880224186372260e+00 -9.592815490736841255e+00 -9.622377416174719755e+00 -9.678918839876155644e+00 -9.702479191490038346e+00 -9.705499287161613253e+00 -9.808853329301994606e+00 -9.815757331958227638e+00 -9.815757331958227638e+00 -9.884594856610203095e+00 -9.964336915854156373e+00 -9.937446775627039486e+00 -1.000470275351647587e+01 -1.009377932317477011e+01 -1.007654719873771043e+01 -1.007236169134393755e+01 -1.012924636697978187e+01 -1.021077080187417252e+01 -1.021108392472623905e+01
5.876308012934212677e-01 5.572114937608789731e-01 6.297270558309476796e-01 6.312050823383837939e-01 6.966275583087915280e-01 6.966275583087915280e-01 1.081961655265903710e+00 1.163722138235562475e+00 1.121169751860340291e+00 1.160929794838100992e+00 1.103934813210808663e+00 1.084075485590605403e+00 9.389181869707525774e-01 8.681171095430303408e-01 8.211738766342904228e-01 7.163488681351967147e-01 5.544605790439343096e-01 5.544605790439343096e-01 6.482568526748377913e-01 3.870247023307629708e-01 2.558512438583044335e-01 1.405727611292605095e-01 3.018912292342662909e-02 -1.402306077259701800e-01 -3.710082538519464679e-01 -5.893505958984367465e-01 -7.720220686851679837e-01 -1.546554318863028632e+00 -2.277800597569398899e+00 -2.477346069838798126e+00 -2.818128237282107484e+00 -3.000804217579978062e+00 -3.000804217579978062e+00 -3.137792023034194244e+00 -3.290547394079622823e+00 -3.255189773909435758e+00 -3.247488115715802870e+00 -3.177674009723974180e+00 -3.086442357972989381e+00 -2.841102654721248566e+00 -2.585683019172390740e+00 -2.687210567721754373e+00 -2.529527978593188564e+00 -2.410712027508554289e+00 -2.410712027508554289e+00 -2.620907475936090858e+00 -2.986690498239565006e+00 -3.123305878303574534e+00 -3.422775956942620823e+00 -4.086152770405106160e+00 -4.229899481006366813e+00 -4.633757409095432322e+00 -5.034379955225260161e+00 -5.181587724859021193e+00 -5.464214543250584200e+00 -5.697653122370333278e+00 -5.697653122370333278e+00 -5.963066737314793642e+00 -6.175782947878673212e+00 -6.175782947878673212e+00 -6.345946975407471768e+00 -6.594118194890867812e+00 -6.631496209203003644e+00 -6.791314878722959136e+00 -6.982842218604078610e+00 -7.079367751537342102e+00 -7.279932871650037107e+00 -7.375017702258363173e+00 -7.434793565576592655e+00 -7.672114834630656688e+00 -7.744118032645607386e+00 -7.744118032645607386e+00 -7.878654421362538685e+00 -8.051030237980906890e+00 -8.101867185923360637e+00 -8.232583217279964671e+00 -8.347912443252141657e+00 -8.402259936622140657e+00 -8.552024678121803447e+00 -8.584954148485326897e+00 -8.591126263380056471e+00 -8.753261987715481141e+00 -8.835830489219517858e+00 -8.835830489219517858e+00 -8.927283005769041324e+00 -8.994267726641544058e+00 -9.066045568493391826e+00 -9.084333158405859976e+00 -9.119706308424863295e+00 -9.132979135252520919e+00 -9.270190312301876290e+00 -9.279417527726582904e+00 -9.305395561760759549e+00 -9.385427012445687112e+00 -9.432730750883541404e+00 -9.432730750883541404e+00 -9.513684946234828743e+00 -9.548303988893579231e+00 -9.548303988893579231e+00 -9.647963881615778448e+00 -9.690355844699073629e+00 -9.714599356284056242e+00 -9.714599356284056242e+00 -9.775071317568519547e+00 -9.823094540809911734e+00 -9.875367630982186284e+00 -9.889209816194023617e+00 -9.959115132389252167e+00 -9.939733048329882692e+00 -1.013677881270123748e+01 -1.009503490880057264e+01 -1.007782390433170860e+01 -1.011697656548624202e+01 -1.020468075996354251e+01 -1.020468075996354251e+01 -1.021673265224828953e+01
5.411215730550571479e-01 5.572114937608789731e-01 5.753837320424319834e-01 6.237149809417884549e-01 6.311896870289334105e-01 9.068977883889602909e-01 9.299696851860677071e-01 1.105033552063011237e+00 1.171759255158748569e+00 1.122871351178046817e+00 1.122871351178046817e+00 1.024449047271313029e+00 9.187652150303183829e-01 8.681171095430303408e-01 7.696333024805676049e-01 6.067136450162986527e-01 6.269761356248083617e-01 6.570816415521261167e-01 5.515763416836093613e-01 5.333627947645440681e-01 2.296510400478119496e-01 7.462916722886578369e-02 7.462916722886578369e-02 -1.885852243167628062e-01 -3.386018153899084115e-01 -5.893505958984367465e-01 -9.766765737256495328e-01 -1.834575508952080325e+00 -2.277800597569398899e+00 -2.756286940354498061e+00 -2.844030362995811245e+00 -2.914484420075928561e+00 -3.124746067666889893e+00 -3.199514073563101135e+00 -3.199514073563101135e+00 -3.286481606252429799e+00 -3.354960667737997504e+00 -3.354960667737997504e+00 -3.105065376812946809e+00 -2.801914503947278590e+00 -2.585683019172390740e+00 -2.563847823213492916e+00 -2.458116096175829046e+00 -2.515598312827164840e+00 -2.537863430973032575e+00 -2.725843944030942545e+00 -2.853583906546838911e+00 -3.236114976816178768e+00 -3.904980307877824686e+00 -3.904980307877824686e+00 -4.534891366236736054e+00 -4.904543214927389094e+00 -5.034379955225260161e+00 -5.213683533532496028e+00 -5.469722405366441720e+00 -5.642842884176568319e+00 -5.880614328017280457e+00 -5.990682644751816888e+00 -6.094059484957019102e+00 -6.363378041648192429e+00 -6.535267719345441151e+00 -6.535267719345441151e+00 -6.698689508792504022e+00 -6.927318488213204617e+00 -6.982842218604078610e+00 -7.085530857755383494e+00 -7.284497963352170480e+00 -7.375017702258363173e+00 -7.479045639784629884e+00 -7.529178822524757564e+00 -7.774230227525891657e+00 -7.955489822691622415e+00 -7.912894911793429742e+00 -8.094447891092489300e+00 -8.163515554186226097e+00 -8.296402742344485048e+00 -8.361676206936138556e+00 -8.416023700306137556e+00 -8.536030508705039210e+00 -8.609544499420325181e+00 -8.609544499420325181e+00 -8.764322088398497357e+00 -8.860370840147941962e+00 -8.852380152362471222e+00 -8.944364116659398789e+00 -9.004036339359021923e+00 -9.095111020694965021e+00 -9.135025432894639863e+00 -9.133553661090715536e+00 -9.148901309107001723e+00 -9.273174001268060351e+00 -9.310113735142007130e+00 -9.310113735142007130e+00 -9.393062447558005346e+00 -9.443074325192361229e+00 -9.447342608314665213e+00 -9.528688201343511466e+00 -9.561244285665535969e+00 -9.601270232973435625e+00 -9.670557105485341864e+00 -9.690343153482116278e+00 -9.704288707711885564e+00 -9.753204210578946487e+00 -9.796700939850797596e+00 -9.796700939850797596e+00 -9.874405202166743223e+00 -9.906811896890140190e+00 -9.906811896890140190e+00 -9.941658887113071330e+00 -1.012298684211557998e+01 -1.009503490880057264e+01 -1.007844940791291144e+01 -1.016799013016611575e+01 -1.011554270777810949e+01 -1.018991147334234881e+01 -1.021943476786140792e+01
5.830617612410069484e-01 5.767478091390336736e-01 6.039890046585560945e-01 6.237149809417884549e-01 6.312302001780785154e-01 8.001565102883322345e-01 9.299696851860677071e-01 1.128105448860118543e+00 1.170161357399509328e+00 1.141807889145284971e+00 1.043385585238551183e+00 9.734631887913989257e-01 9.449632813318173952e-01 8.255821810638068747e-01 6.955375134780555912e-01 6.955375134780555912e-01 5.577572435763626935e-01 4.921987986534255288e-01 5.515763416836093613e-01 4.468639195544998888e-01 1.852584090921732263e-01 1.285691354326532199e-01 -8.611099801959670730e-02 -2.828540247654097173e-01 -3.639758491741256208e-01 -6.326496878097502830e-01 -1.548987489184928013e+00 -1.548987489184928013e+00 -2.484563126200156624e+00 -2.784203569243198118e+00 -2.844030362995811245e+00 -2.932806923501097174e+00 -3.067262158042375120e+00 -3.126188185528253172e+00 -3.187615727002214072e+00 -3.175717380441327009e+00 -3.302328441412184290e+00 -3.239413533448391114e+00 -2.938974449763025021e+00 -2.746628816850362309e+00 -2.644018890599671767e+00 -2.527982958742557962e+00 -2.558973944343000628e+00 -2.558973944343000628e+00 -2.624982921110110556e+00 -2.977772530373799853e+00 -2.977772530373799853e+00 -3.506050274414226120e+00 -4.198725985894329327e+00 -4.389966593156689356e+00 -4.591143029969966705e+00 -4.918412816121812803e+00 -5.141153907121843503e+00 -5.274327246729054508e+00 -5.413758528577840679e+00 -5.565627721651175364e+00 -5.873803572376005810e+00 -6.110477626229032566e+00 -6.110477626229032566e+00 -6.297368397648028804e+00 -6.475714159739120568e+00 -6.610631155151131644e+00 -6.706724574098646308e+00 -6.925069900181299865e+00 -7.029396255896470436e+00 -7.165473190275226223e+00 -7.264447137948904398e+00 -7.490767212352690940e+00 -7.561645178324722494e+00 -7.695028787098959988e+00 -7.695028787098959988e+00 -7.959532146484593618e+00 -8.025380227998750726e+00 -8.094447891092489300e+00 -8.189464611327633037e+00 -8.307328713566139555e+00 -8.361676206936138556e+00 -8.493908747072415721e+00 -8.536123397300336535e+00 -8.604200368663939003e+00 -8.696381689516373470e+00 -8.767440677514612091e+00 -8.767440677514612091e+00 -8.884469624896546236e+00 -8.984293072448712891e+00 -8.984293072448712891e+00 -9.104893118403186492e+00 -9.146389981542252912e+00 -9.133553661090715536e+00 -9.167710949515067043e+00 -9.276157690234244413e+00 -9.286129318522112541e+00 -9.380436200997149143e+00 -9.403212122442603516e+00 -9.456368878486898666e+00 -9.459397103956845854e+00 -9.542618323441704575e+00 -9.542618323441704575e+00 -9.609724975210026443e+00 -9.674330686083909114e+00 -9.690343153482116278e+00 -9.706098223933732783e+00 -9.730822034874814008e+00 -9.764734635856841649e+00 -9.817691129540499162e+00 -9.873442773351300161e+00 -9.889423493902860685e+00 -9.951910326328846423e+00 -1.000202718170271687e+01 -1.000202718170271687e+01 -1.008685549536851767e+01 -1.014032252050751737e+01 -1.016799013016611575e+01 -1.011408835872981271e+01 -1.019084316022555647e+01 -1.021943476786140792e+01
5.489953827851178358e-01 5.410865216882945194e-01 6.279317777776902698e-01 7.603267146699275170e-01 8.891503509686169426e-01 9.771741183371622785e-01 1.001520029106789167e+00 1.113889707244961613e+00 1.121869820087890268e+00 1.121869820087890268e+00 1.022940920819460642e+00 9.238755727860779032e-01 8.673021198738400939e-01 7.778096900861540819e-01 6.340743685825060982e-01 5.771635950885238842e-01 5.112751681899586620e-01 4.690672360144291231e-01 4.403367012059850039e-01 3.299561917615666529e-01 1.546874622592550319e-01 1.546874622592550319e-01 -1.054280538673170869e-01 -3.939260012705966263e-01 -3.939260012705966263e-01 -9.131722185211630372e-01 -1.740421078196099147e+00 -2.149621696728819309e+00 -2.680486840927568615e+00 -2.832236058312127991e+00 -2.863566294723984829e+00 -2.983795288304302851e+00 -3.083548873949034874e+00 -3.095315048882595121e+00 -3.175066526537364986e+00 -3.260262071236455395e+00 -3.260262071236455395e+00 -3.106038625311542845e+00 -2.875113233157808423e+00 -2.746628816850362309e+00 -2.627767918793371571e+00 -2.369792621881341432e+00 -2.461913204890918028e+00 -2.603441847059674963e+00 -2.753860251390406688e+00 -2.887951604112547699e+00 -3.336777782539440018e+00 -3.911465866338142749e+00 -3.911465866338142749e+00 -4.378801472140043671e+00 -4.757290777035828810e+00 -4.918412816121812803e+00 -5.115174866224036165e+00 -5.379840525308074106e+00 -5.413758528577840679e+00 -5.707250700487700890e+00 -5.857215423034092261e+00 -5.965527530069831386e+00 -6.207581010004034283e+00 -6.297538127608488523e+00 -6.394471781423031409e+00 -6.594868903825872763e+00 -6.821971309520757032e+00 -6.821971309520757032e+00 -7.028695031008408201e+00 -7.173535447375508411e+00 -7.264447137948904398e+00 -7.222873224979924345e+00 -7.609753545255702356e+00 -7.652391166177331172e+00 -7.780969058002566996e+00 -7.936839433582523640e+00 -7.956312564905012152e+00 -8.135169353472873510e+00 -8.252981220196142331e+00 -8.252981220196142331e+00 -8.375439970620137231e+00 -8.498047763677867295e+00 -8.536123397300336535e+00 -8.628347367608629526e+00 -8.704206769634996732e+00 -8.775382189081511797e+00 -8.860142319900282004e+00 -8.916559097430621250e+00 -8.961445227549756254e+00 -9.013804952076498012e+00 -9.120228221190100015e+00 -9.120228221190100015e+00 -9.150195515498978693e+00 -9.256461378767060211e+00 -9.276157690234244413e+00 -9.304805233026163691e+00 -9.376980040070446165e+00 -9.403212122442603516e+00 -9.453417899501182831e+00 -9.471451599599024718e+00 -9.538844958699813859e+00 -9.573462478895402583e+00 -9.618179717446617261e+00 -9.655480653931695301e+00 -9.690330462265157152e+00 -9.727815564913477431e+00 -9.727815564913477431e+00 -9.759877270468582111e+00 -9.815847804301363055e+00 -9.873442773351300161e+00 -9.889637171611701305e+00 -9.947678085264005432e+00 -9.942526759929208424e+00 -1.010919487152992069e+01 -1.007867608193646269e+01 -1.007907607210227674e+01 -1.014094910894539581e+01 -1.019443439269149820e+01 -1.019443439269149820e+01 -1.022213688347452631e+01
4.903612350099920691e-01 5.323674314746936753e-01 5.323674314746936753e-01 6.587782298031977790e-01 1.037648548505017976e+00 9.771741183371622785e-01 1.065197885705707614e+00 1.159466463571590555e+00 1.161223187045026695e+00 1.085755275317457968e+00 1.045192458561367443e+00 9.848168597285309467e-01 8.460524585109976403e-01 6.903422988743429523e-01 6.903422988743429523e-01 5.499537848142204144e-01 4.757516391631327890e-01 4.690672360144291231e-01 3.372575369266432865e-01 3.495624884296777424e-01 2.751272051071839142e-01 2.851265811113340432e-02 -2.086779963521717962e-01 -2.226726362806936699e-01 -7.168911833775367670e-01 -1.408722340354597868e+00 -1.408722340354597868e+00 -2.330894172920843221e+00 -2.771058623454569325e+00 -2.832236058312127991e+00 -2.921134815480589619e+00 -3.104880697752643748e+00 -3.083548873949034874e+00 -3.162024992525349631e+00 -3.267870280880822431e+00 -3.264066176058638913e+00 -3.290379983726711366e+00 -3.335610793983714295e+00 -3.063964974464152391e+00 -2.833039582310417526e+00 -2.576817944604133270e+00 -2.576817944604133270e+00 -2.402785133606337276e+00 -2.655453944312332837e+00 -2.753860251390406688e+00 -3.022774573249172647e+00 -3.521738520778016301e+00 -3.756917852053963891e+00 -4.371584347001779669e+00 -4.620709794220508648e+00 -4.716872407313879023e+00 -5.063739293153715515e+00 -5.299483446430804712e+00 -5.299483446430804712e+00 -5.582394861976009537e+00 -5.797234729125545272e+00 -5.857215423034092261e+00 -5.985687487010350694e+00 -6.194694858601723197e+00 -6.297538127608488523e+00 -6.495694567216984794e+00 -6.650164636948985297e+00 -6.718872718860216864e+00 -6.927009845352860573e+00 -7.082623756802115089e+00 -7.082623756802115089e+00 -7.214536710839272615e+00 -7.520681240777287613e+00 -7.609753545255702356e+00 -7.675385797654553421e+00 -7.789360237078567728e+00 -7.936839433582523640e+00 -7.999730218016593675e+00 -8.144286233456142554e+00 -8.198633726826143331e+00 -8.321092477250138231e+00 -8.389203734304135907e+00 -8.443551227674133131e+00 -8.554384319719877894e+00 -8.646380971500864376e+00 -8.646380971500864376e+00 -8.786442289764529789e+00 -8.858640340204374297e+00 -8.916559097430621250e+00 -8.978526338440111942e+00 -9.023573564793975876e+00 -9.114675216111407963e+00 -9.157465245601230208e+00 -9.167322855400069415e+00 -9.186520589923132363e+00 -9.279973807383145257e+00 -9.320442434547157262e+00 -9.320442434547157262e+00 -9.413361797327201685e+00 -9.463761473810000879e+00 -9.471451599599024718e+00 -9.544821349800766797e+00 -9.584123823389008479e+00 -9.618179717446617261e+00 -9.678104266682478141e+00 -9.693330818298896645e+00 -9.707907740155580001e+00 -9.730665736973817204e+00 -9.810818240071464302e+00 -9.810818240071464302e+00 -9.870482696448412696e+00 -9.904211822421583378e+00 -9.904211822421583378e+00 -9.942881468551281188e+00 -1.009540290094426140e+01 -1.007970786686840725e+01 -1.007970786686840725e+01 -1.009114057061870540e+01 -1.018931120905547694e+01 -1.019177484710876058e+01 -1.022432938134530112e+01
4.781374989666173358e-01 4.910072315723796876e-01 5.284502138770981183e-01 5.951760398178264078e-01 5.951760398178264078e-01 1.091134959940861293e+00 1.132750509943973416e+00 1.159466463571590555e+00 1.149274869267495891e+00 1.085804115381806323e+00 1.045192458561367443e+00 9.527715676688823798e-01 7.990511079463992195e-01 7.487474202274565505e-01 5.963319344045208137e-01 4.872518714839798593e-01 4.026552474353883304e-01 3.780244413717526730e-01 2.611200878376250811e-01 2.611200878376250811e-01 2.287576791883053628e-01 -9.565287622163066994e-02 -2.086779963521717962e-01 -5.922835233052279325e-01 -7.699077015598733142e-01 -1.055588138059511571e+00 -2.003430339922333214e+00 -2.611768880347749899e+00 -2.548643989950381439e+00 -2.859170808352397675e+00 -3.109812927006549543e+00 -3.109812927006549543e+00 -3.194393703226666936e+00 -3.235661797021504693e+00 -3.267870280880822431e+00 -3.313310681642620104e+00 -3.480303229127640563e+00 -3.335610793983714295e+00 -3.021891323616763270e+00 -2.773846285334120587e+00 -2.625457877161968323e+00 -2.401232573764733758e+00 -2.500155635301152923e+00 -2.500155635301152923e+00 -2.868971624936681231e+00 -3.342927677048000312e+00 -3.342927677048000312e+00 -3.938265420804851313e+00 -4.501817602308350708e+00 -4.620709794220508648e+00 -4.878325348928969518e+00 -5.178166780449165785e+00 -5.278994933768030862e+00 -5.490597224746913696e+00 -5.596516767489711164e+00 -5.707258096604844511e+00 -5.919278407630081951e+00 -6.072943777211081695e+00 -6.072943777211081695e+00 -6.311709893169205721e+00 -6.546974001992703407e+00 -6.650164636948985297e+00 -6.723442971894320053e+00 -6.928949790524420393e+00 -7.010984273496635666e+00 -7.181597704475792376e+00 -7.319750855006263990e+00 -7.386094736769209135e+00 -7.503794687934105312e+00 -7.741018050053405375e+00 -7.741018050053405375e+00 -7.900635547845499040e+00 -8.089938740086145330e+00 -8.144286233456142554e+00 -8.212397490510140230e+00 -8.334856240934135130e+00 -8.389203734304135907e+00 -8.502186780283318868e+00 -8.571619618142962693e+00 -8.664799207541134862e+00 -8.715293255800686367e+00 -8.791402175772232042e+00 -8.869980604305832017e+00 -8.948648569964696264e+00 -9.010556563011224540e+00 -9.033342177511453741e+00 -9.124457313819627657e+00 -9.160831054413087315e+00 -9.205330230331197683e+00 -9.205330230331197683e+00 -9.287129772970160957e+00 -9.326712760516333134e+00 -9.383981944853019286e+00 -9.428468143776052912e+00 -9.474105048118822481e+00 -9.487561136588944066e+00 -9.554602022433005715e+00 -9.594785167882614374e+00 -9.626634459683209855e+00 -9.681877847281043614e+00 -9.710452669045489316e+00 -9.710452669045489316e+00 -9.736087665697262139e+00 -9.806928021925761740e+00 -9.817775736779069007e+00 -9.867418390984251886e+00 -9.903191995160961270e+00 -9.943445844199164441e+00 -9.993018175264946734e+00 -1.008161093035860212e+01 -1.007049666850440772e+01 -1.009049704544358761e+01 -1.012415005500671938e+01 -1.012415005500671938e+01 -1.019270653399196647e+01 -1.023783893035884063e+01
4.781374989666173358e-01 4.700105421355019741e-01 5.774680594483659890e-01 7.324549341768923361e-01 1.063742755198578527e+00 1.102748405381919872e+00 1.118949557157222774e+00 1.127934128071515163e+00 1.123579720873301824e+00 1.123579720873301824e+00 9.953196696065920168e-01 8.554597057449828679e-01 7.990511079463992195e-01 6.978182753175696806e-01 5.375939971450199861e-01 4.872518714839798593e-01 3.371591346689671864e-01 2.309674581900635348e-01 2.585274840209648151e-01 1.921755614924922639e-01 3.997764717640922560e-02 3.997764717640922560e-02 -5.069331247621525760e-01 -5.582920257373591433e-01 -5.582920257373591433e-01 -1.265518453603894589e+00 -2.379926209251406188e+00 -2.611768880347749899e+00 -2.858649400180891309e+00 -2.876474941040305211e+00 -2.978464555148406134e+00 -3.150126832104218177e+00 -3.214252966572129555e+00 -3.226928584630169183e+00 -3.202442495513152743e+00 -3.195178226461960591e+00 -3.195178226461960591e+00 -3.128096425166054573e+00 -2.972341809606063645e+00 -2.773846285334120587e+00 -2.553331234212424139e+00 -2.365510920622733604e+00 -2.347878794876443465e+00 -2.719936371929047692e+00 -3.045723032489402460e+00 -3.180766566337590806e+00 -3.768231924422100310e+00 -4.312627914468295742e+00 -4.673465871111630143e+00 -4.789535754328040795e+00 -5.102939053878951192e+00 -5.338441427433040509e+00 -5.338441427433040509e+00 -5.446554640697391036e+00 -5.686084733770978339e+00 -5.846762756899553715e+00 -5.950455904300975263e+00 -6.133896850600189410e+00 -6.231771435598477460e+00 -6.348649837879041691e+00 -6.548569879911175562e+00 -6.603698347938541602e+00 -6.833901033984546736e+00 -6.919679358861987595e+00 -7.006198216837708159e+00 -7.210786899268605055e+00 -7.400921844624791746e+00 -7.400921844624791746e+00 -7.599825221314529422e+00 -7.747429697592668418e+00 -7.798428473427384766e+00 -7.884059049442920575e+00 -8.103702503770142229e+00 -8.158049997140141230e+00 -8.280508747564137906e+00 -8.348620004618133805e+00 -8.402967497988132806e+00 -8.514246245116405376e+00 -8.671601137262936021e+00 -8.671601137262936021e+00 -8.726379741966376002e+00 -8.803382924901043793e+00 -8.869980604305832017e+00 -8.974082988381320902e+00 -9.015334770700583533e+00 -9.033342177511453741e+00 -9.132069995066197876e+00 -9.164196863224940870e+00 -9.184450195301158359e+00 -9.271451771035909672e+00 -9.328034813536373093e+00 -9.328034813536373093e+00 -9.390983849635592406e+00 -9.467465791771317640e+00 -9.467465791771317640e+00 -9.509585635557229466e+00 -9.562690810902733318e+00 -9.594785167882614374e+00 -9.635089201919800672e+00 -9.685651427879612640e+00 -9.698010588345207239e+00 -9.738247408059635291e+00 -9.741509594420708851e+00 -9.778250131152107727e+00 -9.819703669256778511e+00 -9.885984815968811290e+00 -9.885984815968811290e+00 -9.939213603134323449e+00 -9.997872807660087346e+00 -1.008161093035860212e+01 -1.006231725507235453e+01 -1.008978885266353842e+01 -1.012764705591375858e+01 -1.018418802541945567e+01 -1.019363822087517235e+01 -1.022461310902923870e+01
4.111419993613219526e-01 4.735495290330353213e-01 4.735495290330353213e-01 7.869885137148937559e-01 1.101924356882855616e+00 1.102748405381919872e+00 1.115463349365311441e+00 1.120134629001001692e+00 1.135340503972172677e+00 1.037867771544301654e+00 9.370295654027425147e-01 8.980078076826925049e-01 7.581478438210833559e-01 5.303932930782043753e-01 5.303932930782043753e-01 2.879796015742719373e-01 1.892243416179759108e-01 1.391546393780516144e-01 1.391546393780516144e-01 7.070358730221715238e-02 -4.340874017583975369e-02 -1.894330060594786869e-01 -3.840100262419361421e-01 -6.895984256903370246e-01 -9.754115415270832035e-01 -1.844690616729145916e+00 -2.210330018966060628e+00 -2.389142473067798811e+00 -2.778816078271405754e+00 -2.930563886290192599e+00 -2.930563886290192599e+00 -3.083903408598002827e+00 -3.192418265222188190e+00 -3.192418265222188190e+00 -3.187377584777885353e+00 -3.114544366469213621e+00 -3.098442961262821704e+00 -2.900703076675931857e+00 -2.728111812841508943e+00 -2.761648525269836174e+00 -2.423122320247597550e+00 -2.476867655998417295e+00 -2.553409715920141210e+00 -2.885295468610769021e+00 -3.365306952234004445e+00 -3.365306952234004445e+00 -3.907143954582808831e+00 -4.446282084290671399e+00 -4.673465871111630143e+00 -4.886603936433949968e+00 -5.191294600240374812e+00 -5.395516254427142222e+00 -5.411741789821721049e+00 -5.513947029231760055e+00 -5.569105628900132388e+00 -5.779399230669554299e+00 -6.056698208213639134e+00 -6.056698208213639134e+00 -6.265249855481116903e+00 -6.463057568093863559e+00 -6.548569879911175562e+00 -6.670571076102683072e+00 -6.857457351985456917e+00 -6.919679358861987595e+00 -7.130576905350868522e+00 -7.220128855768834342e+00 -7.323020235976948733e+00 -7.430265358114654717e+00 -7.745910198856279294e+00 -7.745910198856279294e+00 -7.824675699231928405e+00 -8.038033104335415402e+00 -8.038033104335415402e+00 -8.174726056450623446e+00 -8.294272511248134805e+00 -8.348620004618133805e+00 -8.416731261672131481e+00 -8.529420517207812580e+00 -8.594457836567254816e+00 -8.683526356623108455e+00 -8.737466228132067414e+00 -8.808562491130560446e+00 -8.882492712509213462e+00 -8.999453959190056196e+00 -8.999453959190056196e+00 -9.053883855675145753e+00 -9.138168380761747756e+00 -9.164196863224940870e+00 -9.201704789268115192e+00 -9.279054550408224245e+00 -9.294285738557174881e+00 -9.332983086485512558e+00 -9.397985754418165527e+00 -9.435850160930026931e+00 -9.485186628111197393e+00 -9.556774132002672673e+00 -9.556774132002672673e+00 -9.605446512376222046e+00 -9.666755812405568804e+00 -9.685651427879612640e+00 -9.702690358391521386e+00 -9.740274943809268393e+00 -9.741509594420708851e+00 -9.796591340214085619e+00 -9.821631601734484462e+00 -9.864354085520092852e+00 -9.902172167900339161e+00 -9.934981362069482458e+00 -9.943590885795428491e+00 -1.006781895977294283e+01 -1.008097145640066827e+01 -1.008097145640066827e+01 -1.013181078375849964e+01 -1.017906484178343263e+01 -1.019363822087517235e+01 -1.022489683671317984e+01
