4.855848465436273464e+00 4.855848465436273464e+00 4.855848465436273464e+00 4.855848465436273464e+00 4.892786609934956843e+00 4.414012909269259488e+00 4.316568239610902857e+00 3.702830333075302072e+00 3.254504053007045705e+00 2.503996960834557584e+00 2.055252973267005068e+00 2.055252973267005068e+00 1.525267519646011483e+00 1.190663588511432058e+00 3.318026996695036535e-01 1.358295581607731894e-01 6.298291372961525303e-01 8.239835726059598908e-01 9.069901084117657497e-01 9.125762999139614973e-01 9.543052216251728392e-01 1.068209578917335589e+00 1.095123878745528634e+00 1.095123878745528634e+00 1.116197742612252242e+00 1.153341617571449040e+00 1.108759045218258965e+00 1.056332317700986012e+00 9.175054705639984487e-01 8.313615710239358192e-01 7.261425603877013080e-01 4.945856650553350775e-01 5.195847865637707175e-01 3.662246824399687517e-01 1.064622667366462300e-01 2.329201448689961068e-02 -4.159519793971184209e-01 -1.279786940776793225e+00 -1.279786940776793225e+00 -2.229705193013047371e+00 -2.854230828629316097e+00 -3.072944236232899584e+00 -3.275847090101220438e+00 -3.479449293030082657e+00 -3.518953903590742893e+00 -3.435853123100025552e+00 -3.270800423851234928e+00 -3.383120182842102697e+00 -3.277990198418478940e+00 -3.167772248157632475e+00 -3.167772248157632475e+00 -3.123490059829033605e+00 -3.050602984677607044e+00 -3.056294328812181771e+00 -2.986425520447032689e+00 -2.927553726440426551e+00 -2.818465769786135500e+00 -2.692117021314540892e+00 -2.803880467072192850e+00 -3.000369054423127402e+00 -3.387893629667117157e+00 -3.781760105737690836e+00 -3.781760105737690836e+00 -4.170544404603868216e+00 -4.570624003159491799e+00 -4.570624003159491799e+00 -4.984133780294689231e+00 -5.325886589762779622e+00 -5.456799160146573513e+00 -5.654022286719190049e+00 -5.917372280797700057e+00 -6.017523456270764015e+00 -6.256817700218061162e+00 -6.377661243301639971e+00 -6.443221685131870657e+00 -6.647881979227138416e+00 -6.860242726281852832e+00 -6.860242726281852832e+00 -7.030803683279071237e+00 -7.204239580061662096e+00 -7.328289519558776277e+00 -7.414859446329893800e+00 -7.602716954848644626e+00 -7.683594764356819873e+00 -7.824769932734329636e+00 -7.902431024440257801e+00 -7.946304765122562230e+00 -8.089622783302317544e+00 -8.222452758257276173e+00 -8.222452758257276173e+00 -8.347241144977390448e+00 -8.445347277914599715e+00 -8.495516095989122718e+00 -8.550339531123199777e+00 -8.659835075734871879e+00 -8.715467590782587592e+00 -8.824928679457441305e+00 -8.851275932240097788e+00 -8.923833438105820193e+00 -8.984074102533536887e+00 -9.054419872477781794e+00 -9.084588177324832259e+00 -9.139947161378167095e+00 -9.220111123950230692e+00 -9.220111123950230692e+00 -9.285249905409836302e+00 -9.337328024857574960e+00 -9.371125821539710188e+00 -9.396715322742650756e+00 -9.463358630022932871e+00 -9.461583465303128548e+00 -9.524370750437451960e+00 -9.568917607952878157e+00 -9.572591469838130251e+00 -9.627936372162487544e+00 -9.675500396836614669e+00
4.832582130874831350e+00 4.832582130874831350e+00 4.832582130874831350e+00 4.832582130874831350e+00 4.832582130874831350e+00 4.466176348373321225e+00 4.014476517736920158e+00 3.702830333075302072e+00 3.301726592961105489e+00 2.659994662691682166e+00 2.315670881686524130e+00 1.845483769585732459e+00 1.700482447345430970e+00 1.465516487099009835e+00 5.954961895276270623e-01 3.596219017004901319e-01 3.596219017004901319e-01 6.946948404939926602e-01 8.727604159681912055e-01 9.125762999139614973e-01 9.441627377627621609e-01 1.035634449045702787e+00 1.085185438108530853e+00 1.097541493839815363e+00 1.104477432896952660e+00 1.116394982433871697e+00 1.107250664931169304e+00 9.929689239840028270e-01 9.929689239840028270e-01 8.152291464084557848e-01 5.913321187902778053e-01 4.945856650553350775e-01 5.199689412717588555e-01 3.103591435473195825e-01 1.064622667366462300e-01 -2.737269369787415085e-01 -5.539122896246553296e-01 -9.786304276811199632e-01 -1.828056130887303565e+00 -2.315824672024402009e+00 -2.685557085623220708e+00 -3.082801715004734433e+00 -3.380224861574649076e+00 -3.380224861574649076e+00 -3.366388518092381155e+00 -3.259975806834158885e+00 -3.270800423851234928e+00 -3.133377094907570548e+00 -3.107082990855023485e+00 -3.137427619506327758e+00 -3.164842310467781417e+00 -3.128027912453674730e+00 -3.088215579388673859e+00 -3.010245346131867006e+00 -2.985031690395383741e+00 -2.985031690395383741e+00 -2.891145568229952723e+00 -2.754238439212847389e+00 -2.803880467072192850e+00 -2.964725070204308199e+00 -3.361470683733379872e+00 -3.580476516710792367e+00 -3.999411776990622336e+00 -4.218800291171918460e+00 -4.378618723405462987e+00 -4.800640801573094585e+00 -5.191697056119580544e+00 -5.191697056119580544e+00 -5.540967513442375036e+00 -5.830599927694303020e+00 -5.917372280797700057e+00 -6.037845070365624345e+00 -6.249027059671504958e+00 -6.377661243301639971e+00 -6.532681030667905731e+00 -6.669564933112512861e+00 -6.741512752126434194e+00 -6.953045904557369816e+00 -7.053437221044315919e+00 -7.134806886297351269e+00 -7.340598727529462408e+00 -7.498867299951645471e+00 -7.498867299951645471e+00 -7.679035614981899016e+00 -7.832935676033909722e+00 -7.902431024440257801e+00 -7.928351669461314088e+00 -8.106928304337500890e+00 -8.158739563747230861e+00 -8.279355065954058901e+00 -8.342542720870127937e+00 -8.411741404581107417e+00 -8.515314195600710789e+00 -8.605162966257275059e+00 -8.665361068021987023e+00 -8.722598569184398798e+00 -8.833427241724930212e+00 -8.932415710316261581e+00 -8.932415710316261581e+00 -8.991225299098235979e+00 -9.085578105363030232e+00 -9.117841726984389439e+00 -9.152028800090681315e+00 -9.227685259239292392e+00 -9.255101025573173601e+00 -9.326093892751101677e+00 -9.346566026281854178e+00 -9.380363822963987630e+00 -9.432163625012092822e+00 -9.484211133488695822e+00 -9.484211133488695822e+00 -9.532952294614320365e+00 -9.584844298420417630e+00 -9.584844298420417630e+00 -9.623041300490744021e+00 -9.681061822345085943e+00
4.809315796313386571e+00 4.809315796313386571e+00 4.809315796313386571e+00 4.809315796313386571e+00 4.941653723507481999e+00 4.065045920772498711e+00 4.065045920772498711e+00 3.580820057849137594e+00 2.982859329963772232e+00 2.659994662691682166e+00 2.383290837151573083e+00 1.956087907940666115e+00 1.700482447345430970e+00 1.295567924299255491e+00 1.087069128866522627e+00 3.799308118327413553e-01 3.592967739688336937e-01 6.494742104807474936e-01 8.100985271730277715e-01 9.035929173132992709e-01 9.805263316164850584e-01 9.805263316164850584e-01 1.046305853266498387e+00 1.078780938081399743e+00 1.104477432896952660e+00 1.111413371954089957e+00 1.082116254338842287e+00 1.037563692785799407e+00 8.942909614643747007e-01 7.956129989447464634e-01 7.212760472559713865e-01 5.658328830058987347e-01 3.683207440865003401e-01 3.683207440865003401e-01 1.363590174191482984e-01 -3.991701847111714940e-01 -5.539122896246553296e-01 -1.071540994475493447e+00 -1.945864086448343189e+00 -2.315824672024402009e+00 -2.865103515827566394e+00 -3.006531891278177770e+00 -3.222323134061581662e+00 -3.311421934094915365e+00 -3.261035295239762988e+00 -3.261035295239762988e+00 -3.147854620993796981e+00 -3.108694766625330175e+00 -3.107082990855023485e+00 -3.140503526623293684e+00 -3.137315574398122919e+00 -3.128027912453674730e+00 -3.093410252631240809e+00 -3.033341816934887358e+00 -3.012927673596889733e+00 -2.943436143617489176e+00 -2.877948433208887380e+00 -2.828945961361121419e+00 -2.801408584027194504e+00 -3.155158625316686560e+00 -3.155158625316686560e+00 -3.624477159809444515e+00 -4.051996090105028259e+00 -4.418943460660099021e+00 -4.418943460660099021e+00 -4.855360737625852074e+00 -5.229829897230393598e+00 -5.409184685116741775e+00 -5.565387827426108380e+00 -5.806405043414804901e+00 -5.965701099822755538e+00 -6.156966755313282746e+00 -6.265208393412086352e+00 -6.385806826144471593e+00 -6.565723831187344928e+00 -6.772669694151742803e+00 -6.772669694151742803e+00 -6.957897038699996983e+00 -7.132013348013015452e+00 -7.219049382269323800e+00 -7.354186587730169755e+00 -7.493880996802927186e+00 -7.568293262547275191e+00 -7.725100272243349053e+00 -7.848143071684689609e+00 -7.915648991129875967e+00 -8.037097169984408040e+00 -8.108911956193189496e+00 -8.168750460935616076e+00 -8.316384843197107912e+00 -8.404571913540500816e+00 -8.404571913540500816e+00 -8.528991285775843423e+00 -8.646992997227684441e+00 -8.665361068021987023e+00 -8.726375236755293585e+00 -8.835227720967415266e+00 -8.854417098810785092e+00 -8.950910034640445545e+00 -8.992439831017746243e+00 -9.060136324016049514e+00 -9.127677883362451894e+00 -9.188271516170237518e+00 -9.188271516170237518e+00 -9.261629842492460796e+00 -9.323578708573741380e+00 -9.346566026281854178e+00 -9.389601824388266849e+00 -9.437633616554228055e+00 -9.464817360735624518e+00 -9.512765346172939118e+00 -9.540037714082032494e+00 -9.573366854745641419e+00 -9.627906112287146101e+00 -9.689274743912202226e+00 -9.689274743912202226e+00
4.809315796313386571e+00 4.809315796313386571e+00 4.809315796313386571e+00 4.809315796313386571e+00 4.958013915814022177e+00 4.518339787477382963e+00 3.752339664895269600e+00 3.419801165613894689e+00 3.219835391191710805e+00 2.663261273524264450e+00 2.162371616252903195e+00 2.162371616252903195e+00 1.766058863166490855e+00 1.369926724768817383e+00 1.087069128866522627e+00 5.195083596714730190e-01 3.675875239534218686e-01 6.494742104807474936e-01 8.574938414495898442e-01 8.844125482904199309e-01 9.340020912381188367e-01 1.010486564539770704e+00 1.055136339475551743e+00 1.055136339475551743e+00 1.087129163417732469e+00 1.119122784292145178e+00 1.119122784292145178e+00 9.805431831676645338e-01 8.361040641308005172e-01 7.956129989447464634e-01 6.920652275233584172e-01 4.856011936148391661e-01 2.706000635195318638e-01 2.166725469012418803e-01 5.452183227116383368e-02 -4.251792966082378333e-01 -7.076263782160686633e-01 -1.598321983884818387e+00 -2.036243085605303982e+00 -2.478270141400310766e+00 -2.844454771463569731e+00 -3.169475085516197499e+00 -3.169475085516197499e+00 -3.307833015308899505e+00 -3.187574316557860943e+00 -3.164175456523292684e+00 -3.123358551529686888e+00 -3.132698896483952389e+00 -3.136601211553623259e+00 -3.149949411488271789e+00 -3.139515070360157534e+00 -3.127399566048170154e+00 -3.087645386445939000e+00 -3.012160394923159235e+00 -3.012160394923159235e+00 -2.918076558611211624e+00 -2.825958988574093222e+00 -2.768362814602084665e+00 -2.844489608249428869e+00 -3.224552061535406189e+00 -3.396776385357360262e+00 -3.853409344913470314e+00 -4.079910580385157637e+00 -4.249427020522628773e+00 -4.662725534589984733e+00 -4.903118490237051930e+00 -5.095854231842298354e+00 -5.421228110566984171e+00 -5.699614973750691149e+00 -5.699614973750691149e+00 -5.925642465752780197e+00 -6.169521325339712092e+00 -6.265208393412086352e+00 -6.383804188637956400e+00 -6.560126776818686167e+00 -6.658850668627273706e+00 -6.850894785831395772e+00 -6.937404372185955737e+00 -7.025977701168432787e+00 -7.217984944504427958e+00 -7.423140585333735331e+00 -7.423140585333735331e+00 -7.557856917964061338e+00 -7.775048477976687522e+00 -7.848143071684689609e+00 -7.946386828923120760e+00 -8.070331216521909212e+00 -8.108911956193189496e+00 -8.261419297626124703e+00 -8.311194090706706561e+00 -8.358525843499894137e+00 -8.496313075325481634e+00 -8.609484971530509512e+00 -8.609484971530509512e+00 -8.670790703872622629e+00 -8.788702160380719164e+00 -8.835227720967415266e+00 -8.861850966151003206e+00 -8.982810823894187280e+00 -8.992439831017746243e+00 -9.066650883056510679e+00 -9.136915408522760629e+00 -9.163258304563663970e+00 -9.239355351264141092e+00 -9.267938589923728543e+00 -9.291708810710566979e+00 -9.354310708817417108e+00 -9.413274497588323797e+00 -9.413274497588323797e+00 -9.466309928168939791e+00 -9.511010275933742264e+00 -9.540037714082032494e+00 -9.575759866519041097e+00 -9.627831341433472190e+00 -9.627702546341696532e+00 -9.712113890446740783e+00
4.786049461751940903e+00 4.786049461751940903e+00 4.786049461751940903e+00 4.786049461751940903e+00 4.934747581252579174e+00 4.570503226581445588e+00 3.716078932275737934e+00 3.081159184291145881e+00 3.081159184291145881e+00 2.579412984812552434e+00 2.141379170437252455e+00 1.979535841729955781e+00 1.824806138951162282e+00 1.508233107465071887e+00 1.284856631756598588e+00 3.730368416265000819e-01 2.192938038931340206e-01 4.863621234608979105e-01 8.258688417109600888e-01 9.098573964815825921e-01 9.098573964815825921e-01 9.938459512522053174e-01 1.038656698606368778e+00 1.068224646261134225e+00 1.064507333255413357e+00 1.090357967904457714e+00 1.052165394461160419e+00 8.970037813375815183e-01 7.987556954661042541e-01 7.422825483512687228e-01 5.714786273144006890e-01 3.451587358150631779e-01 3.451587358150631779e-01 1.194150799378958794e-01 -2.797777008918174158e-01 -4.251792966082378333e-01 -8.780490198013246594e-01 -1.694915632616154078e+00 -2.036243085605303982e+00 -2.425046862252779434e+00 -2.837307377628990324e+00 -3.024312399680048280e+00 -3.305494958316490983e+00 -3.287918565625644884e+00 -3.237579616780950964e+00 -3.154636496737687867e+00 -3.116732284689657462e+00 -3.116732284689657462e+00 -3.124437620353335276e+00 -3.139889648097271557e+00 -3.139515070360157534e+00 -3.146136944604990937e+00 -3.104805507293212141e+00 -3.034306029690797768e+00 -2.991935638160012179e+00 -2.973819221442371319e+00 -2.901764934218183267e+00 -2.791643115306626566e+00 -3.057728025908301284e+00 -3.057728025908301284e+00 -3.476172031706385113e+00 -3.888379095090065185e+00 -4.079910580385157637e+00 -4.316629298111474888e+00 -4.725316566257563800e+00 -4.903118490237051930e+00 -5.277068393707858185e+00 -5.425336446384124045e+00 -5.556219013901163351e+00 -5.836074515757037950e+00 -6.073632837024000253e+00 -6.073632837024000253e+00 -6.262509160172287537e+00 -6.460473627336680735e+00 -6.460473627336680735e+00 -6.669138049928441170e+00 -6.802013730084597753e+00 -6.937404372185955737e+00 -7.037086366582076202e+00 -7.221897281118685896e+00 -7.369907430179717167e+00 -7.476487687622129563e+00 -7.548004389586326468e+00 -7.670533565469192183e+00 -7.857346713027089535e+00 -8.028720082323983931e+00 -8.028720082323983931e+00 -8.151130283576822677e+00 -8.263905182544670325e+00 -8.311194090706706561e+00 -8.392331867330755202e+00 -8.501260177891783343e+00 -8.553250781889145671e+00 -8.658478104284064614e+00 -8.677557630532479749e+00 -8.732365555586111938e+00 -8.842604749128089026e+00 -8.946293956511349066e+00 -8.946293956511349066e+00 -9.001229055329242001e+00 -9.095820226072977022e+00 -9.136915408522760629e+00 -9.171263008496950420e+00 -9.244168369136888330e+00 -9.267938589923728543e+00 -9.320284420573509365e+00 -9.358043695989856303e+00 -9.394950134426878208e+00 -9.454185143414868264e+00 -9.526061995646905700e+00 -9.526061995646905700e+00 -9.577509857775325486e+00 -9.614592821459646999e+00 -9.614592821459646999e+00 -9.657211524980708006e+00 -9.715313260111422267e+00
4.762783127190497900e+00 4.762783127190497900e+00 4.762783127190497900e+00 4.762783127190497900e+00 4.934747581252579174e+00 4.169372798980623074e+00 3.693425077657364497e+00 3.345291416097861958e+00 2.859935102933173212e+00 2.374578789768484466e+00 2.374578789768484466e+00 2.034957799761920594e+00 1.736101927889641461e+00 1.736101927889641461e+00 1.433470229491647041e+00 5.095860139094118280e-01 2.192938038931340206e-01 3.785432027365751573e-01 7.988179359867005891e-01 8.545272501548091260e-01 9.451194887900777886e-01 1.006709151781563172e+00 1.028510969173726863e+00 1.051928735258735426e+00 1.075346501343744210e+00 1.075346501343744210e+00 1.016787808643419000e+00 8.587816226667666086e-01 7.987556954661042541e-01 7.007754366901143284e-01 5.035108996983181928e-01 4.511679147204458729e-01 2.210294775518538979e-01 1.480453122090084339e-01 -1.673652455754243151e-02 -4.926507765262253535e-01 -1.303105325902792044e+00 -1.303105325902792044e+00 -2.080000816267414621e+00 -2.716271404608148643e+00 -2.837307377628990324e+00 -3.062335586636094842e+00 -3.325231851515374260e+00 -3.287918565625644884e+00 -3.203515198375326278e+00 -3.153305491597679033e+00 -3.118995429187121804e+00 -3.113331835972742656e+00 -3.121664620636245502e+00 -3.121664620636245502e+00 -3.162848879663927359e+00 -3.182628488013341972e+00 -3.182628488013341972e+00 -3.141297050701563176e+00 -3.067461491684559949e+00 -2.973819221442371319e+00 -2.940443113434011213e+00 -2.812629942569425445e+00 -2.833615126923973104e+00 -3.255322265339041454e+00 -3.446711256174570082e+00 -3.667536555521188735e+00 -4.126268034685542041e+00 -4.550569342160674324e+00 -4.550569342160674324e+00 -4.954073370149950861e+00 -5.305346764468758636e+00 -5.425336446384124045e+00 -5.575812702920878827e+00 -5.863637018470526208e+00 -5.994487220041104791e+00 -6.169897614336106173e+00 -6.264267449660549048e+00 -6.363041119454375227e+00 -6.556858020714081192e+00 -6.728401263138479749e+00 -6.728401263138479749e+00 -6.921297772657266201e+00 -7.136996926982798861e+00 -7.221897281118685896e+00 -7.385628272629264579e+00 -7.459094378441332829e+00 -7.548004389586326468e+00 -7.793236850397795124e+00 -7.820849641061240476e+00 -7.913972362103544711e+00 -8.107834618369313517e+00 -8.179422348775000629e+00 -8.231412952772362956e+00 -8.340341263333391097e+00 -8.449269573894421015e+00 -8.449269573894421015e+00 -8.558197884455449156e+00 -8.669963211340444786e+00 -8.677557630532479749e+00 -8.741888966111602599e+00 -8.849981777288766338e+00 -8.871316603351136365e+00 -8.989980315587841275e+00 -9.010018279640735983e+00 -9.072338760229184729e+00 -9.143224653265615842e+00 -9.194529210244551720e+00 -9.194529210244551720e+00 -9.272751607796475781e+00 -9.330657296832457703e+00 -9.398683121599317403e+00 -9.398683121599317403e+00 -9.456562468780187913e+00 -9.533312881596799571e+00 -9.513550391114408811e+00 -9.576053262255756593e+00 -9.615904488064906275e+00 -9.635628082309340314e+00 -9.682292338766050221e+00 -9.718512629776103751e+00
4.761222746852666887e+00 4.761222746852666887e+00 4.761222746852666887e+00 4.762783127190497900e+00 4.911481246691133506e+00 4.221536238084684811e+00 3.693425077657364497e+00 3.368623319956920881e+00 2.927870255318227422e+00 2.652456236342761287e+00 2.232273142277862554e+00 2.107389619960942095e+00 1.920918132181678839e+00 1.616015819958941391e+00 1.067090353219927179e+00 1.067090353219927179e+00 3.286569027397333587e-01 5.484154488592972720e-01 7.988179359867005891e-01 8.845476991452780879e-01 9.897687244639843396e-01 1.006709151781563172e+00 1.037720665905035311e+00 1.046930362636343981e+00 1.061138431990044095e+00 1.056736102863871984e+00 9.842695232281626350e-01 9.248886758776841965e-01 7.604944024205919639e-01 6.093993527317821401e-01 6.093993527317821401e-01 3.107622077768132929e-01 3.009658334333682461e-01 1.480453122090084339e-01 -1.116027961733001006e-01 -6.033244393493545354e-01 -9.547129348357864531e-01 -1.745209444209439020e+00 -2.163933926996731927e+00 -2.472476907363200471e+00 -3.001978939111188627e+00 -3.281980960215752141e+00 -3.281980960215752141e+00 -3.296267135108255530e+00 -3.187499152070350839e+00 -3.153305491597679033e+00 -3.086485047458099373e+00 -3.053197328235431662e+00 -3.101709551285546596e+00 -3.138214627890501429e+00 -3.192605090890340058e+00 -3.226855343513484353e+00 -3.219120031421692563e+00 -3.177319949315423386e+00 -3.177319949315423386e+00 -3.069580603235689154e+00 -2.894039812437192438e+00 -2.812629942569425445e+00 -2.829924615002269661e+00 -3.230424424373544490e+00 -3.446711256174570082e+00 -3.698214246744382816e+00 -4.177091711278787756e+00 -4.369007585997449539e+00 -4.783607649055970690e+00 -4.992941542209982764e+00 -5.169146433329508739e+00 -5.481492987023653285e+00 -5.731828257788988523e+00 -5.731828257788988523e+00 -5.984632949032792304e+00 -6.168075827332972771e+00 -6.264267449660549048e+00 -6.360638987597612370e+00 -6.550093539732750436e+00 -6.755939088386477387e+00 -6.846500761860184525e+00 -6.936058670072778654e+00 -7.142759667071508112e+00 -7.232497191210442544e+00 -7.413777721440020230e+00 -7.464173215158151464e+00 -7.551273779590546020e+00 -7.759578858575280513e+00 -7.928599441116329416e+00 -7.928599441116329416e+00 -8.116509571694484393e+00 -8.236360055338666442e+00 -8.288350659336028770e+00 -8.345288365899694583e+00 -8.454216676460722724e+00 -8.506207280458086828e+00 -8.620741995964417370e+00 -8.681734938916457978e+00 -8.689042737588859922e+00 -8.802464613835802254e+00 -8.880782240551271300e+00 -8.880782240551271300e+00 -8.995866404114661208e+00 -9.077910046554830359e+00 -9.077910046554830359e+00 -9.148529051215252395e+00 -9.203738119161702258e+00 -9.248981387009637345e+00 -9.277564625669224796e+00 -9.337437871519046695e+00 -9.361776683162297275e+00 -9.420253838164434512e+00 -9.458939794145509339e+00 -9.472299327788087808e+00 -9.516090506295075357e+00 -9.603122017322540671e+00 -9.603122017322540671e+00 -9.643424823185208439e+00 -9.677479654413804866e+00 -9.718512629776103751e+00
4.761222746852666887e+00 4.761222746852666887e+00 4.761222746852666887e+00 4.761222746852666887e+00 4.888214912129690504e+00 4.674830104789569063e+00 3.733641857895026561e+00 3.092409305189997237e+00 3.092409305189997237e+00 2.728520305587652128e+00 2.273697136289821064e+00 2.107389619960942095e+00 1.986721298735031560e+00 1.620184507829020681e+00 1.467159762776971910e+00 6.669045402166074998e-01 3.632899587615712189e-01 1.792822307464834175e-01 7.664458544751738822e-01 9.716547094018764819e-01 9.716547094018764819e-01 1.027751835694105997e+00 1.022929089630237875e+00 1.046930362636343981e+00 1.051167983594885724e+00 1.014051631112559360e+00 9.842695232281626350e-01 8.337634233272649409e-01 7.062351332879981403e-01 6.724175236231225705e-01 4.631833412879411971e-01 3.610657273827226343e-01 3.610657273827226343e-01 7.651549863629136805e-02 -3.972511709016373072e-01 -6.033244393493545354e-01 -1.041813614773861696e+00 -1.938623397951438898e+00 -2.163933926996731927e+00 -2.520622095097253101e+00 -3.036353601021493986e+00 -3.197464938229485298e+00 -3.320910052390220635e+00 -3.290489824959846654e+00 -3.210216641164443718e+00 -3.152798866186080851e+00 -3.073527243584958324e+00 -3.162784114288125448e+00 -3.131498316623376077e+00 -3.221754739311822213e+00 -3.324997594441642335e+00 -3.324997594441642335e+00 -3.327286426824217713e+00 -3.326325139925554009e+00 -3.206200900898418471e+00 -3.203877659810729917e+00 -3.048321558532429698e+00 -2.842307469766649053e+00 -3.021785025788831458e+00 -3.271051646442495464e+00 -3.494132328488860573e+00 -3.965428201414895604e+00 -4.417026507096009524e+00 -4.417026507096009524e+00 -4.806056445903876373e+00 -5.189130337328576204e+00 -5.331978552262476967e+00 -5.466969018578780037e+00 -5.705410177150476159e+00 -5.844832665080172518e+00 -6.062917965573618950e+00 -6.160308010023831216e+00 -6.268656937685820552e+00 -6.463698479945497510e+00 -6.569692146156787871e+00 -6.680487411025931799e+00 -6.827315675810694984e+00 -7.030707477382467374e+00 -7.030707477382467374e+00 -7.236654711155867226e+00 -7.408545841521184450e+00 -7.464173215158151464e+00 -7.572913349751568823e+00 -7.763151588789590996e+00 -7.822306696524389480e+00 -7.980994194902059746e+00 -8.102279847640730281e+00 -8.189688623461311323e+00 -8.293297761902332255e+00 -8.402226072463360396e+00 -8.402226072463360396e+00 -8.511154383024388537e+00 -8.625517263004763180e+00 -8.681734938916457978e+00 -8.700527844645240094e+00 -8.809460710036194797e+00 -8.857358805449441874e+00 -8.953554939588489248e+00 -9.001752492641481140e+00 -9.018807503952229965e+00 -9.109479988855222032e+00 -9.181938617938836700e+00 -9.181938617938836700e+00 -9.253794404882386360e+00 -9.306147864328810471e+00 -9.337437871519046695e+00 -9.365509670334736469e+00 -9.426101966897229900e+00 -9.458939794145509339e+00 -9.478623611807803329e+00 -9.518630621475740128e+00 -9.574596666736189476e+00 -9.609912164427857562e+00 -9.651235841790208880e+00 -9.676431106071211374e+00 -9.721711999440785235e+00
4.761222746852666887e+00 4.761222746852666887e+00 4.761222746852666887e+00 4.888214912129690504e+00 4.888214912129690504e+00 4.235627233487002208e+00 3.807295300086887657e+00 3.448732883359141965e+00 2.998714887871047452e+00 2.507731772670993120e+00 2.507731772670993120e+00 2.158868273234343160e+00 1.822960760816473069e+00 1.579823385351770249e+00 1.423585247896440809e+00 7.063213512720998288e-01 2.400754159355435458e-01 2.400754159355435458e-01 6.957577835200211558e-01 8.410964464617245451e-01 9.544316073411631685e-01 9.337838376323593925e-01 1.009524769014481516e+00 1.031704925289048225e+00 1.015172172653948879e+00 9.791763617130120334e-01 9.623207589271242091e-01 7.781804152482552084e-01 5.700158176976433122e-01 5.700158176976433122e-01 3.748755074178459767e-01 1.330675098624294062e-01 1.187467498621901374e-01 -1.376638312666899622e-01 -4.291148882703695877e-01 -6.712931402599622288e-01 -1.479501513406723978e+00 -1.914074680643345072e+00 -2.245174548911305745e+00 -2.849244516631319613e+00 -3.170208653685629763e+00 -3.170208653685629763e+00 -3.337950190108510462e+00 -3.255900609866377859e+00 -3.210216641164443718e+00 -3.176744964704293128e+00 -3.194069911952874818e+00 -3.162784114288125448e+00 -3.278518752895274613e+00 -3.373614438088864631e+00 -3.357609491891974773e+00 -3.365717669601810069e+00 -3.432304608974531046e+00 -3.367893230910592450e+00 -3.326039822247389033e+00 -3.180710267084337239e+00 -3.180710267084337239e+00 -3.025360225234291711e+00 -3.047970964396131244e+00 -3.271051646442495464e+00 -3.534598612524070482e+00 -4.022199953441511155e+00 -4.228621687840369070e+00 -4.618541082389040042e+00 -4.822551044687178212e+00 -5.007571021196906003e+00 -5.347541258374633344e+00 -5.601291835056769308e+00 -5.601291835056769308e+00 -5.839486526742614814e+00 -6.051959082361840103e+00 -6.160308010023831216e+00 -6.270440532457604021e+00 -6.461049015402659634e+00 -6.569692146156787871e+00 -6.785341255837245455e+00 -6.818088328956322997e+00 -6.918655287693426637e+00 -7.149000757094168712e+00 -7.304185349676496131e+00 -7.304185349676496131e+00 -7.472291142885133297e+00 -7.688327229779400085e+00 -7.763151588789590996e+00 -7.829490783566722456e+00 -8.017257785441122664e+00 -8.102279847640730281e+00 -8.173072185786585564e+00 -8.298244864468633963e+00 -8.350235468465996291e+00 -8.459163779027026209e+00 -8.516101485590692022e+00 -8.568092089588056126e+00 -8.692525299401870242e+00 -8.762084972306785957e+00 -8.762084972306785957e+00 -8.864735833610117410e+00 -8.956953475167830803e+00 -9.001752492641481140e+00 -9.027596728263723946e+00 -9.112202434149514474e+00 -9.150382255538030307e+00 -9.213057573733967942e+00 -9.258607422755133598e+00 -9.282377643541973811e+00 -9.344218446205635686e+00 -9.406149095944197569e+00 -9.406149095944197569e+00 -9.461317119510830764e+00 -9.539780354403095686e+00 -9.518630621475740128e+00 -9.573140071216618807e+00 -9.607575327711156632e+00 -9.651235841790208880e+00 -9.672666970061555958e+00 -9.724911369105468495e+00
4.864948577568251054e+00 4.864948577568251054e+00 4.864948577568251054e+00 4.864948577568251054e+00 4.864948577568251054e+00 4.120124000645985163e+00 3.622366239626535034e+00 3.622366239626535034e+00 3.099076473903542350e+00 2.589569088986708678e+00 2.317766862464927247e+00 2.161518978122464407e+00 1.754068742595608077e+00 1.579823385351770249e+00 1.094537192599492448e+00 7.377050255447081817e-01 4.527504074720215543e-01 3.754364420189227891e-01 7.584391298304136164e-01 7.584391298304136164e-01 8.685505422828718736e-01 9.801858017587337102e-01 1.009524769014481516e+00 9.745910950762889380e-01 9.624935552650254467e-01 9.791763617130120334e-01 9.268491236269073008e-01 7.164456303248688540e-01 6.419610996579003803e-01 4.337965021072883731e-01 2.850548476585340607e-01 1.932284219508378087e-01 -8.583172123418020272e-02 -3.638792389780784453e-01 -3.638792389780784453e-01 -7.297154462526690422e-01 -1.550736454362141803e+00 -1.914074680643345072e+00 -2.352292231915843690e+00 -2.998626191490999293e+00 -3.099490264840766951e+00 -3.288121437092562438e+00 -3.351131500384845197e+00 -3.310960037866681471e+00 -3.249192963718797067e+00 -3.213441148204051689e+00 -3.213441148204051689e+00 -3.277181225975276391e+00 -3.375724258539802403e+00 -3.373614438088864631e+00 -3.476743554616655185e+00 -3.487740440264449404e+00 -3.432304608974531046e+00 -3.422191367106945936e+00 -3.432335428345639983e+00 -3.310214852449926415e+00 -3.139666985914697506e+00 -2.970895594547322993e+00 -2.970895594547322993e+00 -3.258046986138124268e+00 -3.769540599460810881e+00 -3.769540599460810881e+00 -4.260851341945244286e+00 -4.655258514597528929e+00 -4.822551044687178212e+00 -5.026155735459267859e+00 -5.358408179612099254e+00 -5.486966320283229059e+00 -5.734684583487972276e+00 -5.853279949571680518e+00 -5.974120325278266641e+00 -6.162091604795612909e+00 -6.385532993073307573e+00 -6.385532993073307573e+00 -6.566030368898908343e+00 -6.756564406769721032e+00 -6.818088328956322997e+00 -6.924896377716087237e+00 -7.155241847116828424e+00 -7.245092649895412684e+00 -7.433945103500965601e+00 -7.463094584960888511e+00 -7.594938615979887508e+00 -7.767291066805640298e+00 -7.925820234293723843e+00 -7.925820234293723843e+00 -8.088050123586976170e+00 -8.243864523932440846e+00 -8.298244864468633963e+00 -8.355182571032299776e+00 -8.464110881593327917e+00 -8.516101485590692022e+00 -8.630292530045107213e+00 -8.698482652459137654e+00 -8.712012951701620267e+00 -8.816456806236587340e+00 -8.872112861770792946e+00 -8.899686786962210050e+00 -9.007638581168301073e+00 -9.088569887329523311e+00 -9.088569887329523311e+00 -9.155414301416129774e+00 -9.222387085320569611e+00 -9.258607422755133598e+00 -9.287190661414721049e+00 -9.350999020892224678e+00 -9.369476130111248580e+00 -9.432134354038796076e+00 -9.463694444876152190e+00 -9.484947895827522402e+00 -9.521170736656406675e+00 -9.600208826283402885e+00 -9.600208826283402885e+00 -9.655639373367353784e+00 -9.697756381384404989e+00 -9.739111634944956464e+00
4.841682243006804498e+00 4.841682243006804498e+00 4.841682243006804498e+00 4.841682243006804498e+00 4.841682243006804498e+00 4.398265542277981055e+00 3.945270372580496510e+00 3.422207860416095926e+00 3.123910070262896355e+00 2.882178486225481784e+00 2.353263914872910867e+00 1.979832158373174611e+00 1.979832158373174611e+00 1.570283985421236039e+00 9.622887192505986675e-01 7.377050255447081817e-01 4.485984341637479500e-01 3.461447722745756295e-01 5.797986475409828699e-01 8.063365148785759384e-01 9.111684083599991268e-01 9.463381096972921513e-01 1.009370607692467781e+00 9.828275082484176917e-01 9.828275082484176917e-01 9.562844088043673807e-01 7.873678772578774909e-01 7.164456303248688540e-01 5.724021759967083955e-01 3.574364747355391891e-01 2.850548476585340607e-01 1.928153333483897947e-02 -1.145450192624516417e-01 -2.695675636591920443e-01 -4.700587964818266906e-01 -8.676504754271443520e-01 -1.186011142177811450e+00 -2.010021476900406334e+00 -2.704027848470781592e+00 -2.704027848470781592e+00 -3.152097704052865268e+00 -3.283035582494127524e+00 -3.351131500384845197e+00 -3.315023084826875799e+00 -3.264911474102449862e+00 -3.250357688065521167e+00 -3.282411334468864794e+00 -3.336991849985795344e+00 -3.369192889271056313e+00 -3.455974444073247831e+00 -3.565188517904950949e+00 -3.565188517904950949e+00 -3.577087522387948582e+00 -3.542018864239393938e+00 -3.432335428345639983e+00 -3.402731795674474036e+00 -3.174320968737488702e+00 -3.071720044058478649e+00 -2.997402256047033919e+00 -3.249306754775671102e+00 -3.516750356789870580e+00 -4.043444932291899718e+00 -4.497312558880084410e+00 -4.497312558880084410e+00 -4.863800748467756563e+00 -5.258418289077686936e+00 -5.358408179612099254e+00 -5.508964242942229639e+00 -5.734010984517635023e+00 -5.853279949571680518e+00 -6.070679319739840096e+00 -6.173906547593539962e+00 -6.272224127229387491e+00 -6.440366130337213946e+00 -6.552672861146292327e+00 -6.654645742116721330e+00 -6.805946358292285225e+00 -7.047050932969284531e+00 -7.047050932969284531e+00 -7.253530588634958143e+00 -7.450213581591502710e+00 -7.463094584960888511e+00 -7.626800645502352261e+00 -7.761863917384297373e+00 -7.918005999187759159e+00 -8.003028061387368552e+00 -8.073820399533223835e+00 -8.229634799878686735e+00 -8.327375384229487310e+00 -8.412120277595965590e+00 -8.469057984159633179e+00 -8.521048588156995507e+00 -8.635067797085451247e+00 -8.723498058758002216e+00 -8.723498058758002216e+00 -8.823452902436981660e+00 -8.909009744227301297e+00 -8.960427946900823670e+00 -9.013524669695122782e+00 -9.093899807716869788e+00 -9.117890311322188523e+00 -9.194477106575511982e+00 -9.231716596907171279e+00 -9.263420440627882613e+00 -9.315677498599804096e+00 -9.373825315945778058e+00 -9.373825315945778058e+00 -9.438166741180362251e+00 -9.492511458211259523e+00 -9.492511458211259523e+00 -9.523710851837073221e+00 -9.598752230763833992e+00 -9.627277581350188740e+00 -9.644004837700286714e+00 -9.702119875566154406e+00 -9.728110738770149979e+00
4.818415908445361495e+00 4.818415908445361495e+00 4.818415908445361495e+00 4.841682243006804498e+00 4.729440130336072023e+00 4.398265542277981055e+00 3.964831563886816568e+00 3.363871786356599891e+00 3.123910070262896355e+00 2.583194396895926115e+00 2.342272046960965692e+00 2.245727310960818457e+00 1.882491634874223330e+00 1.764405951898831759e+00 1.298492522830037910e+00 6.351612182740258294e-01 3.084804243101718635e-01 3.084804243101718635e-01 5.095774495418969874e-01 8.690098845300849861e-01 9.111684083599991268e-01 9.635276702468096310e-01 1.043455138458922793e+00 1.021151321584684579e+00 9.946082221406342683e-01 9.282466450281993131e-01 8.989104005499233274e-01 6.448337679299204206e-01 4.298181018125443731e-01 4.298181018125443731e-01 2.744765555996787620e-01 5.727866752496061503e-02 -1.145450192624516417e-01 -2.550920059591025302e-01 -5.632876369325351407e-01 -8.676504754271443520e-01 -1.683403864276499462e+00 -2.195512369593897617e+00 -2.476166204354063538e+00 -3.035151123013662744e+00 -3.247909468269296163e+00 -3.247909468269296163e+00 -3.289658833270094895e+00 -3.267294170802568676e+00 -3.264911474102449862e+00 -3.249702282153857258e+00 -3.279887382715984678e+00 -3.336991849985795344e+00 -3.391572365502725450e+00 -3.567026364265636573e+00 -3.608649891705593138e+00 -3.660573103805114581e+00 -3.698378819448028043e+00 -3.605832226661463302e+00 -3.507001865651031558e+00 -3.390580647202855680e+00 -3.241599609478957866e+00 -2.990677800846860634e+00 -3.001799171444406333e+00 -3.537878837850639613e+00 -3.537878837850639613e+00 -4.058763554132598372e+00 -4.507464058168173970e+00 -4.714990611904628537e+00 -4.963185130657590705e+00 -5.208523735980495672e+00 -5.397082856574458631e+00 -5.616018964352075926e+00 -5.736400699922698188e+00 -5.841266851833941232e+00 -6.055371485000629050e+00 -6.277132094773270055e+00 -6.277132094773270055e+00 -6.451423294067721415e+00 -6.654782831626385509e+00 -6.719870166605817374e+00 -6.849674756674663634e+00 -7.016608013186518278e+00 -7.166193147170821121e+00 -7.309607404935377417e+00 -7.437175159115589906e+00 -7.446481139696693674e+00 -7.673739590419769385e+00 -7.774479595220605610e+00 -7.842927171544403997e+00 -7.988798337333613553e+00 -8.144612737679077341e+00 -8.144612737679077341e+00 -8.300427138024542018e+00 -8.417228531866529195e+00 -8.469057984159633179e+00 -8.525995690723298992e+00 -8.639843064125797056e+00 -8.704440005516405066e+00 -8.782280978501969315e+00 -8.830865187794252336e+00 -8.879489889931470259e+00 -8.969734935557475808e+00 -9.045175176886713686e+00 -9.045175176886713686e+00 -9.123578188494860797e+00 -9.201620546625559172e+00 -9.231716596907171279e+00 -9.268233458500629851e+00 -9.324346436138760907e+00 -9.357779595578815446e+00 -9.413615070289077735e+00 -9.444199128321928427e+00 -9.468541723814983158e+00 -9.543268087240191377e+00 -9.570226880177482798e+00 -9.570226880177482798e+00 -9.625820985830618071e+00 -9.688044900510082158e+00 -9.702119875566154406e+00 -9.731310108434833239e+00
4.818415908445361495e+00 4.818415908445361495e+00 4.818415908445361495e+00 4.818415908445361495e+00 4.818415908445361495e+00 4.110295027581053695e+00 3.602664556912809513e+00 3.602664556912809513e+00 3.050459827393816603e+00 2.597797973405991279e+00 2.342272046960965692e+00 2.229386330864839394e+00 1.903903374505565571e+00 1.764405951898831759e+00 7.259517118144860337e-01 5.966421495137752551e-01 4.644039836882629668e-01 2.868475077912566729e-01 6.852830262427626051e-01 6.852830262427626051e-01 9.263167553303612856e-01 1.008687880051819530e+00 1.023827373797224549e+00 1.034626563426399137e+00 9.818732707875172938e-01 8.468728570078386531e-01 8.468728570078386531e-01 6.918869124211148858e-01 3.555870189262355097e-01 3.110213739054102922e-01 2.934496136746094219e-01 9.810511777166601444e-02 -4.233323946322320452e-02 -5.355192314389061181e-01 -5.612830518615560260e-01 -9.626746539590185225e-01 -1.876090537548467552e+00 -2.591222301494674696e+00 -2.591222301494674696e+00 -3.029329192892902700e+00 -3.276617664282055031e+00 -3.283488060041215295e+00 -3.228595679572711319e+00 -3.220946684579733432e+00 -3.225655155189334433e+00 -3.271658816341989962e+00 -3.282400614539760841e+00 -3.347921975768780367e+00 -3.505761091552758835e+00 -3.647882481160912960e+00 -3.647882481160912960e+00 -3.732896697790951013e+00 -3.649406910915837798e+00 -3.605832226661463302e+00 -3.535768254574262581e+00 -3.432069057509182564e+00 -3.241599609478957866e+00 -2.871906844020009952e+00 -3.045026345857359651e+00 -3.275027553248412104e+00 -3.823481942838328873e+00 -4.090317148262648139e+00 -4.303310528243097011e+00 -4.740178621612368914e+00 -5.084036600776538073e+00 -5.084036600776538073e+00 -5.370232187093116671e+00 -5.618570336067419291e+00 -5.736400699922698188e+00 -5.855580637784090214e+00 -6.069736048369986925e+00 -6.171811847840504406e+00 -6.366352898475700073e+00 -6.457792472658026028e+00 -6.544932396993345947e+00 -6.758031283506477749e+00 -6.922951313923684680e+00 -6.922951313923684680e+00 -7.164730205994748857e+00 -7.327050308425993030e+00 -7.437175159115589906e+00 -7.472313403016645594e+00 -7.655184499019454414e+00 -7.774479595220605610e+00 -7.915504490414821959e+00 -7.996581264835816327e+00 -8.059590675479467947e+00 -8.215405075824932624e+00 -8.371219476170395524e+00 -8.371219476170395524e+00 -8.474005086725934888e+00 -8.582933397286963029e+00 -8.639843064125797056e+00 -8.710397358573672477e+00 -8.792378981599561882e+00 -8.830865187794252336e+00 -8.886866918092145795e+00 -8.979041924214127945e+00 -9.019410758221942714e+00 -9.099229728104216264e+00 -9.128953049742797532e+00 -9.165510965994473125e+00 -9.241046108493772948e+00 -9.296816697160217302e+00 -9.296816697160217302e+00 -9.364560170265404437e+00 -9.417348057461516930e+00 -9.444199128321928427e+00 -9.473940127123160693e+00 -9.545011953658738335e+00 -9.526250967017739768e+00 -9.597295635244265100e+00 -9.624364390311050954e+00 -9.649946753252843124e+00 -9.711028313203067697e+00 -9.744826665190689852e+00
4.795149573883917604e+00 4.795149573883917604e+00 4.795149573883917604e+00 4.795149573883917604e+00 4.795149573883917604e+00 4.183224183521801365e+00 3.557738911389306757e+00 3.302306496881329601e+00 3.088553520518910300e+00 2.661075547537029795e+00 2.377923269251856375e+00 2.190222760780559330e+00 2.001795918339329461e+00 1.521526580999740919e+00 7.282122928199983303e-01 5.084507183636390870e-01 5.084507183636390870e-01 2.556158987651924730e-01 6.161615815648570083e-01 7.712391684476092024e-01 9.163209873849144094e-01 9.982466381506895914e-01 1.023827373797224549e+00 1.014119664858557091e+00 9.715809664592235384e-01 9.116134798595022515e-01 7.569390233415915770e-01 4.851760180093415697e-01 4.851760180093415697e-01 2.624065022009355319e-01 2.208832992264563311e-01 9.810511777166601444e-02 -1.933701423438883849e-01 -5.106596303740438270e-01 -5.612830518615560260e-01 -1.053758412565065417e+00 -1.986261266268700476e+00 -2.325699671071649099e+00 -2.877062736046790192e+00 -3.097302055009917066e+00 -3.176357003892951614e+00 -3.230029811702635811e+00 -3.175351239143449078e+00 -3.175351239143449078e+00 -3.197594631639153029e+00 -3.275083242503478598e+00 -3.282400614539760841e+00 -3.358886894467220330e+00 -3.532848929451311015e+00 -3.573565309553033309e+00 -3.711847913470364801e+00 -3.733377503097313976e+00 -3.714147152444545519e+00 -3.604703657663557159e+00 -3.499215503562840723e+00 -3.499215503562840723e+00 -3.247734513292853009e+00 -2.873046626137050197e+00 -3.045026345857359651e+00 -3.308349747386181594e+00 -3.850339987699923139e+00 -4.090317148262648139e+00 -4.539598149822321460e+00 -4.776046381730473911e+00 -4.985925568207629333e+00 -5.245745051889160848e+00 -5.500442541900963711e+00 -5.500442541900963711e+00 -5.743742741744081393e+00 -5.987551403205282341e+00 -6.069736048369986925e+00 -6.144650393868388072e+00 -6.340755061023804373e+00 -6.457792472658026028e+00 -6.536905841626848179e+00 -6.721705036194401295e+00 -6.831672562292316897e+00 -7.036993246525330648e+00 -7.138956076173613496e+00 -7.242586080235871471e+00 -7.427140343930086708e+00 -7.637533024953707006e+00 -7.637533024953707006e+00 -7.744842128174575180e+00 -7.924992364435420100e+00 -7.996581264835816327e+00 -8.069059486861068109e+00 -8.202142857802300568e+00 -8.286197413970787906e+00 -8.465062144997663296e+00 -8.480572845282265959e+00 -8.530942793289602477e+00 -8.644618331166141090e+00 -8.746586549975216229e+00 -8.746586549975216229e+00 -8.843848535162512903e+00 -8.927655658757483792e+00 -8.979041924214127945e+00 -9.025296846748760871e+00 -9.104559648491562740e+00 -9.128953049742797532e+00 -9.210540541470692233e+00 -9.249367807822180154e+00 -9.268855373568651856e+00 -9.342353473158732768e+00 -9.382523687614837016e+00 -9.382523687614837016e+00 -9.450231515463492826e+00 -9.508415943037549667e+00 -9.508415943037549667e+00 -9.528791082198406315e+00 -9.595839039724696207e+00 -9.624364390311050954e+00 -9.651433145377833256e+00 -9.721274700908391964e+00 -9.728541886988322673e+00
4.771883239322471937e+00 4.771883239322471937e+00 4.771883239322471937e+00 4.771883239322471937e+00 4.823623045678386845e+00 3.898975601743528863e+00 3.898975601743528863e+00 3.346901985076073949e+00 2.876077575369186068e+00 2.876077575369186068e+00 2.471835528191728137e+00 2.239775331165206218e+00 2.001795918339329461e+00 1.619419124833504808e+00 7.240153189688223190e-01 6.186183181164124356e-01 3.608787156113285599e-01 2.570129600398553538e-01 4.001485814885538117e-01 7.612434005021622152e-01 9.595941282305658904e-01 9.595941282305658904e-01 1.024643135535878713e+00 1.001954787539766079e+00 9.715809664592235384e-01 9.071198800301490950e-01 7.341308318157735435e-01 6.306167332788508162e-01 2.953441518640719798e-01 1.500186012613333453e-01 2.205550161644581064e-01 1.024724793980448523e-02 -4.794547139852848305e-01 -4.794547139852848305e-01 -7.294747181325762497e-01 -1.578426891581005131e+00 -1.986261266268700476e+00 -2.465246087926459939e+00 -3.083187014397497983e+00 -3.097302055009917066e+00 -3.251521678047128106e+00 -3.251315731797951525e+00 -3.223169482233037009e+00 -3.181026584952442615e+00 -3.199789162937330289e+00 -3.199789162937330289e+00 -3.317157631175857713e+00 -3.439517781870606861e+00 -3.439517781870606861e+00 -3.606814333629414726e+00 -3.714964621562643288e+00 -3.733377503097313976e+00 -3.729779348537540340e+00 -3.647247474557000047e+00 -3.580575357305360029e+00 -3.462662752551419310e+00 -3.309845942225339233e+00 -3.030569591331624402e+00 -3.030403939343208730e+00 -3.609647168916778615e+00 -3.609647168916778615e+00 -4.120020995224595417e+00 -4.573766995372066546e+00 -4.776046381730473911e+00 -4.976251206888451684e+00 -5.269156513422467825e+00 -5.394231066403981423e+00 -5.635979794537282928e+00 -5.776430048525472039e+00 -5.865887930779146053e+00 -6.051090887151901576e+00 -6.223378564589555850e+00 -6.223378564589555850e+00 -6.445817412735044272e+00 -6.628805173466196798e+00 -6.721705036194401295e+00 -6.837172087730965409e+00 -7.014577995587080395e+00 -7.138956076173613496e+00 -7.324975680329091077e+00 -7.402422106358581999e+00 -7.517732587431569691e+00 -7.656401420448631256e+00 -7.746691937305049791e+00 -7.865427182603392353e+00 -7.997569683305838950e+00 -8.141074233131446292e+00 -8.141074233131446292e+00 -8.282344186814503573e+00 -8.427782090262496695e+00 -8.480572845282265959e+00 -8.537914388006463184e+00 -8.649393598206486899e+00 -8.716354711630939889e+00 -8.802476984697154450e+00 -8.856831882530775246e+00 -8.936978616022575039e+00 -8.988348912870781859e+00 -9.062753625509701649e+00 -9.109889568878910993e+00 -9.134282970130144008e+00 -9.215008376759284303e+00 -9.274187285062216901e+00 -9.274187285062216901e+00 -9.360360510178702853e+00 -9.388538384311504004e+00 -9.421081044633957902e+00 -9.456263902605059002e+00 -9.516095296891485589e+00 -9.546619809038952909e+00 -9.567313689138343236e+00 -9.594382444205127314e+00 -9.622907794791480285e+00 -9.680911257342636134e+00 -9.734005513529149667e+00 -9.734005513529149667e+00
4.771883239322471937e+00 4.771883239322471937e+00 4.771883239322471937e+00 4.771883239322471937e+00 5.051454928190373117e+00 4.245705435997452426e+00 3.650024072296782940e+00 3.528368619751011792e+00 3.128854770790617135e+00 2.686951153850427154e+00 2.406485861676619820e+00 2.406485861676619820e+00 2.083827574227101298e+00 1.247308044490787360e+00 7.240153189688223190e-01 4.940633837786101434e-01 3.594635637908291104e-01 2.570129600398553538e-01 5.899635484359639914e-01 7.274934727906806620e-01 9.033283752105286668e-01 1.009153127854684140e+00 1.001261436638356761e+00 1.015126495124160089e+00 9.604029197077220692e-01 8.163826088152303928e-01 8.163826088152303928e-01 5.784244019143076621e-01 2.344079546442238704e-01 1.500186012613333453e-01 2.049033485384788300e-01 -1.132284264139662988e-02 -2.408052766296410463e-01 -5.928289430692130768e-01 -7.800064585094044212e-01 -1.177605957214947541e+00 -2.188997112588980887e+00 -2.873959214516355054e+00 -2.873959214516355054e+00 -3.147405410596351594e+00 -3.223364982945263968e+00 -3.251315731797951525e+00 -3.227467129461428552e+00 -3.189825544509114152e+00 -3.197905764195675626e+00 -3.244539916335721141e+00 -3.303079918631675937e+00 -3.384826631364218130e+00 -3.525980307947060410e+00 -3.666097893386239370e+00 -3.666097893386239370e+00 -3.723753957459491559e+00 -3.722384805233629912e+00 -3.647247474557000047e+00 -3.628952607012005949e+00 -3.507046621120506025e+00 -3.309845942225339233e+00 -2.949316479925234713e+00 -3.103685845322742942e+00 -3.369782631450213728e+00 -3.885546989145834296e+00 -4.137089005292816424e+00 -4.404989268642792055e+00 -4.780743180311247009e+00 -5.142230015057036141e+00 -5.280188206088913816e+00 -5.445346756255101006e+00 -5.674220069361880725e+00 -5.889177137087230562e+00 -5.889177137087230562e+00 -6.036050836985473289e+00 -6.244559640919254306e+00 -6.337003576555528817e+00 -6.435879384710879059e+00 -6.636544002336985493e+00 -6.727807894490748453e+00 -6.931949844071868760e+00 -7.049930813183502565e+00 -7.157679025565464315e+00 -7.343944169151337853e+00 -7.529999054647921852e+00 -7.529999054647921852e+00 -7.688709060949612706e+00 -7.855112341719575397e+00 -7.952892607239228973e+00 -8.039159865892933965e+00 -8.157061984181890324e+00 -8.206588662538372603e+00 -8.361571400779821417e+00 -8.438981998394936568e+00 -8.501998976239697470e+00 -8.593544790144793666e+00 -8.722312064688207300e+00 -8.722312064688207300e+00 -8.812574987794747017e+00 -8.901620974413496867e+00 -8.901620974413496867e+00 -8.997655901527433997e+00 -9.070561764208358468e+00 -9.109889568878910993e+00 -9.139612890517488708e+00 -9.219123450733512470e+00 -9.254936111124207443e+00 -9.306334109461140258e+00 -9.367704254965666166e+00 -9.378121319638582420e+00 -9.424930433282414199e+00 -9.484736933739512210e+00 -9.484736933739512210e+00 -9.547150917327433817e+00 -9.565857093618774343e+00 -9.594382444205127314e+00 -9.621451199271911392e+00 -9.677045304925048441e+00 -9.725447521384950278e+00 -9.750720444725335057e+00
4.748616904761030710e+00 4.748616904761030710e+00 4.748616904761030710e+00 4.748616904761030710e+00 4.748616904761030710e+00 4.604881274027178506e+00 4.146148155105636945e+00 3.528368619751011792e+00 3.518189249609803948e+00 2.857976622563298541e+00 2.581921162093134825e+00 2.313202156891034811e+00 2.136148757968631795e+00 1.791534207544349000e+00 7.580523538908573444e-01 5.563999320707522234e-01 5.563999320707522234e-01 2.778625178893279202e-01 4.920637041784122201e-01 7.274934727906806620e-01 8.710037985927360227e-01 9.669367224032086039e-01 1.001261436638356761e+00 9.901334832671533359e-01 9.325493895819602086e-01 8.793424550925662553e-01 7.100927243321155657e-01 3.942900524012695751e-01 3.942900524012695751e-01 1.279539329024580729e-01 2.183243007160587668e-01 -1.132284264139662988e-02 -2.963096590965623167e-01 -6.586538410477421612e-01 -1.251190728409086406e+00 -1.251190728409086406e+00 -2.310014791166568049e+00 -2.956518816094563462e+00 -3.095667416149068263e+00 -3.228288647066932526e+00 -3.355895097911634650e+00 -3.239528908346180458e+00 -3.183484600916473006e+00 -3.158092785888230836e+00 -3.167597878819165658e+00 -3.253784726365508195e+00 -3.363962361975137316e+00 -3.363962361975137316e+00 -3.537167556695203441e+00 -3.663872600739324525e+00 -3.714365755815584702e+00 -3.764191045632350185e+00 -3.775115185585841804e+00 -3.686228758864109167e+00 -3.604851307816626882e+00 -3.551434892254203390e+00 -3.411615601086295246e+00 -2.975628029551618425e+00 -3.327750609288282924e+00 -3.327750609288282924e+00 -3.921708589308095849e+00 -4.390962286805560666e+00 -4.584190612641642737e+00 -4.791501442158834223e+00 -5.153220002393946508e+00 -5.280188206088913816e+00 -5.552257041381675862e+00 -5.663604691079619613e+00 -5.777314252146387830e+00 -5.967808579419266124e+00 -6.052338028559347549e+00 -6.138262472908643907e+00 -6.346295144037701341e+00 -6.540160652334174429e+00 -6.540160652334174429e+00 -6.732583982629584796e+00 -6.948299382393501311e+00 -7.049930813183502565e+00 -7.176401974957316021e+00 -7.372457292753591851e+00 -7.424179596310804818e+00 -7.593645342054752945e+00 -7.689688136985772360e+00 -7.786503585115177373e+00 -7.951874432949233018e+00 -8.125262731966570229e+00 -8.125262731966570229e+00 -8.255648585181809551e+00 -8.353105470757258288e+00 -8.438981998394936568e+00 -8.509473335113389325e+00 -8.620606286888005343e+00 -8.654168865246830933e+00 -8.771856007229995811e+00 -8.822036685109683418e+00 -8.868768167946965875e+00 -8.952974420529672628e+00 -9.042251554182293205e+00 -9.042251554182293205e+00 -9.145551402900483851e+00 -9.173734515973572812e+00 -9.219123450733512470e+00 -9.261187996279586443e+00 -9.311849557440501357e+00 -9.367704254965666166e+00 -9.395318958998092995e+00 -9.464823089751041252e+00 -9.486249918939158476e+00 -9.522286192101860891e+00 -9.531264082377967739e+00 -9.540143932158741791e+00 -9.593158704617909649e+00 -9.648855051492214230e+00 -9.648855051492214230e+00 -9.729904719297131521e+00 -9.746814970602716954e+00
4.725350570199585931e+00 4.725350570199585931e+00 4.725350570199585931e+00 4.725350570199585931e+00 4.897315024261667205e+00 4.657672350098550851e+00 4.813768899311542171e+00 4.160814704088565463e+00 3.260975914134305320e+00 3.071982219485827059e+00 2.687484086329525290e+00 2.349702705843231154e+00 1.835528527383422981e+00 1.835528527383422981e+00 7.556485446289419317e-01 3.922674674107152759e-01 4.419540576255717723e-01 2.883075949648009617e-01 3.354042597991029329e-01 6.999293040633799423e-01 9.163365915470602641e-01 9.470819821437486130e-01 9.840097992008902672e-01 9.666940091264538681e-01 8.664120944742803587e-01 8.664120944742803587e-01 6.877417077000927970e-01 3.503240122713343618e-01 1.765046123344302664e-01 8.848214607673879351e-02 1.754734133921711514e-01 -6.570863030619536471e-02 -6.333063722278036156e-01 -7.875459365213715035e-01 -1.012802649457161586e+00 -1.849183861301172627e+00 -2.702804897164875264e+00 -2.702804897164875264e+00 -3.178674464373150599e+00 -3.364248617769760585e+00 -3.355895097911634650e+00 -3.330249122555490437e+00 -3.196855558740378633e+00 -3.158092785888230836e+00 -3.190170163866107078e+00 -3.195253870995186762e+00 -3.265245854765949751e+00 -3.459792857756942119e+00 -3.552001091228086604e+00 -3.621908869934986619e+00 -3.775430602328134988e+00 -3.823578742575872269e+00 -3.823578742575872269e+00 -3.727667019170600948e+00 -3.671490447874992569e+00 -3.551434892254203390e+00 -3.478122642496673578e+00 -3.075792698187114205e+00 -3.008985988441424730e+00 -3.647446206076441211e+00 -3.957118231565126543e+00 -4.201584472677534876e+00 -4.629829397258301782e+00 -4.998812271676025709e+00 -4.998812271676025709e+00 -5.292178219665594874e+00 -5.535050436822715803e+00 -5.663604691079619613e+00 -5.761290585009975374e+00 -5.954110392812645536e+00 -6.052338028559347549e+00 -6.242293739028425215e+00 -6.333779779738785365e+00 -6.426078001005275375e+00 -6.641107631887297913e+00 -6.836852720788688664e+00 -6.836852720788688664e+00 -7.049159394461940842e+00 -7.262450190740628031e+00 -7.372457292753591851e+00 -7.420069964362596693e+00 -7.588816419294394322e+00 -7.689688136985772360e+00 -7.766801937616537366e+00 -7.931999368789814042e+00 -8.028895080206380541e+00 -8.148499106446424278e+00 -8.218554430084862972e+00 -8.296433875293349303e+00 -8.430190340369515312e+00 -8.575984407168219192e+00 -8.575984407168219192e+00 -8.661009234955978187e+00 -8.778015136687551845e+00 -8.822036685109683418e+00 -8.869248760385906039e+00 -8.958988203246285309e+00 -8.981794244701102770e+00 -9.072550027529976191e+00 -9.150313491708683244e+00 -9.170762324223177941e+00 -9.225186219928954046e+00 -9.293420139940899105e+00 -9.293420139940899105e+00 -9.369909830228495551e+00 -9.405641838567550650e+00 -9.464823089751041252e+00 -9.483965033058259664e+00 -9.518748792651408053e+00 -9.531264082377967739e+00 -9.565169785226169452e+00 -9.592877212708737389e+00 -9.620866132100475809e+00 -9.676562478974780390e+00 -9.730067779983144760e+00 -9.730067779983144760e+00
4.738985404521409706e+00 4.738985404521409706e+00 4.725350570199585931e+00 4.725350570199585931e+00 4.874048689700224202e+00 4.944677649525322849e+00 4.813768899311542171e+00 4.871768491142139723e+00 3.702355678707458075e+00 3.071982219485827059e+00 2.479015520322342070e+00 2.325018967417500360e+00 2.159212174557122665e+00 1.363208166514756847e+00 5.277827630100830891e-01 5.277827630100830891e-01 4.661905907322952958e-01 2.580173885042093551e-01 3.354042597991029329e-01 6.740339705227531564e-01 9.075713106099639882e-01 9.470819821437486130e-01 9.530068960224853392e-01 9.501900692765927747e-01 9.069693129023084222e-01 7.609994862830319340e-01 6.507822346309206640e-01 5.337974448256920246e-01 1.247664888485076617e-01 2.309023299794541462e-01 2.309023299794541462e-01 -1.096381064752204731e-01 -7.308672624237312343e-01 -7.875459365213715035e-01 -1.039331238515019074e+00 -2.020275299195726681e+00 -2.462020200202353237e+00 -2.991080385665016106e+00 -3.214958217817209807e+00 -3.330415333573336412e+00 -3.403401494390309701e+00 -3.253206272938108157e+00 -3.253206272938108157e+00 -3.180303331562728708e+00 -3.181559454313676483e+00 -3.195253870995186762e+00 -3.292964949395641661e+00 -3.477421374589664271e+00 -3.552001091228086604e+00 -3.739089470479991739e+00 -3.845651637657706345e+00 -3.831369111711428133e+00 -3.784878928471937076e+00 -3.724046654736875350e+00 -3.724046654736875350e+00 -3.590996078624165921e+00 -3.308600309717755206e+00 -3.308600309717755206e+00 -3.068948318167813216e+00 -3.686402520762439572e+00 -3.957118231565126543e+00 -4.223348409697562644e+00 -4.653757386972388943e+00 -4.854455851355184315e+00 -5.162186752890197461e+00 -5.277895588490074452e+00 -5.384654565704253493e+00 -5.654122711663863043e+00 -5.844509029754095586e+00 -5.844509029754095586e+00 -6.043550736266764645e+00 -6.254087552625907875e+00 -6.333779779738785365e+00 -6.435385758306098936e+00 -6.636084310300215172e+00 -6.734149750971859305e+00 -6.940966121667589306e+00 -7.061232295613638854e+00 -7.153176330534609662e+00 -7.369624186660592713e+00 -7.489062875111399009e+00 -7.489062875111399009e+00 -7.686302803971866382e+00 -7.832168445357853059e+00 -7.931999368789814042e+00 -7.980779944984330854e+00 -8.140674984876376641e+00 -8.218554430084862972e+00 -8.354941491736617820e+00 -8.436472011504822177e+00 -8.509757027192522472e+00 -8.631498976583447558e+00 -8.737006320535639858e+00 -8.737006320535639858e+00 -8.829752690252977487e+00 -8.913813645628131610e+00 -8.913813645628131610e+00 -8.993399985024389309e+00 -9.073409091322773179e+00 -9.150313491708683244e+00 -9.171099246237114144e+00 -9.232351592005318963e+00 -9.269124034921702560e+00 -9.319475339469432740e+00 -9.373165593350517355e+00 -9.398092716390452850e+00 -9.462145381989023107e+00 -9.503106976365478076e+00 -9.516019831633768078e+00 -9.531261814712443936e+00 -9.563625501856094502e+00 -9.620584640191301773e+00 -9.620584640191301773e+00 -9.676280987065608130e+00 -9.735311124888136547e+00 -9.744417467488204920e+00
4.738985404521409706e+00 4.738985404521409706e+00 4.738985404521409706e+00 4.738985404521409706e+00 4.850782355138778534e+00 5.096871693980935092e+00 4.962897090614188045e+00 4.413778993878471724e+00 4.413778993878471724e+00 3.011397074784726957e+00 2.487261748552359375e+00 2.325018967417500360e+00 2.162000403260635473e+00 1.362642323719142068e+00 8.056158946510618701e-01 5.192407939664852590e-01 4.375091721404075762e-01 3.192465448818882501e-01 3.008343491297305050e-01 8.176049664809694750e-01 8.176049664809694750e-01 9.428794219164440271e-01 9.499674569293070636e-01 9.501900692765927747e-01 9.077434050545806210e-01 7.486974004349220557e-01 6.507822346309206640e-01 3.244794610848575900e-01 8.293101573176164809e-02 1.631461179869618527e-01 1.406405978216145047e-01 -4.118890834130034539e-01 -4.118890834130034539e-01 -8.561569687378534077e-01 -1.457523647985305759e+00 -1.457523647985305759e+00 -2.473062785265528252e+00 -3.017594834764951717e+00 -3.214958217817209807e+00 -3.402595805094439374e+00 -3.494501983727913874e+00 -3.357609909799935455e+00 -3.247109579867710760e+00 -3.218796450821260091e+00 -3.189774047568255000e+00 -3.249788068846922062e+00 -3.403263808268788715e+00 -3.403263808268788715e+00 -3.621971550753996016e+00 -3.834300072942441240e+00 -3.845651637657706345e+00 -3.861342420476347570e+00 -3.789279796347612361e+00 -3.746972559178239681e+00 -3.686555842795124605e+00 -3.612563067389696680e+00 -3.502435109199867114e+00 -3.123542947260113056e+00 -3.398143695615312154e+00 -3.398143695615312154e+00 -3.985726314749695298e+00 -4.458521255534905414e+00 -4.653757386972388943e+00 -4.883210890753385769e+00 -5.170473705365354000e+00 -5.277895588490074452e+00 -5.520483189153930326e+00 -5.643923998886543281e+00 -5.770191916718916403e+00 -5.954243273067433506e+00 -6.072220735662751778e+00 -6.141176407238646107e+00 -6.341905753688664937e+00 -6.541101607194724110e+00 -6.541101607194724110e+00 -6.734618463616061312e+00 -6.978185479878076691e+00 -7.139463345744109013e+00 -7.139463345744109013e+00 -7.297171671270241688e+00 -7.514487839223335186e+00 -7.564877196769173473e+00 -7.737136728888753368e+00 -7.825021054567359968e+00 -7.902900499775845411e+00 -8.062795539667890310e+00 -8.144811134351449766e+00 -8.222690579559936097e+00 -8.358338957416567183e+00 -8.510040719271655618e+00 -8.510040719271655618e+00 -8.642391666278886220e+00 -8.749322482833333581e+00 -8.778542648467553278e+00 -8.837468695396271556e+00 -8.919729455498300652e+00 -8.964743805180075853e+00 -9.059385437764047921e+00 -9.074268155115570167e+00 -9.149853656046314399e+00 -9.186442684737418318e+00 -9.277060073563816900e+00 -9.277060073563816900e+00 -9.327101121498367675e+00 -9.398782910624845499e+00 -9.398782910624845499e+00 -9.434318369290222606e+00 -9.500822090484579263e+00 -9.516019831633768078e+00 -9.531259547046918357e+00 -9.566711733787320426e+00 -9.592595720799561576e+00 -9.648292067673867933e+00 -9.675999495156435870e+00 -9.706146950490058600e+00 -9.742019964373694663e+00
4.738985404521409706e+00 4.738985404521409706e+00 4.738985404521409706e+00 4.850782355138778534e+00 4.850782355138778534e+00 5.071608814681169086e+00 5.077405893195241937e+00 4.893126362639227622e+00 3.575320731559093801e+00 2.883344481798616687e+00 2.663171601051666837e+00 2.350856837556143386e+00 1.862185076532478556e+00 1.862185076532478556e+00 8.784726029330947039e-01 4.056934750625977859e-01 4.375091721404075762e-01 3.196825057910062662e-01 2.452631802286270313e-01 6.555330418132843118e-01 9.210584910177680440e-01 9.376867401738087082e-01 9.607731594916593121e-01 9.341190623142434646e-01 8.386725897287936604e-01 8.386725897287936604e-01 6.555993457634181620e-01 2.763250363559291434e-01 8.293101573176164809e-02 -2.971618668358511420e-02 1.514352501241850169e-02 -1.598073283168793546e-01 -5.871341953990469875e-01 -7.282461247826748085e-01 -1.153723677349209664e+00 -2.136703191063232588e+00 -2.826740583077455238e+00 -2.826740583077455238e+00 -3.283140931711225896e+00 -3.504656733602057983e+00 -3.494501983727913874e+00 -3.442880031060301160e+00 -3.276219763499947923e+00 -3.218796450821260091e+00 -3.204418276107468877e+00 -3.308436624189194042e+00 -3.469528244656335580e+00 -3.535959947427041783e+00 -3.637282296689359207e+00 -3.806354811511190928e+00 -3.892947254975505977e+00 -3.818184263829816238e+00 -3.770051934375571623e+00 -3.755697854810265301e+00 -3.676081448117660244e+00 -3.488169395513438076e+00 -3.488169395513438076e+00 -3.305929141643884073e+00 -3.417387447706706105e+00 -3.721718934461327066e+00 -3.964039271874251202e+00 -4.438197635244133465e+00 -4.723631962048774113e+00 -5.011613045915919606e+00 -5.137128725416619801e+00 -5.296449110509436231e+00 -5.551070300418820658e+00 -5.772216313194924453e+00 -5.772216313194924453e+00 -5.935235293161620795e+00 -6.123883368791654291e+00 -6.232648456479136456e+00 -6.338589366048637430e+00 -6.563628281363317996e+00 -6.622993579005589382e+00 -6.825268908854837946e+00 -6.949730526800952823e+00 -7.030790557255985895e+00 -7.215298484994047357e+00 -7.425239420485334918e+00 -7.425239420485334918e+00 -7.631459568573099261e+00 -7.746337326952374980e+00 -7.746337326952374980e+00 -7.907036649250917648e+00 -8.066931689142965212e+00 -8.144811134351449766e+00 -8.226826729035009222e+00 -8.366196832559552377e+00 -8.442639250118361360e+00 -8.577603809183679928e+00 -8.653284355974328435e+00 -8.675079217348116600e+00 -8.783637084526084493e+00 -8.870153037118139849e+00 -8.870153037118139849e+00 -8.970499407113864621e+00 -9.056115202677473164e+00 -9.074268155115570167e+00 -9.148884481966604199e+00 -9.197241120520089908e+00 -9.239516964081683881e+00 -9.304661418422723429e+00 -9.334726903527300834e+00 -9.369203959267295545e+00 -9.416012764222124076e+00 -9.479395261296462039e+00 -9.479395261296462039e+00 -9.515725736301634541e+00 -9.540970276073124978e+00 -9.566711733787320426e+00 -9.592314228890387540e+00 -9.648010575764693897e+00 -9.675999495156435870e+00 -9.747196371416819716e+00 -9.739622461259184405e+00
4.827516020577337308e+00 4.827516020577337308e+00 4.827516020577337308e+00 4.827516020577337308e+00 4.827516020577337308e+00 5.181202645864794398e+00 5.077405893195241937e+00 4.907445770306315680e+00 3.505476849844146425e+00 2.883344481798616687e+00 2.497501424014335392e+00 2.290781169776659354e+00 2.142235702047651458e+00 1.454529563885273546e+00 5.691418090909476923e-01 3.712444715742926893e-01 3.641707302756307940e-01 2.513283474553156815e-01 6.696014870021165244e-01 6.696014870021165244e-01 8.709497465020542561e-01 9.439836086985744501e-01 9.439836086985744501e-01 9.201256500982926134e-01 8.215814138636622355e-01 7.698184051298575525e-01 7.046043465844962217e-01 3.957235065363685633e-01 2.028927485111015894e-01 -4.828783306921209661e-02 -9.706079526013786096e-02 -2.204214822374119254e-01 -6.336113341273303945e-01 -1.151192434673066867e+00 -1.151192434673066867e+00 -2.101167905009490244e+00 -2.734726972131718448e+00 -3.055180988991240909e+00 -3.284402156871538025e+00 -3.511061621729234083e+00 -3.487280697960450926e+00 -3.381283992580876863e+00 -3.283369854824864653e+00 -3.231616540524154590e+00 -3.269579251145127152e+00 -3.402604258450662833e+00 -3.402604258450662833e+00 -3.543709749262994535e+00 -3.687004701694159614e+00 -3.806354811511190928e+00 -3.852311212393831674e+00 -3.784673616753428504e+00 -3.770051934375571623e+00 -3.724145185372865985e+00 -3.684954677538032186e+00 -3.588728801686574599e+00 -3.467407662550067826e+00 -3.446645929586697576e+00 -3.346827005545850664e+00 -3.698015097592097788e+00 -4.172042785666112863e+00 -4.172042785666112863e+00 -4.647289469906620063e+00 -4.988069163499175396e+00 -5.137128725416619801e+00 -5.300697868016674086e+00 -5.549120715338592191e+00 -5.664683366294093858e+00 -5.860427038060157301e+00 -5.948637762925392813e+00 -6.028631857469982869e+00 -6.230436952760848968e+00 -6.440602527892899332e+00 -6.440602527892899332e+00 -6.616628818413422763e+00 -6.830742824618472042e+00 -6.949730526800952823e+00 -7.010172329231743049e+00 -7.207085700398149442e+00 -7.290728007724526449e+00 -7.492129690503855244e+00 -7.608305693223361033e+00 -7.704574023346848932e+00 -7.835560123723453785e+00 -7.989052243934477104e+00 -7.989052243934477104e+00 -8.148947283826522892e+00 -8.308842323718568679e+00 -8.366196832559552377e+00 -8.448806488731896991e+00 -8.579521325716141789e+00 -8.653284355974328435e+00 -8.682114208544186695e+00 -8.794981078382789974e+00 -8.845184700539563849e+00 -8.926427941271523281e+00 -8.976255009047655165e+00 -9.016239749494491917e+00 -9.077109690557254140e+00 -9.172421786147669565e+00 -9.172421786147669565e+00 -9.246682336158048798e+00 -9.309889848736677465e+00 -9.334726903527300834e+00 -9.365149042920499767e+00 -9.415018763308978578e+00 -9.422723582795811126e+00 -9.498537204603678674e+00 -9.515431640969501004e+00 -9.531257279381392777e+00 -9.570773597673094102e+00 -9.620021656372955476e+00 -9.620021656372955476e+00 -9.675718003247261834e+00 -9.747834205530509166e+00 -9.739622461259184405e+00
4.804249686015893417e+00 4.804249686015893417e+00 4.804249686015893417e+00 4.804249686015893417e+00 4.804249686015893417e+00 4.963209190065133392e+00 4.933648160467002164e+00 4.107133825758103818e+00 3.786055614410346770e+00 3.221799393481579177e+00 2.440098052595932376e+00 1.848689758277044737e+00 1.848689758277044737e+00 1.255597109463844063e+00 6.413645488485009150e-01 3.712444715742926893e-01 3.346835963224025767e-01 2.971265917337525542e-01 4.276687757952110092e-01 7.291110137036826977e-01 7.422913114719931205e-01 8.756466322447369333e-01 9.438868551575487764e-01 8.532851006415398398e-01 8.532851006415398398e-01 7.450957174253610704e-01 5.600341838349928159e-01 3.957235065363685633e-01 2.991153780883654689e-01 3.326494061266543900e-02 -9.706079526013786096e-02 -2.511106487287778077e-01 -5.850117705743731467e-01 -7.969876957085907376e-01 -1.698582631128779497e+00 -2.221038665325387296e+00 -2.423309179653158729e+00 -2.998292465999620404e+00 -3.433311764764882312e+00 -3.433311764764882312e+00 -3.429463441412589741e+00 -3.307727449664830566e+00 -3.283369854824864653e+00 -3.250327123520619033e+00 -3.321375921413522114e+00 -3.348483855984424107e+00 -3.447370669771386176e+00 -3.511373152770127515e+00 -3.591577864905179496e+00 -3.735785060038973704e+00 -3.793545436959022243e+00 -3.793545436959022243e+00 -3.763974850279966589e+00 -3.734404263600911378e+00 -3.684954677538032186e+00 -3.610401267692250116e+00 -3.500544810332444801e+00 -3.446645929586697576e+00 -3.459446564396642554e+00 -3.794727237678346299e+00 -3.981564165877558459e+00 -4.491312701820410425e+00 -4.907641960311917018e+00 -4.907641960311917018e+00 -5.174417113578961391e+00 -5.441192266846003989e+00 -5.549120715338592191e+00 -5.655183158388616960e+00 -5.841425025451970399e+00 -5.948637762925392813e+00 -6.037003677429863657e+00 -6.229067097996894731e+00 -6.332450114605111757e+00 -6.588919960453980096e+00 -6.611854071941841049e+00 -6.737045923285032600e+00 -6.918052638905336948e+00 -7.123443393071770657e+00 -7.123443393071770657e+00 -7.282515223128626758e+00 -7.497106563658634037e+00 -7.608305693223361033e+00 -7.686373685654394272e+00 -7.840299607094495471e+00 -7.915323039185434340e+00 -8.071067838618036561e+00 -8.153083433301596017e+00 -8.230962878510082348e+00 -8.374054707702537570e+00 -8.510608103429921911e+00 -8.510608103429921911e+00 -8.652997776100255223e+00 -8.774238694259610227e+00 -8.794981078382789974e+00 -8.852900705682856142e+00 -8.940975026561382322e+00 -8.976255009047655165e+00 -9.053078395828409342e+00 -9.091524848646766799e+00 -9.147915307886890446e+00 -9.207698774447115042e+00 -9.292932150848045580e+00 -9.292932150848045580e+00 -9.342352685556235770e+00 -9.398616677476368864e+00 -9.398616677476368864e+00 -9.420864276775571255e+00 -9.496252318722781638e+00 -9.515431640969501004e+00 -9.531255011715867198e+00 -9.567974978123526597e+00 -9.583578613152157644e+00 -9.647729083855521637e+00 -9.676654981611283901e+00 -9.728356899797496737e+00 -9.737224958144674147e+00
4.780983351454448638e+00 4.780983351454448638e+00 4.780983351454448638e+00 4.804249686015893417e+00 5.403637454016327446e+00 4.963209190065133392e+00 4.790228612041059542e+00 4.347453314038147276e+00 3.786055614410346770e+00 3.326299469165228562e+00 2.381095798464960112e+00 2.126489782780495830e+00 1.594015735710151205e+00 1.382127064525918270e+00 1.061541688639806802e+00 4.284951109997458540e-01 1.897256592376103668e-01 1.897256592376103668e-01 5.411100635030039463e-01 6.870754956492191035e-01 7.422913114719931205e-01 8.153123640883080947e-01 9.435492325273970859e-01 8.849887874194173332e-01 7.731739943923513492e-01 7.010467037972413218e-01 6.647605027162060143e-01 3.996746666983121976e-01 1.307732180490338847e-01 1.307732180490338847e-01 -1.381282306002443727e-01 -4.655863087346817086e-01 -5.850117705743731467e-01 -9.002476234929986942e-01 -1.830993231340525718e+00 -2.221038665325387296e+00 -2.789327490139932308e+00 -3.149752001528920431e+00 -3.324426300376721155e+00 -3.458161623655692463e+00 -3.360438625863504836e+00 -3.360438625863504836e+00 -3.259069434209342031e+00 -3.275901827545343536e+00 -3.275901827545343536e+00 -3.350999957300904164e+00 -3.450277055424058492e+00 -3.511373152770127515e+00 -3.600250569713357773e+00 -3.743844676973535179e+00 -3.800658573009347840e+00 -3.787226702133662304e+00 -3.780907967308301920e+00 -3.757656115454606649e+00 -3.689297606286535913e+00 -3.417855392174066864e+00 -3.417855392174066864e+00 -3.307998934814261993e+00 -3.575747702735945222e+00 -3.794727237678346299e+00 -4.134782596545665712e+00 -4.625505020753726271e+00 -4.770283785499152884e+00 -5.049918619307267598e+00 -5.192195278302617290e+00 -5.316693772574311083e+00 -5.583313171092754601e+00 -5.760571461856782705e+00 -5.760571461856782705e+00 -5.945166361680873202e+00 -6.140968887085069383e+00 -6.229067097996894731e+00 -6.331439749353153346e+00 -6.595332154514454537e+00 -6.611854071941841049e+00 -6.843312130130027704e+00 -6.901337618570460464e+00 -7.046404911932909521e+00 -7.198872915802248862e+00 -7.324386466230055071e+00 -7.410746514944344554e+00 -7.594562414306755826e+00 -7.754458129553686518e+00 -7.754458129553686518e+00 -7.928988985774246601e+00 -8.075203988093109686e+00 -8.235099027985155473e+00 -8.235099027985155473e+00 -8.381912582845524540e+00 -8.510891795509055058e+00 -8.596569903660750356e+00 -8.642289713005048668e+00 -8.786696799972748551e+00 -8.796722725599838810e+00 -8.894785652919630081e+00 -8.955522111851241363e+00 -8.982010610981443932e+00 -9.079888362877417407e+00 -9.146946133807178470e+00 -9.146946133807178470e+00 -9.212539463402478646e+00 -9.299413484637423011e+00 -9.315082361817800916e+00 -9.344532756685719477e+00 -9.397826302564631362e+00 -9.423023815981380835e+00 -9.478151535180288079e+00 -9.493967432841881049e+00 -9.515137545637367467e+00 -9.544525924460870669e+00 -9.593474191335388923e+00 -9.593474191335388923e+00 -9.647447591946347600e+00 -9.701421393485489375e+00 -9.735589301757325842e+00 -9.736724789006100167e+00
4.780983351454448638e+00 4.780983351454448638e+00 4.780983351454448638e+00 4.780983351454448638e+00 4.780983351454448638e+00 5.113896168194158598e+00 4.574943560298688539e+00 4.574943560298688539e+00 3.687611180186302740e+00 2.800278800073917829e+00 2.381095798464960112e+00 2.185624404776227880e+00 1.692365033853405532e+00 1.382127064525918270e+00 7.659825627628520373e-01 4.427904474108499966e-01 3.306335296787694666e-01 3.483928099345758866e-01 5.436927504322457416e-01 6.508484562008765018e-01 7.917729641028365961e-01 9.200098325419256984e-01 9.200098325419256984e-01 8.928688727105404954e-01 7.694624675305462569e-01 7.010467037972413218e-01 6.075489352308818258e-01 4.232314631612170697e-01 2.671808336413588614e-01 -1.720615007919465422e-03 -1.403321271791217462e-01 -3.447472598812147959e-01 -7.360829553822783033e-01 -1.372556431237346608e+00 -1.372556431237346608e+00 -2.348054096453807027e+00 -2.961737282703116314e+00 -3.149752001528920431e+00 -3.302830644417574568e+00 -3.510690820118724353e+00 -3.413801242402893621e+00 -3.315611272854355640e+00 -3.255020159127509416e+00 -3.220018806124337107e+00 -3.264321068903689227e+00 -3.375684598007400616e+00 -3.375684598007400616e+00 -3.555982774746643482e+00 -3.689704776685718279e+00 -3.743844676973535179e+00 -3.824556201882573170e+00 -3.825054809177071302e+00 -3.780907967308301920e+00 -3.728217390394404696e+00 -3.636452989722237295e+00 -3.347069927169777248e+00 -3.255884229611126113e+00 -3.185224818920591616e+00 -3.696547065158568124e+00 -3.945942590066029876e+00 -4.474837955412985124e+00 -4.680312134178931771e+00 -4.842307867143050615e+00 -5.132226263029922464e+00 -5.336760251757032059e+00 -5.336760251757032059e+00 -5.577077859192367981e+00 -5.784559700127329229e+00 -5.868924818921522402e+00 -5.953663592278334526e+00 -6.161410829754702334e+00 -6.240948280383090463e+00 -6.433495621936286213e+00 -6.550063508082450525e+00 -6.609824028937195450e+00 -6.855881435641586030e+00 -7.013537830052171351e+00 -7.013537830052171351e+00 -7.237010146958088086e+00 -7.394763456032618976e+00 -7.522879787931821660e+00 -7.592505908226014455e+00 -7.758518530854343176e+00 -7.844360008395151240e+00 -8.008751901236228932e+00 -8.088514816698211263e+00 -8.157219582776669142e+00 -8.317114622668714929e+00 -8.461140965958973581e+00 -8.461140965958973581e+00 -8.610057706975975833e+00 -8.696184190936326885e+00 -8.696184190936326885e+00 -8.803729860994511824e+00 -8.907444151130635035e+00 -8.955522111851241363e+00 -8.987766212915230923e+00 -9.079433149231713074e+00 -9.105441853473625002e+00 -9.173307042123683530e+00 -9.225149899581943203e+00 -9.256820600956285006e+00 -9.319922897921383509e+00 -9.355787886249421703e+00 -9.355787886249421703e+00 -9.426770127861232140e+00 -9.463750510485329670e+00 -9.493967432841881049e+00 -9.513109376149099461e+00 -9.546303748654743515e+00 -9.564361607411640875e+00 -9.608918633440609369e+00 -9.647166100037175340e+00 -9.678254274653559364e+00 -9.736867179960295715e+00 -9.779262940310118779e+00
4.757717016893004747e+00 4.757717016893004747e+00 4.757717016893004747e+00 4.757717016893004747e+00 4.757717016893004747e+00 4.437275551853701039e+00 4.499140543080529575e+00 3.937376660304861886e+00 3.299809760311035234e+00 3.050044280192476087e+00 2.328041586702445542e+00 2.012182270018510355e+00 2.012182270018510355e+00 1.525118505254947410e+00 7.904380813373177439e-01 4.427904474108499966e-01 2.257556047745378769e-01 4.233374352828512266e-01 5.436927504322457416e-01 7.633921502645233392e-01 8.729310325709830343e-01 8.964704325564544218e-01 9.252072143242651148e-01 8.393632625896032540e-01 7.514126338856857990e-01 6.989489573384114474e-01 3.860829539073775130e-01 2.990367997323984950e-01 2.990367997323984950e-01 -2.909582733023030263e-02 -4.906100673644288590e-01 -4.906100673644288590e-01 -7.596672321248622017e-01 -1.538478998228961059e+00 -1.963954517536086630e+00 -2.462324849026597651e+00 -2.919674749691706594e+00 -3.185657131707622103e+00 -3.397652004256778824e+00 -3.483691590190719722e+00 -3.520323301690448492e+00 -3.326137810762925806e+00 -3.202286336790844956e+00 -3.202286336790844956e+00 -3.238027846861740500e+00 -3.365339653099455486e+00 -3.428143857281289453e+00 -3.531202857946929896e+00 -3.671753438761378163e+00 -3.739600184374388459e+00 -3.805171213639139793e+00 -3.736301332872833392e+00 -3.741955726374600832e+00 -3.652233871659230857e+00 -3.452084859126121952e+00 -3.452084859126121952e+00 -3.322007067582656958e+00 -3.478362329380453311e+00 -3.696547065158568124e+00 -4.045865989366632220e+00 -4.453802253644103537e+00 -4.680312134178931771e+00 -5.007004087972489970e+00 -5.136132175920927523e+00 -5.241748464248177086e+00 -5.450885800334379638e+00 -5.557462976170511659e+00 -5.671011338148920444e+00 -5.867078018277307905e+00 -6.064984409143474586e+00 -6.064984409143474586e+00 -6.228706889155450455e+00 -6.418080200843161442e+00 -6.550063508082450525e+00 -6.655606329292783840e+00 -6.866228041008515248e+00 -6.925692763724729417e+00 -7.103145783590314011e+00 -7.246122884008387999e+00 -7.346300807154188206e+00 -7.550950645033867481e+00 -7.678132839589566494e+00 -7.678132839589566494e+00 -7.848420409695807010e+00 -8.022417847825039416e+00 -8.088514816698211263e+00 -8.168277732160193594e+00 -8.321250772143788055e+00 -8.391299720791757011e+00 -8.511175487588188204e+00 -8.619836794910860078e+00 -8.639959625605534654e+00 -8.799154905685886874e+00 -8.868332715969440727e+00 -8.868332715969440727e+00 -8.967654241552297734e+00 -9.036283788712822229e+00 -9.079433149231713074e+00 -9.114008795264503249e+00 -9.178226262407834568e+00 -9.225149899581943203e+00 -9.305597817416092710e+00 -9.324763434024969655e+00 -9.346295639277860445e+00 -9.397035927652892084e+00 -9.424023979177054144e+00 -9.431071676739421150e+00 -9.541632617819377771e+00 -9.509673921797865859e+00 -9.509673921797865859e+00 -9.560667995456681112e+00 -9.609114958532245510e+00 -9.647166100037175340e+00 -9.679853567695834826e+00 -9.739459070425480647e+00 -9.748091068831278960e+00
4.734450682331561744e+00 4.734450682331561744e+00 4.734450682331561744e+00 4.734450682331561744e+00 5.050406383255062970e+00 4.416357739296488560e+00 3.984994743359257630e+00 3.350404251306932313e+00 2.869613684777882145e+00 2.869613684777882145e+00 2.351031452794952514e+00 1.998337312611625283e+00 1.822049748885854026e+00 1.522581938042454119e+00 8.139629299831456777e-01 2.478492148024558084e-01 3.390933408317078346e-01 3.623858502932766901e-01 5.176711588665650066e-01 7.569146114948979154e-01 8.856763816349684237e-01 8.856763816349684237e-01 9.248638322860898153e-01 8.089713495191176440e-01 7.514126338856857990e-01 6.238236849579320564e-01 4.407188243352400669e-01 3.719801911487101709e-01 1.248793600387849423e-01 -4.506625165030274383e-02 -1.728738881366173319e-01 -6.586339444962996392e-01 -1.260210858269328327e+00 -1.260210858269328327e+00 -2.089864406527984997e+00 -2.624336899707478299e+00 -2.919674749691706594e+00 -3.044056454068008843e+00 -3.377855571821302139e+00 -3.483691590190719722e+00 -3.382933686860685185e+00 -3.289138527154520375e+00 -3.247196353636194743e+00 -3.226890766283855960e+00 -3.304756251840170300e+00 -3.324481441606221832e+00 -3.432262824535491141e+00 -3.586497330955607410e+00 -3.586497330955607410e+00 -3.723569106803132911e+00 -3.735587584659964211e+00 -3.736301332872833392e+00 -3.634911525767195783e+00 -3.539176112163326504e+00 -3.537819231442347334e+00 -3.433287354217569032e+00 -3.645457928038651207e+00 -3.537521414945673293e+00 -3.844101344391899655e+00 -4.281858516850442165e+00 -4.281858516850442165e+00 -4.699712769381692468e+00 -5.035557963455879360e+00 -5.136132175920927523e+00 -5.265001843606675891e+00 -5.492759049849273545e+00 -5.557462976170511659e+00 -5.748706539197099730e+00 -5.872952602522584442e+00 -5.942806533460467833e+00 -6.119997803558050897e+00 -6.314786819416908337e+00 -6.314786819416908337e+00 -6.513791017461556088e+00 -6.722124990531791688e+00 -6.866228041008515248e+00 -6.992755118417478322e+00 -7.154394140412124514e+00 -7.246122884008387999e+00 -7.446957080128180806e+00 -7.539867872667618265e+00 -7.585001792517133801e+00 -7.778901671559525610e+00 -7.838514032436664003e+00 -7.938322288537271731e+00 -8.102180763287021747e+00 -8.248040647622174149e+00 -8.248040647622174149e+00 -8.401237050946789964e+00 -8.514321163729359654e+00 -8.619836794910860078e+00 -8.643053522273639544e+00 -8.811613011399025197e+00 -8.814359932851793644e+00 -8.918285037525553349e+00 -8.974231641725799236e+00 -8.993521814849021467e+00 -9.082701023701813980e+00 -9.145007785647754517e+00 -9.145007785647754517e+00 -9.236412605410288634e+00 -9.311782150194762409e+00 -9.324763434024969655e+00 -9.350590476909477644e+00 -9.400012942133109561e+00 -9.424023979177054144e+00 -9.455032327944493886e+00 -9.512684901658040815e+00 -9.510824490268198872e+00 -9.548081572848616361e+00 -9.603348600834070936e+00 -9.603348600834070936e+00 -9.644885300596383715e+00 -9.675426738883187383e+00 -9.739459070425480647e+00 -9.764882424964453023e+00
4.734450682331561744e+00 4.734450682331561744e+00 4.734450682331561744e+00 4.734450682331561744e+00 5.120915977047719281e+00 4.416357739296488560e+00 3.562123284039197202e+00 3.298772117490087474e+00 3.088508386423781893e+00 2.645746194891860803e+00 2.181172639144197234e+00 2.181172639144197234e+00 1.708610270083064320e+00 1.236047901021930961e+00 8.139629299831456777e-01 2.629374435760708506e-01 3.989977641322531854e-01 3.623858502932766901e-01 4.873607407022066962e-01 6.266187566325315261e-01 7.561475691337500304e-01 8.904808681756248845e-01 9.021126052555947794e-01 8.665300651525493780e-01 6.813824005913637905e-01 4.971472598118729103e-01 4.971472598118729103e-01 2.685752769197308765e-01 2.788445421799123219e-02 -4.506625165030274383e-02 -2.626305299780661295e-01 -9.864563571055270375e-01 -1.154346131108816564e+00 -1.760754484413794341e+00 -2.211415038425214252e+00 -2.377312965294711145e+00 -2.802187365223796078e+00 -3.230335863295118681e+00 -3.230335863295118681e+00 -3.352905165223137196e+00 -3.272314107470580602e+00 -3.289138527154520375e+00 -3.191723049718024896e+00 -3.222500729037878653e+00 -3.304756251840170300e+00 -3.410935036350702720e+00 -3.457256577090201954e+00 -3.518562684679843677e+00 -3.649374766597687447e+00 -3.780911041688864493e+00 -3.780911041688864493e+00 -3.671514437914848106e+00 -3.551591317225569533e+00 -3.551591317225569533e+00 -3.434471619751389149e+00 -3.557869386906157949e+00 -3.645457928038651207e+00 -3.702099351950554951e+00 -3.940679530382646956e+00 -4.115146913466067424e+00 -4.547103609647752620e+00 -4.808815006125038316e+00 -4.939755027051776715e+00 -5.145071903394651258e+00 -5.374515783545447789e+00 -5.374515783545447789e+00 -5.531152827926758775e+00 -5.720939305613652159e+00 -5.872952602522584442e+00 -5.914195004083698137e+00 -6.112421289930919599e+00 -6.206077733819508779e+00 -6.404594963052158363e+00 -6.508345570526092416e+00 -6.691883255607525172e+00 -6.851133336524592110e+00 -7.039179027943498035e+00 -7.039179027943498035e+00 -7.286490963622389572e+00 -7.512815763443732919e+00 -7.539867872667618265e+00 -7.618519621281965470e+00 -7.789361124768575451e+00 -7.838514032436664003e+00 -8.028224167378738230e+00 -8.115846709875832232e+00 -8.181943678749002302e+00 -8.326445460627487805e+00 -8.473475443186050171e+00 -8.473475443186050171e+00 -8.626626881663920443e+00 -8.710254173328465299e+00 -8.710254173328465299e+00 -8.820200730830439539e+00 -8.929125923920469887e+00 -8.974231641725799236e+00 -8.999277416782810235e+00 -9.092214722771597479e+00 -9.144038611568042541e+00 -9.188197339445034473e+00 -9.235271798152094647e+00 -9.317966482973430331e+00 -9.330863653548096437e+00 -9.367714264768885357e+00 -9.404044981408896220e+00 -9.424762918929795674e+00 -9.451944565732393500e+00 -9.508539604387300059e+00 -9.508539604387300059e+00 -9.549859397042490983e+00 -9.604105599390948100e+00 -9.619068945825802075e+00 -9.624697316618776810e+00 -9.679144108343850306e+00 -9.750300015492104677e+00 -9.777981579970852266e+00
4.711184347770117853e+00 4.711184347770117853e+00 4.711184347770117853e+00 4.711184347770117853e+00 4.711184347770117853e+00 4.404523081496186876e+00 3.443548777748624445e+00 3.298772117490087474e+00 3.040062550735701752e+00 2.648064916755120013e+00 2.413247734426245295e+00 1.931901088189915683e+00 1.785847386854180652e+00 1.442693568303205831e+00 8.437241588802243397e-01 1.890019746910839848e-01 1.890019746910839848e-01 3.928019129843716151e-01 5.841628646766325872e-01 6.266187566325315261e-01 7.241007655637545781e-01 8.640386664508764580e-01 9.021126052555947794e-01 7.439545002530597584e-01 6.756926513320584693e-01 5.480748222696498750e-01 3.290741222139382804e-01 1.190481262667173606e-01 1.190481262667173606e-01 -9.097786968050355916e-02 -6.901968319489254489e-01 -6.901968319489254489e-01 -1.298225241855406331e+00 -1.923640655637981700e+00 -2.211415038425214252e+00 -2.550132008388417582e+00 -2.987931932687720504e+00 -3.109133897991419815e+00 -3.319066240329106243e+00 -3.236950841122778755e+00 -3.253161548308853401e+00 -3.175427136631670422e+00 -3.162020714918902797e+00 -3.162020714918902797e+00 -3.259226780305979787e+00 -3.388984663158140620e+00 -3.457256577090201954e+00 -3.529750548118320452e+00 -3.660517215167487848e+00 -3.718789911188536301e+00 -3.719685091465589011e+00 -3.647488715728300246e+00 -3.601339065917626314e+00 -3.484864887540675582e+00 -3.386983290723843076e+00 -3.386983290723843076e+00 -3.534725787327941404e+00 -3.762695271865728941e+00 -3.940679530382646956e+00 -4.230424670993762959e+00 -4.673841986361559009e+00 -4.808815006125038316e+00 -5.049981501753552315e+00 -5.169589221273670709e+00 -5.254585843333424044e+00 -5.439391179237595964e+00 -5.579130512764256977e+00 -5.719964454232776774e+00 -5.830762653737201262e+00 -6.000273058027984163e+00 -6.141537394544511308e+00 -6.225472156500749144e+00 -6.393655007769277532e+00 -6.637681854598763920e+00 -6.637681854598763920e+00 -6.820458374446309868e+00 -7.027538088334974731e+00 -7.207233531756170208e+00 -7.261480071672814063e+00 -7.474357426946413696e+00 -7.516213102283577641e+00 -7.697679575988237488e+00 -7.803298849196188769e+00 -7.932982160674815653e+00 -8.044197772637419419e+00 -8.170831114441334364e+00 -8.170831114441334364e+00 -8.356289752061467624e+00 -8.471083710350084672e+00 -8.521296016660192763e+00 -8.630255747251768028e+00 -8.698869059523850922e+00 -8.824071117112161744e+00 -8.890527452655998530e+00 -8.938551977617947841e+00 -8.978255265924666162e+00 -9.052698508339247496e+00 -9.147853984703106178e+00 -9.147853984703106178e+00 -9.198168416482234377e+00 -9.250337227783665739e+00 -9.317966482973430331e+00 -9.330944607674496183e+00 -9.379630021747823676e+00 -9.404044981408896220e+00 -9.428727065630459592e+00 -9.453036512737300612e+00 -9.493725805986972688e+00 -9.502390917061164899e+00 -9.552729433152382654e+00 -9.569425795124306688e+00 -9.626062842634469874e+00 -9.683401592012275572e+00 -9.683401592012275572e+00 -9.767361115393320858e+00 -9.770555496509565785e+00
4.687918013208674850e+00 4.687918013208674850e+00 4.687918013208674850e+00 4.687918013208674850e+00 5.205287819830035190e+00 4.392688423695885191e+00 3.921727547682344550e+00 3.196018983186060147e+00 2.800467467527182563e+00 2.800467467527182563e+00 2.452556106905951161e+00 2.219426759678737149e+00 1.785847386854180652e+00 1.735152366590198225e+00 8.564599200683675750e-01 2.688305467768354884e-01 2.827026183746311205e-01 3.187847970631270678e-01 4.611650183654586455e-01 7.133926725940286095e-01 8.533305734811504895e-01 8.533305734811504895e-01 9.341977196707726971e-01 8.021515260823418592e-01 6.756926513320584693e-01 6.117336179080807845e-01 3.582722708751275853e-01 2.005172691876939972e-01 -9.508726759526901773e-03 -6.110096710839454243e-02 -2.827815138398050432e-01 -8.978491981907337216e-01 -1.600079743929083032e+00 -1.600079743929083032e+00 -2.306400325887462355e+00 -2.877813492924040872e+00 -3.227761365232446611e+00 -3.227761365232446611e+00 -3.279753063575240990e+00 -3.168403875380511714e+00 -3.166274550181969794e+00 -3.080535391292062997e+00 -3.112486776490846374e+00 -3.199962169946762192e+00 -3.234936661118842594e+00 -3.351083764688136846e+00 -3.465630689961270772e+00 -3.602244519146439394e+00 -3.638143934066813134e+00 -3.623334986452919182e+00 -3.659878975767437037e+00 -3.576196530916222915e+00 -3.576196530916222915e+00 -3.387513918400564261e+00 -3.096445791836955674e+00 -3.353767618947649076e+00 -3.384162966007847384e+00 -3.896940408809778766e+00 -4.085007504750463703e+00 -4.518854038894887459e+00 -4.725421652936251604e+00 -4.859014121479196646e+00 -5.103487449162385836e+00 -5.259327182999659733e+00 -5.259327182999659733e+00 -5.471755924449968944e+00 -5.646716458731581234e+00 -5.719964454232776774e+00 -5.803486865596495292e+00 -5.983704821316493394e+00 -6.141537394544511308e+00 -6.253683841186061798e+00 -6.399428444388389536e+00 -6.499695164969789829e+00 -6.711208948258883922e+00 -6.939768331927108846e+00 -6.939768331927108846e+00 -7.119368525691814220e+00 -7.293022897013210937e+00 -7.293022897013210937e+00 -7.537846986117629378e+00 -7.691508658424259792e+00 -7.803298849196188769e+00 -7.848557067039049429e+00 -8.044511564597442543e+00 -8.112860766419446534e+00 -8.263567725489529892e+00 -8.368115425459471624e+00 -8.417887941073837865e+00 -8.527394796527378418e+00 -8.687185173939075966e+00 -8.687185173939075966e+00 -8.839294520802026156e+00 -8.901117263453228290e+00 -8.938551977617947841e+00 -8.981096982303704124e+00 -9.061278284697650065e+00 -9.100283671908217187e+00 -9.141844911403037344e+00 -9.210854011233344352e+00 -9.235958494893072412e+00 -9.319617144494939609e+00 -9.361218796879365200e+00 -9.361218796879365200e+00 -9.408796542184887812e+00 -9.459545173032294585e+00 -9.453036512737300612e+00 -9.496561404223434977e+00 -9.521084756993179354e+00 -9.552729433152382654e+00 -9.603459486558636016e+00 -9.637493367580255210e+00 -9.662570608745083334e+00 -9.694892356938080269e+00 -9.779063249725858498e+00 -9.772251181692080735e+00
4.664651678647230959e+00 4.687918013208674850e+00 4.687918013208674850e+00 4.687918013208674850e+00 5.292920717481599979e+00 3.753310718513565014e+00 3.397904809995088371e+00 3.105289617854012807e+00 2.735081901462439458e+00 2.582107784924706273e+00 2.382327508433260910e+00 2.287135600140576930e+00 2.168731739414754944e+00 1.449823336770173166e+00 3.185788820409549693e-01 3.185788820409549693e-01 1.688847713404069140e-01 4.146658987165114385e-01 4.146658987165114385e-01 7.028157478578532791e-01 9.340365629011651016e-01 9.279202934327501762e-01 9.177951127862167269e-01 8.216558342391299119e-01 7.426499799973342864e-01 4.759894191046085132e-01 4.722758279176482166e-01 3.358302525371140157e-01 3.162340049681987980e-02 -3.934844064814183584e-01 -3.934844064814183584e-01 -6.964580891457233802e-01 -1.469548120662458324e+00 -1.885390393756153360e+00 -2.358001844399425728e+00 -2.955933518963778539e+00 -3.090785805228979832e+00 -3.227815884243620204e+00 -3.274891491131247889e+00 -3.243789439553534049e+00 -3.104249221393972746e+00 -3.083128116664002327e+00 -3.083128116664002327e+00 -3.165199348191793494e+00 -3.275278045240448410e+00 -3.351083764688136846e+00 -3.426593485657154048e+00 -3.556967810260439400e+00 -3.638143934066813134e+00 -3.656560929777096902e+00 -3.604077457941098572e+00 -3.625272010453437055e+00 -3.418880102751903571e+00 -3.166564604674332095e+00 -3.209402663638910358e+00 -3.219701694695112248e+00 -3.720697260476943491e+00 -3.720697260476943491e+00 -4.225714734767387348e+00 -4.602271006644474305e+00 -4.725421652936251604e+00 -4.883581468462533159e+00 -5.106931742106066707e+00 -5.186355579893792367e+00 -5.374677218173980364e+00 -5.467017299472633596e+00 -5.569570359827920925e+00 -5.729728216844756084e+00 -5.897153173738971077e+00 -5.897153173738971077e+00 -6.138270939402222126e+00 -6.273353567022651234e+00 -6.399428444388389536e+00 -6.504447960112097249e+00 -6.712064045855441030e+00 -6.791179214065631520e+00 -7.051687973180021274e+00 -7.119297684254758174e+00 -7.234626523766390704e+00 -7.418008743733136789e+00 -7.619616945256169060e+00 -7.619616945256169060e+00 -7.828672035136754026e+00 -7.976162362775439441e+00 -8.044511564597442543e+00 -8.123652690414125743e+00 -8.271007327986069413e+00 -8.368115425459471624e+00 -8.478419658391898039e+00 -8.533187711779682161e+00 -8.638529871188808329e+00 -8.707491076670832442e+00 -8.826705002876673589e+00 -8.823800597752601504e+00 -8.944137766311989424e+00 -9.017238964425931869e+00 -9.017238964425931869e+00 -9.103518192397871189e+00 -9.141583677819431486e+00 -9.210854011233344352e+00 -9.238619523493877495e+00 -9.327538205810780525e+00 -9.334067389436265572e+00 -9.393567641589783079e+00 -9.413839989541759934e+00 -9.436577146903804447e+00 -9.461790082251138045e+00 -9.579323769907766462e+00 -9.579323769907766462e+00 -9.556749890300373806e+00 -9.613901102668661380e+00 -9.637493367580255210e+00 -9.675793931643156043e+00 -9.712943681632095760e+00 -9.779063249725858498e+00 -9.765288112961247435e+00
4.664651678647230959e+00 4.664651678647230959e+00 4.664651678647230959e+00 4.664651678647230959e+00 5.309842695069374230e+00 4.477803013684289901e+00 3.429237015412642364e+00 2.911307849110954749e+00 2.911307849110954749e+00 2.654119170686823015e+00 2.478344499271972978e+00 2.287135600140576930e+00 2.213785220540750220e+00 1.479976445534307183e+00 9.046836306856818055e-01 2.522597363513648938e-01 2.186200933126191126e-01 3.009133424373899857e-01 5.429354546063362985e-01 8.951599998299968330e-01 8.951599998299968330e-01 9.234812949415160954e-01 8.976823554939781236e-01 8.216558342391299119e-01 7.408854292200619529e-01 5.397140948767703561e-01 4.722758279176482166e-01 1.714066997194283459e-01 3.963780010656829667e-02 -2.074061680662364071e-01 -8.051753835347090771e-01 -9.118388366610605811e-01 -1.060000157417209543e+00 -1.982442526735258337e+00 -2.699710162873059982e+00 -2.699710162873059982e+00 -3.144759619631082970e+00 -3.254430394646262936e+00 -3.274891491131247889e+00 -3.214180675176669943e+00 -3.082751955185671022e+00 -3.062986705618838457e+00 -3.120134233440361893e+00 -3.144358878993885220e+00 -3.216797270292890865e+00 -3.349970099742313412e+00 -3.467198572288979985e+00 -3.467198572288979985e+00 -3.532663032459599783e+00 -3.591056388205074779e+00 -3.604077457941098572e+00 -3.478704450815436999e+00 -3.252134840337626898e+00 -3.166564604674332095e+00 -3.172933311995134620e+00 -3.409549799895455369e+00 -3.549666953318233897e+00 -4.032180739196500774e+00 -4.459255137057168028e+00 -4.459255137057168028e+00 -4.790460036469203153e+00 -5.018367960428189889e+00 -5.106931742106066707e+00 -5.194122847277376387e+00 -5.376352555129265909e+00 -5.467017299472633596e+00 -5.543244181405627913e+00 -5.701313627741035894e+00 -5.800817327649615329e+00 -5.911157383874668270e+00 -6.021639695634151579e+00 -6.157285371223142789e+00 -6.401896231290253425e+00 -6.581139259393162355e+00 -6.581139259393162355e+00 -6.789037147707697173e+00 -7.052038125641742816e+00 -7.119297684254758174e+00 -7.277226875833249231e+00 -7.459443692205669052e+00 -7.566851244576189295e+00 -7.760322833314750035e+00 -7.839463959131432347e+00 -7.907813160953435450e+00 -8.055303488592121752e+00 -8.202793816230807167e+00 -8.202793816230807167e+00 -8.369019447843310644e+00 -8.485755606433713183e+00 -8.533187711779682161e+00 -8.639563626608817160e+00 -8.724800308531062143e+00 -8.826705002876673589e+00 -8.907151923755789014e+00 -8.949723555006031006e+00 -8.988027686177938236e+00 -9.066684753515939832e+00 -9.159050943842290238e+00 -9.159050943842290238e+00 -9.223607816085806377e+00 -9.263241630155807371e+00 -9.263241630155807371e+00 -9.337190171198034960e+00 -9.407478812471302021e+00 -9.413839989541759934e+00 -9.440966048660857979e+00 -9.473658007823850369e+00 -9.504496886136847067e+00 -9.540895530364025490e+00 -9.568403644219070969e+00 -9.625168250844211570e+00 -9.648923892526038770e+00 -9.684255400554867776e+00 -9.729811236679871911e+00 -9.789944758392293167e+00 -9.792231884036226575e+00
