5.767634386743829999e+00 5.489099131231901296e+00 5.210563875719973481e+00 5.065066665683157332e+00 4.932028620208051883e+00 4.663886722934851292e+00 4.206911183729033610e+00 3.836501282682275082e+00 3.726859943201401570e+00 3.534027590130142560e+00 3.187018820113959983e+00 2.884249037878066968e+00 2.884249037878066968e+00 2.598878150854457836e+00 2.229337918558564446e+00 2.229337918558564446e+00 1.885766222659769564e+00 1.578213045099762457e+00 1.351057223583239653e+00 1.256615768971372171e+00 1.338885075185886731e+00 1.390785880767347216e+00 1.126164423383803737e+00 5.845063624424293725e-01 2.652172375376913305e-01 -4.038263905826913192e-01 -1.198662179290319596e+00 -1.198662179290319596e+00 -1.752020723275599101e+00 -2.001254363343563103e+00 -2.074566294859451432e+00 -2.037477717387640386e+00 -1.995157918761809590e+00 -1.999326607805382405e+00 -2.010326651690242272e+00 -2.040494638401806782e+00 -2.091781751194343286e+00 -2.458634039897551027e+00 -3.368625423370936289e+00 -3.368625423370936289e+00 -4.219215396990262157e+00 -4.687174130985793497e+00 -4.809131032211263701e+00 -4.857549083022028924e+00 -4.709772969576854429e+00 -3.677381789618331176e+00 -2.946657451218548385e+00 -2.703081099915981333e+00 -1.059369214791388458e+00 -5.513574011477200276e-01 5.336935141240547464e-01 1.061544857542015441e+00 1.223823643874686340e+00 1.438944336569549787e+00 1.580041977860509039e+00 1.774401902495991168e+00 2.071530251878681117e+00 2.367131026897479451e+00 2.367131026897479451e+00 2.724340708138714096e+00 3.177868306485470029e+00 3.373873233174499386e+00 3.519513030063086578e+00 3.900782136819860746e+00 4.021887614393678589e+00 4.210955063278826849e+00 4.241946093258444073e+00 4.257000263603581303e+00 4.286900105901800373e+00 4.214383297580321042e+00 4.214383297580321042e+00 4.023349364943230810e+00 3.672181032376729437e+00 3.535978456063032738e+00 3.409215302156069161e+00 3.395722364829264706e+00 3.483102753333835455e+00 3.462192648737026701e+00 3.454335043239601610e+00 3.429230422353747088e+00 3.538881515809367162e+00 3.642420655451734213e+00 3.642420655451734213e+00 3.508474937838703234e+00 3.529272959598920067e+00 3.557790064830981702e+00 3.521314002727700121e+00 3.433350920849722154e+00 3.425156406478592430e+00 3.426683981458507500e+00 3.339332245826108991e+00 3.335589163946342417e+00 3.264144470944335907e+00 3.155577992884412986e+00 3.120181642609824557e+00 2.908811311555917101e+00 2.720931668404634962e+00 2.720931668404634962e+00 2.640396064518187202e+00 2.429196661931208645e+00 2.231452268337537959e+00 2.180234057500162415e+00 2.135488856420221460e+00 2.088818346643598556e+00 2.044424182329763529e+00 1.836045592228201295e+00 1.583247990925891413e+00 9.957952911597145462e-01 5.588685737132178533e-01 5.588685737132178533e-01 1.863829190240611222e-01 -1.173196231421195501e-01 -3.174585915715646967e-01 -5.393438177317803062e-01 -1.045230297141328757e+00 -1.170797309637910288e+00
5.634596341268718334e+00 5.501558295793605780e+00 5.356061085756789630e+00 5.077525830244867144e+00 4.798990574732940217e+00 4.798990574732940217e+00 4.271570469736426290e+00 3.869506396427042638e+00 3.726859943201401570e+00 3.556704268445073147e+00 3.277770612241018622e+00 3.067239883704919290e+00 2.813665458201016101e+00 2.620769090828935166e+00 2.285859399347982546e+00 2.084453973173783670e+00 1.780158002846821130e+00 1.595428534982899826e+00 1.420829684968040851e+00 1.422427129295390502e+00 1.346208724642830035e+00 1.346208724642830035e+00 9.614659532419852495e-01 2.253320830536472696e-01 -9.333559367727384259e-02 -5.520691845157992272e-01 -1.249067764401892600e+00 -1.520413015247915389e+00 -1.747491157880514345e+00 -1.990406859422007679e+00 -2.073502930878909467e+00 -1.993515557612653977e+00 -1.963564207579584497e+00 -2.023980203353458407e+00 -2.053243273662209489e+00 -2.129514108568741015e+00 -2.129514108568741015e+00 -2.473297276741933892e+00 -3.310814947127846963e+00 -3.793251801809840895e+00 -4.157429869741999795e+00 -4.729734495057947186e+00 -4.840275929058167392e+00 -4.913437014081797116e+00 -4.879732653128212583e+00 -4.353979837700766353e+00 -3.141978581147260030e+00 -1.635790975509866074e+00 -1.635790975509866074e+00 -6.517763542317246417e-01 8.837029732190254672e-01 1.061544857542015441e+00 1.147238738792837331e+00 1.425227033399056431e+00 1.580041977860509039e+00 1.899058205414625000e+00 2.013754048683302766e+00 2.198495511788111312e+00 2.503211776951090428e+00 2.935042945180299068e+00 2.935042945180299068e+00 3.318616828822309017e+00 3.697426910211591089e+00 3.697426910211591089e+00 3.987202794616033774e+00 4.193167170309052949e+00 4.241946093258444073e+00 4.276349162303356266e+00 4.282701644334808933e+00 4.262462409547755904e+00 4.095381041114158016e+00 4.006762328800101081e+00 3.851479022613033099e+00 3.541593445650551786e+00 3.361452488021385854e+00 3.361452488021385854e+00 3.446888851900341777e+00 3.456530690156551344e+00 3.454335043239601610e+00 3.427591118681012183e+00 3.509956781191290176e+00 3.584509697750029922e+00 3.563002421228544492e+00 3.517574083018498499e+00 3.478556510304414040e+00 3.555262805656081770e+00 3.464258685770533752e+00 3.464258685770533752e+00 3.393790261204016279e+00 3.370907561401802255e+00 3.339332245826108991e+00 3.312046146428658133e+00 3.225295238733423719e+00 3.155577992884412986e+00 2.998698248983965087e+00 2.855264229508767571e+00 2.766567563878629787e+00 2.673655673325088244e+00 2.565279804604801761e+00 2.504373124998413136e+00 2.329635248248076884e+00 2.146545034930336104e+00 2.146545034930336104e+00 2.082210557519881711e+00 1.895117286502475462e+00 1.836045592228201295e+00 1.549260213450729839e+00 9.700743387614754187e-01 7.586567271614683694e-01 3.273044394778084065e-01 1.702750449772022223e-01 1.656761177408504204e-02 -3.604609699338608975e-01 -8.011843185306238846e-01 -8.011843185306238846e-01 -1.163465601910392611e+00
5.647055505830421041e+00 5.368520250318499443e+00 5.368520250318499443e+00 5.089984994806571628e+00 4.811449739294643813e+00 4.690341006339548535e+00 4.377177043194878436e+00 3.920143163010604059e+00 3.712000392233955282e+00 3.413668462289809913e+00 3.220207545554906847e+00 3.101877549770756914e+00 2.820836058255351997e+00 2.488684020755318471e+00 2.488684020755318471e+00 2.129355702876538192e+00 1.770027384997757913e+00 1.595428534982899826e+00 1.405463342461024112e+00 1.370867419332374215e+00 1.356194912032096411e+00 1.332267923652516783e+00 9.110683845906621947e-01 5.453445755822974306e-01 -2.010300653710895280e-01 -9.567312288059354186e-01 -9.567312288059354186e-01 -1.482258392376993417e+00 -1.865949127547008590e+00 -1.990406859422007679e+00 -2.046522522453163351e+00 -1.971587149223646307e+00 -1.963564207579584497e+00 -2.041570491118425146e+00 -2.011553847010262075e+00 -2.045197200053793907e+00 -2.287328038078003445e+00 -2.430011617493418541e+00 -2.765867990438648949e+00 -3.722229929285754135e+00 -4.442506725245777943e+00 -4.442506725245777943e+00 -4.878777201365309679e+00 -4.896731235057572462e+00 -4.879732653128212583e+00 -4.440873441018127643e+00 -3.578866304998228998e+00 -2.655823507832540287e+00 -1.473408540263807742e+00 -8.229150318660459762e-01 6.902245796791650623e-01 9.239894315084709042e-01 1.279647849908025048e+00 1.279647849908025048e+00 1.503634300981431027e+00 1.808116432857120648e+00 2.013754048683302766e+00 2.136030961163953634e+00 2.489849357816532383e+00 2.720177562014010952e+00 3.126650083798014457e+00 3.251039995713446817e+00 3.444614883160006080e+00 3.850111066152181127e+00 4.110135600771188003e+00 4.110135600771188003e+00 4.254569822124999234e+00 4.304696327014647217e+00 4.282701644334808933e+00 4.244653417395101158e+00 4.073623769464096434e+00 4.006762328800101081e+00 3.688226680617754383e+00 3.551103545987396526e+00 3.438982609302857263e+00 3.383217803900745224e+00 3.398679088289948691e+00 3.469118552669121947e+00 3.457281806150858117e+00 3.434156268960987468e+00 3.434156268960987468e+00 3.547473164073651652e+00 3.546363927938247507e+00 3.517574083018498499e+00 3.485974916632821774e+00 3.511560298104629219e+00 3.492439512666352108e+00 3.401273849438973151e+00 3.365475624587518588e+00 3.408713860688958430e+00 3.346230164686876840e+00 3.295328138161990328e+00 3.295328138161990328e+00 3.120187453185502946e+00 2.946936113346445119e+00 2.855264229508767571e+00 2.719490220430768268e+00 2.602786513242120403e+00 2.565279804604801761e+00 2.399730265861137468e+00 2.311838512528633149e+00 2.174221101510484200e+00 2.146548481446725276e+00 2.023777027603371970e+00 2.023777027603371970e+00 1.811086835230930170e+00 1.239305951166935760e+00 9.700743387614754187e-01 7.271667423589541768e-01 3.431012768918931255e-01 1.702750449772022223e-01 -1.533194176574508710e-02 -3.920263509690117276e-01 -5.760598938103433930e-01 -8.834465976857897029e-01 -8.865909501872843990e-01
5.659514670392129077e+00 5.514017460355315592e+00 5.235482204843387777e+00 4.956946949331459962e+00 4.956946949331459962e+00 4.689429595256466854e+00 4.074458053632810106e+00 3.920143163010604059e+00 3.716441102691474541e+00 3.365737021191293366e+00 3.220207545554906847e+00 2.965552639578139082e+00 2.837635723389266840e+00 2.663282870770176558e+00 2.303954552891396723e+00 2.119225085027474975e+00 1.944626235012616444e+00 1.585297917133836387e+00 1.370791432411567534e+00 1.370791432411567534e+00 1.342826803515628997e+00 1.339200039026180900e+00 9.110683845906621947e-01 5.179833496771655277e-01 -2.246242902509186790e-01 -5.878954171407055895e-01 -1.276488374104953749e+00 -1.478098890899953721e+00 -1.715449020352094234e+00 -1.972236744638617534e+00 -1.994695209537135749e+00 -1.994695209537135749e+00 -1.955960710255642443e+00 -1.991462251695236052e+00 -2.011553847010262075e+00 -2.036934560054221244e+00 -2.263845515860058999e+00 -2.430011617493418541e+00 -3.208611552567088410e+00 -3.623433745608756418e+00 -4.104470242299539606e+00 -4.803970190742449020e+00 -4.911710468677222607e+00 -4.911710468677222607e+00 -4.789810851434869399e+00 -4.203792237563156675e+00 -3.578866304998228998e+00 -3.152008728071390209e+00 -2.401852310958221715e+00 -8.229150318660459762e-01 3.753744257440205234e-01 7.865502979771716863e-01 1.041977793186640078e+00 1.381387223835647937e+00 1.435743827508818571e+00 1.600481810112461822e+00 1.909297509762958311e+00 2.291841653377598931e+00 2.291841653377598931e+00 2.714916920535420886e+00 3.082227907858527960e+00 3.251039995713446817e+00 3.376295377126400155e+00 3.799439995484501509e+00 3.959504425540457895e+00 4.176521741295242229e+00 4.260147266086516282e+00 4.307232478607057935e+00 4.295510032787245080e+00 4.149808133300622259e+00 4.149808133300622259e+00 3.977019257692083087e+00 3.710328719919751883e+00 3.551103545987396526e+00 3.461114770913720662e+00 3.370713242972225743e+00 3.398679088289948691e+00 3.457943528156971702e+00 3.459545215141832664e+00 3.443896326254496820e+00 3.476673418484271139e+00 3.555813423112360816e+00 3.555813423112360816e+00 3.524192130338889228e+00 3.482170165561842445e+00 3.482170165561842445e+00 3.464625578478303325e+00 3.370960519371593911e+00 3.383175730024721162e+00 3.383175730024721162e+00 3.353128083547645133e+00 3.267461537558129958e+00 3.201802973655152318e+00 3.084696025488051774e+00 2.888570087234037853e+00 2.801717147461617596e+00 2.623436591894250824e+00 2.523581264222500398e+00 2.509361871345741068e+00 2.381913515803528725e+00 2.171719275568668728e+00 2.171719275568668728e+00 2.158112289835431685e+00 2.059789155617260725e+00 1.965343497686862229e+00 1.769920019110808651e+00 1.133790856465265451e+00 9.229104910269498863e-01 4.795337273679818879e-01 3.522567606358147363e-01 1.691759576739719773e-01 -2.450350039082632159e-01 -6.119884380062889928e-01 -6.119884380062889928e-01 -8.316325343056233388e-01 -1.052975765752527160e+00
5.659514670392129077e+00 5.526476624917017411e+00 5.247941369405091372e+00 5.102444159368275223e+00 4.823908903856350960e+00 4.690870858381240183e+00 4.362429903241245910e+00 3.874857688003099376e+00 3.461853257993357857e+00 3.461853257993357857e+00 3.258572917747782238e+00 3.026155418793378349e+00 2.837635723389266840e+00 2.702952145036321863e+00 2.358333891239216662e+00 2.119225085027474975e+00 1.759896767148695140e+00 1.549709648519241201e+00 1.435320158140326763e+00 1.126527400937577639e+00 1.379716071141115830e+00 1.379716071141115830e+00 8.269371714880036084e-01 1.248983147636688884e-01 1.248983147636688884e-01 -6.491127031708925355e-01 -1.355060824100017269e+00 -1.478098890899953721e+00 -1.679709407694953915e+00 -1.946380401442886932e+00 -2.023048869798834914e+00 -1.966137520197542177e+00 -1.950511081229537869e+00 -1.940334271287637691e+00 -1.969864420358313994e+00 -2.115513349592110348e+00 -2.115513349592110348e+00 -2.406152643258200108e+00 -3.109815368890090248e+00 -3.623433745608756418e+00 -4.038255938650425314e+00 -4.888461957177923978e+00 -4.903697277139976052e+00 -4.855066719932843888e+00 -4.697861033641428818e+00 -4.537298769941128462e+00 -3.968028072752681989e+00 -3.021474894674999412e+00 -3.021474894674999412e+00 -1.343977523233787164e+00 4.180361988985018540e-01 7.865502979771716863e-01 9.367168475804426020e-01 1.333721370193105216e+00 1.435743827508818571e+00 1.719009699300801719e+00 1.820184945810398913e+00 2.239857615560595150e+00 2.476486938681974337e+00 2.925321387172266974e+00 3.023256789395631472e+00 3.183463162604583729e+00 3.571404344795856112e+00 3.748261342623940173e+00 3.934093189415621694e+00 4.153740264012574457e+00 4.338798165246165794e+00 4.338798165246165794e+00 4.339306828003861582e+00 4.126169575579798021e+00 4.039485254514649348e+00 3.941688836706477517e+00 3.744267455317118021e+00 3.564762152441346643e+00 3.388646271786885933e+00 3.354861365493467584e+00 3.379338858745740470e+00 3.454450295908875646e+00 3.457697234191528413e+00 3.457697234191528413e+00 3.454828444124869335e+00 3.499376978035645180e+00 3.538557046465816924e+00 3.514814289626412069e+00 3.459500116762536770e+00 3.467904520297359738e+00 3.419283378317461874e+00 3.361851509302489660e+00 3.340740057994562306e+00 3.369985599482697047e+00 3.331991990325516628e+00 3.331991990325516628e+00 3.177358468367387889e+00 2.961686416973629665e+00 2.888570087234037853e+00 2.758993243212252811e+00 2.584112651904466595e+00 2.523581264222500398e+00 2.466540841435598708e+00 2.339428099819118145e+00 2.293308542218282842e+00 2.141405159407606007e+00 2.130336732948106437e+00 2.154234813547659666e+00 2.055674833117077327e+00 1.437486398919131547e+00 1.437486398919131547e+00 8.708135253134108300e-01 4.678006809403475463e-01 3.522567606358147363e-01 8.386865028960412138e-02 -3.441255128760726811e-01 -5.904740174618606785e-01 -7.796709116312900978e-01 -9.489685092005527567e-01 -1.000972137476539903e+00
5.671973834953831783e+00 5.393438579441905745e+00 5.393438579441905745e+00 5.114903323929983259e+00 4.836368068418057220e+00 4.690870858381240183e+00 4.422720903677017645e+00 3.860094327932350744e+00 3.692994279344842479e+00 3.295619405642770783e+00 3.152938907081904052e+00 3.151408814304271111e+00 2.919882988024865345e+00 2.640582782225072478e+00 2.640582782225072478e+00 2.498556393924652674e+00 1.654918992034938974e+00 1.549709648519241201e+00 1.284696312689913356e+00 1.150041774929357885e+00 1.388702815389983636e+00 1.306984397610159387e+00 8.524738674523243409e-01 3.911473197118695011e-01 -2.663522902687532889e-01 -1.159263019290141195e+00 -1.400269956229476698e+00 -1.545759207056893514e+00 -1.831268949439623483e+00 -1.959929594938056852e+00 -1.959929594938056852e+00 -1.929187309914889514e+00 -1.897396967958445479e+00 -1.941354012272046736e+00 -1.942970869217800267e+00 -2.102749223062791994e+00 -2.239630725749874873e+00 -2.362098666120084900e+00 -2.993581291942117417e+00 -3.523299651910944519e+00 -4.444146900342497375e+00 -4.831035262627579208e+00 -4.917244227032020909e+00 -4.839678560147941511e+00 -4.701901005222693719e+00 -4.701901005222693719e+00 -4.207801190228394717e+00 -3.156234053114585159e+00 -2.716328333707854092e+00 -2.499470357520193975e+00 -4.917306332281837777e-01 4.606979720529830735e-01 1.172125688213458528e+00 1.321157800990497178e+00 1.395801475369667255e+00 1.672793936875927923e+00 1.957327404710321517e+00 1.957327404710321517e+00 2.371191078239794248e+00 2.793943328256345726e+00 3.023256789395631472e+00 3.098162473958997243e+00 3.502611976100197477e+00 3.748261342623940173e+00 4.075098055640575367e+00 4.122150288394336393e+00 4.244387307730468351e+00 4.384533150134238610e+00 4.211068779647585636e+00 4.211068779647585636e+00 3.992074532173066181e+00 3.837774875219161608e+00 3.837774875219161608e+00 3.587384231964230619e+00 3.388028023472412720e+00 3.354861365493467584e+00 3.342008968018335135e+00 3.421960058605262311e+00 3.459402210841592495e+00 3.452149777126100716e+00 3.419664369950759841e+00 3.485306442766336943e+00 3.493644108857723474e+00 3.450167880889387639e+00 3.450167880889387639e+00 3.462162179151855756e+00 3.429036682865136854e+00 3.361851509302489660e+00 3.352381737282660090e+00 3.366244851192411680e+00 3.357562829401529392e+00 3.252563638751630570e+00 3.171324897360343620e+00 3.077622353495401697e+00 2.863532450736606449e+00 2.662724792910408755e+00 2.662724792910408755e+00 2.501196283149547117e+00 2.379718254734947358e+00 2.339428099819118145e+00 2.228931696893486247e+00 2.114721817022701345e+00 2.130336732948106437e+00 2.039250078701249080e+00 1.826665062368812098e+00 1.692473187472713025e+00 1.089411046955303330e+00 6.344304840708999693e-01 6.344304840708999693e-01 2.890130444311637681e-01 -1.522347889739394389e-01 -1.522347889739394389e-01 -6.017266792534647912e-01 -8.575453709401896774e-01 -9.489685092005527567e-01 -1.067921688973053396e+00
5.684432999515537155e+00 5.405897744003612004e+00 5.260400533966797632e+00 4.981865278454872481e+00 4.848827232979760815e+00 4.703330022942944666e+00 4.167558595494014639e+00 3.735307503381954497e+00 3.735307503381954497e+00 3.339038569857426531e+00 3.175083622244805337e+00 3.175083622244805337e+00 2.947066389683409060e+00 2.619691465835751742e+00 2.519589116016904384e+00 2.265167047106332099e+00 1.779652876106943671e+00 1.492859979836040907e+00 1.035692476268151863e+00 1.277899569738400576e+00 1.176520234838435375e+00 1.152197767365158443e+00 5.211345310060198077e-01 5.211345310060198077e-01 -2.427190500907099313e-01 -1.218379492206693282e+00 -1.400269956229476698e+00 -1.561464140905349796e+00 -1.786386914618246724e+00 -1.899192922400912087e+00 -1.879285277393667020e+00 -1.812584333627306421e+00 -1.854990650792875950e+00 -1.925916257580480018e+00 -2.011694948479757272e+00 -2.011694948479757272e+00 -2.177674362604464786e+00 -2.507884113762961942e+00 -2.993581291942117417e+00 -3.392480094727482687e+00 -4.283642709065428988e+00 -4.831035262627579208e+00 -4.974291047668679688e+00 -4.960729063449052845e+00 -4.774974225368373126e+00 -4.589323177881186488e+00 -4.037933799126924406e+00 -4.037933799126924406e+00 -2.877315097960301049e+00 -1.460655935571179675e+00 -1.460655935571179675e+00 -9.925842538582674290e-02 1.302102113520459792e+00 1.321157800990497178e+00 1.412634894377544637e+00 1.632227154289703996e+00 1.759832398302324741e+00 2.102580135659382510e+00 2.217913757130220986e+00 2.500166851633593534e+00 2.858910881160613648e+00 3.235650731048154150e+00 3.235650731048154150e+00 3.657891416009248609e+00 3.979030185476899018e+00 4.122150288394336393e+00 4.223061044682253851e+00 4.324533518719355207e+00 4.311710161400609920e+00 4.070584623498490373e+00 3.940283192005927138e+00 3.875735268205474426e+00 3.736614937039951734e+00 3.487725040073833327e+00 3.487725040073833327e+00 3.334885226337268360e+00 3.334566670465964222e+00 3.421960058605262311e+00 3.458693712018606981e+00 3.459428800782169855e+00 3.419664369950759841e+00 3.457740167063928283e+00 3.437454415733069979e+00 3.451256571133603401e+00 3.447828181459628549e+00 3.477517345636612411e+00 3.492484358248112208e+00 3.390928324683060602e+00 3.365715985419210909e+00 3.365715985419210909e+00 3.359049850622533029e+00 3.235257664055923854e+00 3.171324897360343620e+00 3.084528541433925852e+00 2.856226536827538354e+00 2.749315947382317216e+00 2.575849343309716044e+00 2.497420579994181100e+00 2.437149537817760336e+00 2.259201134091035179e+00 2.157482124538913304e+00 2.157482124538913304e+00 2.067638397097978586e+00 1.862593511808220192e+00 1.826665062368812098e+00 1.625360890336879249e+00 1.082549184544935317e+00 8.225447132392922356e-01 4.709081958080340580e-01 2.378836341880107841e-01 4.490531851467025742e-02 -4.168783490112851209e-01 -7.355863074945315772e-01 -7.355863074945315772e-01 -1.007528180576852561e+00 -1.004957281424788906e+00
5.551394954040429042e+00 5.551394954040429042e+00 5.272859698528501227e+00 4.994324443016575188e+00 4.848827232979760815e+00 4.715789187504652702e+00 4.166129205716215367e+00 3.946787013381793496e+00 3.552487024361984602e+00 3.418455369291494961e+00 3.290369177007227197e+00 3.130695290128682640e+00 2.823719848655006359e+00 2.823719848655006359e+00 2.501377451370416338e+00 2.064658865340692095e+00 1.779652876106943671e+00 1.610952739356908081e+00 1.135990529899905788e+00 1.277899569738400576e+00 1.202998694747513309e+00 1.109286065234230234e+00 8.393303129492759584e-01 3.120345274962860183e-02 -3.000483225734109638e-01 -8.717504092218565370e-01 -1.424009795680696966e+00 -1.666510187868601278e+00 -1.666510187868601278e+00 -1.791264066979368685e+00 -1.685126429969264095e+00 -1.812584333627306421e+00 -1.738387674505292857e+00 -1.866837237011381267e+00 -1.936315043958252158e+00 -2.084446303738907602e+00 -2.147405102633994645e+00 -2.300142302974675257e+00 -2.858587565428659438e+00 -3.765803872356411119e+00 -3.765803872356411119e+00 -4.618595477950007577e+00 -4.845353327895567830e+00 -4.960729063449052845e+00 -4.896040927563633183e+00 -4.872200444537694075e+00 -4.523166060447059600e+00 -3.619281145409785516e+00 -3.167028222853105923e+00 -2.648287680011295109e+00 -1.213647046177813937e+00 6.874689602665975396e-01 6.874689602665975396e-01 1.350151310142358785e+00 1.504071868687664848e+00 1.632227154289703996e+00 1.714265191952430545e+00 1.999019585972078294e+00 2.217913757130220986e+00 2.326956089711402775e+00 2.667605917628910195e+00 3.003357720530586139e+00 3.431912833973136845e+00 3.573587447022441133e+00 3.747454544987194769e+00 4.084031708891097345e+00 4.248249308933482737e+00 4.248249308933482737e+00 4.271777808683595801e+00 4.025231462187384146e+00 3.940283192005927138e+00 3.806097031281678422e+00 3.675975222679056742e+00 3.606629677678975021e+00 3.391744096905052075e+00 3.316095810965988822e+00 3.320881198630830866e+00 3.383705820565296563e+00 3.476586995926743029e+00 3.476586995926743029e+00 3.408651678582683697e+00 3.416103356092211829e+00 3.437454415733069979e+00 3.385887847601204648e+00 3.436156246156720329e+00 3.477517345636612411e+00 3.447957058456061041e+00 3.422236344085393789e+00 3.375181734741946826e+00 3.363055996332537489e+00 3.321344675597798890e+00 3.321344675597798890e+00 3.165291326353299795e+00 2.958008847773132555e+00 2.856226536827538354e+00 2.739317259012070238e+00 2.567721421227682210e+00 2.497420579994181100e+00 2.410223118710389301e+00 2.199067383199808656e+00 2.072354289416124651e+00 2.097591138426194046e+00 2.023036770247377270e+00 1.774355619599707889e+00 1.718199216292827902e+00 1.317368899155823669e+00 9.761693492536411831e-01 7.809882110278101308e-01 4.455307573979263580e-01 -1.133022905904856187e-02 -1.133022905904856187e-02 -4.457924557949159428e-01 -6.318726700264366558e-01 -8.197004253016446640e-01 -8.154243181165997667e-01 -1.077174128095028216e+00
5.696892164077246967e+00 5.418356908565319152e+00 5.285318863090206598e+00 5.139821653053389561e+00 4.861286397541467075e+00 4.543302904548560228e+00 4.543302904548560228e+00 3.988641240414750211e+00 3.633302512872154111e+00 3.418455369291494961e+00 3.343005076492409966e+00 3.180751986286474153e+00 3.050735552364986169e+00 2.697474285949382100e+00 2.595411289872297189e+00 2.366771092579869951e+00 1.870746961270405295e+00 1.481762873858088359e+00 1.481762873858088359e+00 1.365184308110941380e+00 1.389807358360679812e+00 1.109286065234230234e+00 7.642534207770113053e-01 2.129787524950462474e-01 -3.000483225734109638e-01 -1.057848618404236829e+00 -1.300394889702331858e+00 -1.522102354386063006e+00 -1.705066187155696467e+00 -1.624731819309927827e+00 -1.624731819309927827e+00 -1.667786563520230692e+00 -1.755761048154847792e+00 -1.866837237011381267e+00 -1.929659218698704048e+00 -2.064956870060318472e+00 -2.147405102633994645e+00 -2.238185939829265170e+00 -2.672949750906871813e+00 -3.261660537544020855e+00 -4.123138517788360602e+00 -4.393039215465764258e+00 -4.645660846269406008e+00 -4.916108089748617793e+00 -4.980665040883442529e+00 -4.980665040883442529e+00 -4.819465073068360361e+00 -4.082328237704986762e+00 -3.167028222853105923e+00 -2.820140313793449316e+00 -1.963608054581490903e+00 -2.957495259326912707e-01 1.254214360742622603e+00 1.324900908711353242e+00 1.406441164020519885e+00 1.586363933362469947e+00 1.800919438378245641e+00 1.800919438378245641e+00 2.102288848470017513e+00 2.402509383893347117e+00 2.667605917628910195e+00 2.851359892675662699e+00 3.361755547649126541e+00 3.573587447022441133e+00 3.884715768772102784e+00 3.989081641553515301e+00 4.199259051413043231e+00 4.261110481313879816e+00 4.162472285583194598e+00 3.972034494641992541e+00 3.888491851838788538e+00 3.701676491187366302e+00 3.614924260733535455e+00 3.619502758229493633e+00 3.401965066969006912e+00 3.299753429243326153e+00 3.299753429243326153e+00 3.337868594396674382e+00 3.475927057391798414e+00 3.468374297190206956e+00 3.411750955530608920e+00 3.406040055031640534e+00 3.376630861559713370e+00 3.347760687348043440e+00 3.421190076890050058e+00 3.499705694782986320e+00 3.468604935039621306e+00 3.403479770935138760e+00 3.403479770935138760e+00 3.359594315242856233e+00 3.322125312152483190e+00 3.228358189848572479e+00 3.163509752326290059e+00 2.975304601365161616e+00 2.846402970938068044e+00 2.658485862809417455e+00 2.557399779965208619e+00 2.493755890890626326e+00 2.294440660024313239e+00 2.049951762344529804e+00 2.049951762344529804e+00 2.079563806219911992e+00 1.924331966640736802e+00 1.774355619599707889e+00 1.649010442809202281e+00 1.211803891872072381e+00 9.761693492536411831e-01 7.616447025157565553e-01 3.645086692134594797e-01 1.882024239725493264e-01 -2.648302004627375861e-01 -4.035281758556454879e-01 -5.313069524697380253e-01 -7.225017746564937893e-01 -9.661972784792658420e-01 -9.661972784792658420e-01
5.709351328638950562e+00 5.430816073127025412e+00 5.285318863090206598e+00 5.006783607578279671e+00 4.873745562103168005e+00 4.728248352066354521e+00 4.123135981303684083e+00 3.865195892673947142e+00 3.865195892673947142e+00 3.550749221544781342e+00 3.310675264364440817e+00 3.310675264364440817e+00 3.146347089683138698e+00 2.784922862215598816e+00 2.595411289872297189e+00 2.340484110975221910e+00 1.938992577165211006e+00 1.728956216955312986e+00 1.256659168124798054e+00 1.265930051387559985e+00 1.500108600813335080e+00 1.119683620332727836e+00 5.399463170286036284e-01 5.399463170286036284e-01 3.703006661061034599e-01 1.055192281315008446e-01 -1.300394889702331858e+00 -1.087092333373654185e+00 -1.309101251655315545e+00 -1.625841996171118797e+00 -1.498755428186825389e+00 -1.594485743962832602e+00 -1.653821788899812129e+00 -1.824885368906776995e+00 -1.990409237980785395e+00 -1.990409237980785395e+00 -2.114709266258735898e+00 -2.403095494626724005e+00 -3.137697279148609297e+00 -3.137697279148609297e+00 -4.002086676698609402e+00 -4.633039802790509754e+00 -4.726652115332246495e+00 -4.925002582494453662e+00 -5.043799563517907814e+00 -5.036834472763743520e+00 -4.865342785383160340e+00 -4.320308353342098506e+00 -4.207726290166706740e+00 -2.934148907125230465e+00 -2.267558822106043870e+00 5.574539097063795773e-02 9.482438230627268094e-01 1.412034866350451168e+00 1.412034866350451168e+00 1.542650180277412630e+00 1.748172715512609443e+00 1.899034251539429397e+00 2.017937869823641872e+00 2.395081225371219702e+00 2.553434018212618284e+00 3.119005643146538720e+00 3.331899955759910270e+00 3.501765121047055729e+00 3.767822043052683867e+00 4.037792618143664747e+00 4.037792618143664747e+00 4.107655827497445955e+00 4.043408747080479593e+00 3.972034494641992541e+00 3.807943937435037896e+00 3.619016754455152807e+00 3.614924260733535455e+00 3.497938014150515418e+00 3.400260757755440455e+00 3.321761611586178553e+00 3.261257763693889977e+00 3.409706645831112048e+00 3.409706645831112048e+00 3.463574744034070285e+00 3.445911294693860150e+00 3.406040055031640534e+00 3.401579291915359349e+00 3.331608909575889843e+00 3.421190076890050058e+00 3.467754058245094306e+00 3.462160630989405963e+00 3.443158889969740510e+00 3.370268714853254188e+00 3.367106025020759397e+00 3.368022054777237706e+00 3.243982697406591065e+00 3.101988376570066208e+00 3.101988376570066208e+00 2.885590015216291881e+00 2.671241571066946818e+00 2.557399779965208619e+00 2.467131700892737367e+00 2.255138112022327501e+00 2.149788784513612327e+00 2.030722553581880696e+00 2.030649030022293466e+00 2.060306451946505746e+00 1.759332127855281591e+00 1.442705537797634996e+00 1.442705537797634996e+00 9.429092302158472716e-01 5.489504615466881399e-01 3.645086692134594797e-01 1.315613425463121322e-01 -2.590057826910800998e-01 -4.035281758556454879e-01 -6.156451065387937849e-01 -7.206903741602918023e-01 -8.500755184718065127e-01 -1.206029852986931994e+00
5.576313283163838008e+00 5.576313283163838008e+00 5.297778027651916410e+00 5.019242772139986819e+00 4.873745562103168005e+00 4.740707516628059004e+00 4.181555084419183999e+00 3.917782824492085592e+00 3.712190384073188465e+00 3.583184329858596584e+00 3.285963667703061031e+00 3.218921904099088849e+00 3.007095321366872742e+00 2.831941448472099943e+00 2.565571662939453379e+00 2.146926640203973502e+00 1.792669569928699858e+00 1.792669569928699858e+00 1.342706616644699258e+00 1.320092134798271699e+00 1.489166303484019682e+00 1.218561808519399214e+00 8.346016838964971374e-01 5.636592094209800230e-01 4.830900676725601306e-01 1.612124577021406824e-01 -5.057167826473669275e-02 -7.994695737888845022e-01 -8.348466384512897021e-01 -1.233890793800912711e+00 -1.469713968620959710e+00 -1.662377608466127699e+00 -1.662377608466127699e+00 -1.858188696594349487e+00 -2.031798765633472392e+00 -2.077846359787668629e+00 -2.114051158054778945e+00 -2.308788929275708224e+00 -2.575748375127345557e+00 -3.525004622209569671e+00 -3.965076510898375428e+00 -4.379371099245624954e+00 -4.831390269952715144e+00 -5.043518610949751846e+00 -5.043518610949751846e+00 -5.029675340014080120e+00 -4.551546726909105445e+00 -4.320308353342098506e+00 -4.014765524187407841e+00 -3.325131683440922359e+00 -2.267558822106043870e+00 5.040651667100848332e-01 9.802372874140634629e-01 1.358058593790507640e+00 1.434992677544538964e+00 1.607689120137796523e+00 1.607689120137796523e+00 1.842224506935816741e+00 2.189543191075773443e+00 2.189543191075773443e+00 2.615251398274670791e+00 3.100689573573903957e+00 3.331899955759910270e+00 3.450531733035534288e+00 3.640201916683150074e+00 3.846156529567156923e+00 3.957475609524341742e+00 3.934191045201934855e+00 4.024122305174057779e+00 3.836822912556872023e+00 3.629533936157765872e+00 3.629533936157765872e+00 3.511840871217498883e+00 3.445939978203546250e+00 3.400260757755440455e+00 3.346998059815741833e+00 3.350379189354672604e+00 3.341971556951530253e+00 3.441698163036775782e+00 3.454389955993093508e+00 3.418416119683281185e+00 3.458225553725946533e+00 3.348154598253702208e+00 3.348154598253702208e+00 3.399984890448886965e+00 3.504653483031046513e+00 3.462160630989405963e+00 3.436574121971823548e+00 3.364301471341023753e+00 3.367106025020759397e+00 3.367351750124425891e+00 3.295876763863573533e+00 3.181436883393849779e+00 3.010950299797228169e+00 2.792005751488232601e+00 2.792005751488232601e+00 2.547796721782734419e+00 2.347246483961313412e+00 2.347246483961313412e+00 2.115869575270171499e+00 1.971634967033836894e+00 2.030649030022293466e+00 1.972101991451914005e+00 1.729702555839480738e+00 1.571688868999601585e+00 1.174127992560365374e+00 9.082765808563302290e-01 7.212260385691622311e-01 3.133253840596560424e-01 -9.935436121410390342e-02 -9.935436121410390342e-02 -3.698956668008390181e-01 -5.824259315787130298e-01 -7.206903741602918023e-01 -9.026973095694729166e-01 -1.258679876561864974e+00
5.588772447725547821e+00 5.443275237688730783e+00 5.310237192213618229e+00 5.031701936701693967e+00 4.886204726664876041e+00 4.663884905420103699e+00 4.241846084854955734e+00 4.116412724855516458e+00 3.768272331142456189e+00 3.420131937429395919e+00 3.420131937429395919e+00 3.144470028461662459e+00 3.044092049612930229e+00 2.831941448472099943e+00 2.644249017254724166e+00 2.213279303154149336e+00 2.002974436541424375e+00 1.609074975666540119e+00 1.399796387712595180e+00 1.261187787282214368e+00 1.344815533993297452e+00 1.095493675087316987e+00 1.095493675087316987e+00 6.116637739983041833e-01 3.513202773935691914e-01 1.612124577021406824e-01 3.073109696226659915e-02 -3.226427463229051829e-01 -8.348466384512897021e-01 -1.309627464496997851e+00 -1.465907847124674257e+00 -1.593497703744452210e+00 -1.763480826041016858e+00 -1.907202620903298840e+00 -1.997211637701906239e+00 -2.098766906975554125e+00 -2.143590937805252228e+00 -2.143590937805252228e+00 -2.508098095557696361e+00 -3.506610752109004636e+00 -3.965076510898375428e+00 -4.384962259834174425e+00 -4.916404479471925271e+00 -5.029740737114922311e+00 -5.068011217854789585e+00 -4.979698819129635190e+00 -4.802981930696677892e+00 -4.246140973732802415e+00 -3.573013363700412448e+00 -3.573013363700412448e+00 -3.033262292068894528e+00 3.738042427372055276e-01 9.802372874140634629e-01 1.318400792094162721e+00 1.377696013884521342e+00 1.470070466963671274e+00 1.699042865972471894e+00 1.787922726389174821e+00 1.960023521624088660e+00 2.403594871221538476e+00 2.874073172705744916e+00 2.874073172705744916e+00 3.297688667020624020e+00 3.505316424826336874e+00 3.640201916683150074e+00 3.703231417580798102e+00 3.766293082952469451e+00 3.934191045201934855e+00 3.881749283437906151e+00 3.730065258195065958e+00 3.701430912566272990e+00 3.513849522996159713e+00 3.410302134438628840e+00 3.455461197654696726e+00 3.381715655015123723e+00 3.360460591263302099e+00 3.360460591263302099e+00 3.384224814752471389e+00 3.408467644540435604e+00 3.454389955993093508e+00 3.431721782231528461e+00 3.510411052420252975e+00 3.444568938507402756e+00 3.325333848648300616e+00 3.377505302456160763e+00 3.427521041702518367e+00 3.450026769370866830e+00 3.371126624990889109e+00 3.371126624990889109e+00 3.372886137820670704e+00 3.410088783458380401e+00 3.295876763863573533e+00 3.197426708546468266e+00 3.041789353525904183e+00 2.933950774691867824e+00 2.673168981735210448e+00 2.540241560868949477e+00 2.437542322326140987e+00 2.218021131632689880e+00 1.980163306921241873e+00 1.980163306921241873e+00 1.965962838839363291e+00 1.865149020213372477e+00 1.729702555839480738e+00 1.492815784706519988e+00 1.052748715554559178e+00 9.082765808563302290e-01 6.710090027876911556e-01 2.328883321836863196e-01 -1.222205143118085396e-01 -2.429459292940577275e-01 -3.268572813079773098e-01 -5.709027295072985897e-01 -7.367232504019373129e-01 -1.074536864051554463e+00 -1.464583432202412716e+00
5.734269657762363082e+00 5.455734402250437043e+00 5.177199146738509228e+00 5.031701936701693967e+00 4.898663891226585854e+00 4.675846331021014990e+00 4.241846084854955734e+00 3.920718915154457918e+00 3.725025105453399377e+00 3.572578521441397648e+00 3.239353744999925233e+00 3.146956318040636358e+00 3.096775317298728680e+00 2.910618802787370285e+00 2.488028757113479816e+00 2.488028757113479816e+00 2.087827172239971052e+00 1.666496756129865142e+00 1.399796387712595180e+00 1.256445523176868750e+00 1.359324436420478177e+00 1.373085427710776019e+00 7.934173967971414054e-01 6.362175242581760148e-01 5.253623643146110300e-01 2.466798669267408484e-01 -8.619968170086925174e-02 -8.619968170086925174e-02 -8.593235839885098315e-01 -1.222999616069958329e+00 -1.465907847124674257e+00 -1.620074349825082471e+00 -1.812700698533917798e+00 -1.907202620903298840e+00 -2.073734440222497977e+00 -2.118735426170307523e+00 -2.123870331554398305e+00 -2.214482363924692443e+00 -2.966596212847402825e+00 -2.966596212847402825e+00 -3.928066345098141454e+00 -4.681918212043992611e+00 -4.916404479471925271e+00 -5.134478891735390960e+00 -5.091344202510246220e+00 -4.979698819129635190e+00 -4.750848935675708873e+00 -4.099422795279840770e+00 -3.821804758208108499e+00 -3.333731477167481305e+00 -2.497706200791252051e+00 -1.724567649268831993e+00 4.525588616259109687e-01 1.302231275772163910e+00 1.302231275772163910e+00 1.425464659450007998e+00 1.648860055655441359e+00 1.787922726389174821e+00 1.904200064389430569e+00 2.380616752386820245e+00 2.647978406140484076e+00 3.122014758254760380e+00 3.280661752967543698e+00 3.400222370557833607e+00 3.555922285503157809e+00 3.700752040842650636e+00 3.700752040842650636e+00 3.763767040758096982e+00 3.741084723376816967e+00 3.730065258195065958e+00 3.604068042776908065e+00 3.427198452428302566e+00 3.410302134438628840e+00 3.382859463379590093e+00 3.358554215492725703e+00 3.370412340123867256e+00 3.418212884898096604e+00 3.396002251087709922e+00 3.401428396606165361e+00 3.441821349738805047e+00 3.471231070006583597e+00 3.494645832921296158e+00 3.494645832921296158e+00 3.323309740748213059e+00 3.392156487528571240e+00 3.392156487528571240e+00 3.440632433578103999e+00 3.365348406947436644e+00 3.356361338620861279e+00 3.367376851058232035e+00 3.384640349524721259e+00 3.354722253009053468e+00 3.136246323479358278e+00 3.053809731814485673e+00 2.968354424682843717e+00 2.671609729823274826e+00 2.412375730843120181e+00 2.412375730843120181e+00 2.193192310109587151e+00 1.939306213304459403e+00 1.911118187042289307e+00 1.871909954431462131e+00 1.744360686870392474e+00 1.609490472222381729e+00 1.256166024617295873e+00 9.806682595832454385e-01 8.197519238934124486e-01 4.206655435003200383e-01 4.315923554492872433e-02 4.315923554492872433e-02 -2.344878465919257304e-01 -4.841078670468119682e-01 -5.709027295072985897e-01 -9.451269019941535010e-01 -1.352550975790025367e+00 -1.464583432202412716e+00
5.601231612287250528e+00 5.468193566812140638e+00 5.322696356775326265e+00 5.044161101263400226e+00 4.765625845751475964e+00 4.765625845751475964e+00 4.302137085290727470e+00 3.967816838646819111e+00 3.725025105453399377e+00 3.561373037136637887e+00 3.338622610413149339e+00 3.146956318040636358e+00 3.051258726471885563e+00 2.974732113198512273e+00 2.768102330189575078e+00 2.342047211020734210e+00 1.941703579435205995e+00 1.941703579435205995e+00 1.419987488099579309e+00 1.312063709310013593e+00 1.359324436420478177e+00 1.364624777561509905e+00 7.493168785994794856e-01 6.362175242581760148e-01 5.861620122496011831e-01 3.430460034261449964e-01 1.502433829211667349e-01 -4.096492449029129901e-01 -8.523836679048002463e-01 -9.734501523518730437e-01 -1.409818263587392817e+00 -1.709510750456591177e+00 -1.709510750456591177e+00 -1.974588533211393049e+00 -2.143971656922698532e+00 -2.118735426170307523e+00 -2.168724967925359515e+00 -2.172201106206212540e+00 -2.440447815988046720e+00 -3.436763690116854342e+00 -3.882718291150052625e+00 -4.389773970211058085e+00 -4.937100167242793880e+00 -5.115167971045249118e+00 -5.115167971045249118e+00 -4.949767734021352616e+00 -4.372887228059598286e+00 -3.993653016990653448e+00 -3.993653016990653448e+00 -3.309299067367077463e+00 -2.149805441354828428e+00 -5.337784559857841060e-01 -5.274178489860269492e-01 4.332881678903227618e-01 1.104506207807952833e+00 1.462392230989552955e+00 1.542405076968954569e+00 1.713683136836539944e+00 2.050647188898204742e+00 2.239007610611274401e+00 2.588497792680297227e+00 3.049731614770497590e+00 3.338184935334463255e+00 3.338184935334463255e+00 3.505639053150531481e+00 3.611088955994628868e+00 3.633752465743660842e+00 3.630337560009802900e+00 3.614389648192845250e+00 3.627356816734699230e+00 3.479686123910811002e+00 3.415936421951562885e+00 3.380025915366586364e+00 3.370485632199334614e+00 3.378761439651865039e+00 3.378761439651865039e+00 3.370921551832480212e+00 3.390588689896147923e+00 3.401428396606165361e+00 3.431506360826872548e+00 3.454091903193144297e+00 3.519794620957674702e+00 3.361213596654538005e+00 3.322679867777703855e+00 3.359773181631198646e+00 3.433393334896939209e+00 3.437198272157532042e+00 3.437198272157532042e+00 3.353398746454622881e+00 3.347424326512462578e+00 3.384640349524721259e+00 3.292703353290187263e+00 3.174288070408811002e+00 3.053809731814485673e+00 2.989780501709553562e+00 2.659956384831111187e+00 2.532514783325306773e+00 2.299738473434938868e+00 2.192131461584089003e+00 2.065938797322430354e+00 1.809201262799916110e+00 1.779937534630525064e+00 1.779937534630525064e+00 1.564570267413817106e+00 1.114104373332579279e+00 9.806682595832454385e-01 7.074501207975698591e-01 2.987896032099091048e-01 1.673665833825386251e-01 -1.310870650917781988e-01 -2.875427876504961788e-01 -3.597800050073657330e-01 -7.182763048668672212e-01 -1.153614014760224515e+00 -1.153614014760224515e+00 -1.552662231227865286e+00
5.613690776848958564e+00 5.468193566812140638e+00 5.335155521337032525e+00 5.056620265825107374e+00 4.911123055788290337e+00 4.674934919937933309e+00 4.362428085726499205e+00 4.255085681178385926e+00 3.814206397841199081e+00 3.459212253638577206e+00 3.459212253638577206e+00 3.271359741503550467e+00 3.055668630330818036e+00 2.974732113198512273e+00 2.821637500315653746e+00 2.541093691965783385e+00 2.097958799982122979e+00 1.771309791080033058e+00 1.587962378762909577e+00 1.232808210694220641e+00 1.318417111142281772e+00 1.372731687175869020e+00 9.585562269611640485e-01 7.032688197367034100e-01 5.117685974837075102e-01 1.784291580261635479e-01 1.784291580261635479e-01 -5.431791239068852750e-01 -1.049192815999603567e+00 -1.204137970263019053e+00 -1.446398013530442173e+00 -1.751071401185687382e+00 -1.865363226112079165e+00 -2.019673665385036010e+00 -2.268696239027861772e+00 -2.223990716242178145e+00 -2.124593416135650337e+00 -2.213368011234169153e+00 -2.429023744651500838e+00 -3.384697317236463832e+00 -4.354086636684256995e+00 -4.354086636684256995e+00 -4.941702876777702258e+00 -5.143211904899855469e+00 -5.107545005778756142e+00 -4.968682665068955728e+00 -4.413447469126169587e+00 -4.150526302227790509e+00 -3.817984218553565512e+00 -3.381727691801414970e+00 -2.891707955157375665e+00 -1.751001096612003316e+00 -5.312412301821558547e-01 -5.312412301821558547e-01 5.613677035505908464e-01 1.386318742313975338e+00 1.542405076968954569e+00 1.585406773757934928e+00 1.924559290014048463e+00 2.239007610611274401e+00 2.758385280595023303e+00 2.922761336795070441e+00 3.182986195807072871e+00 3.382858309753140169e+00 3.594880839505393944e+00 3.594880839505393944e+00 3.527482179704936716e+00 3.553146414524002594e+00 3.614389648192845250e+00 3.526197452665720711e+00 3.435947000802520357e+00 3.415936421951562885e+00 3.372806968306082176e+00 3.362859413809269338e+00 3.380170787726759940e+00 3.357423678718278737e+00 3.323003063081483965e+00 3.354045963079478554e+00 3.412777466417196592e+00 3.417598198034007773e+00 3.417598198034007773e+00 3.484673664564229778e+00 3.377293570108345744e+00 3.322679867777703855e+00 3.346682207757802896e+00 3.423214233850508492e+00 3.427970002544659778e+00 3.387606398720581780e+00 3.357918790856865510e+00 3.335812418574702676e+00 3.302415186826261895e+00 3.209093421693054449e+00 3.209093421693054449e+00 3.065981272931070034e+00 2.789469398659527588e+00 2.659956384831111187e+00 2.522299716779542678e+00 2.294959763698518618e+00 2.192131461584089003e+00 1.944670740794542940e+00 1.830600665677391437e+00 1.771446947560812557e+00 1.687533895194190725e+00 1.252538123922080082e+00 1.252538123922080082e+00 8.150353424441972860e-01 4.753830935209890640e-01 4.753830935209890640e-01 9.521572858818541651e-02 -1.907304838972149752e-01 -2.875427876504961788e-01 -4.626536080359917036e-01 -6.986191350229902230e-01 -9.295507987879944034e-01 -1.347600832556757444e+00 -1.542457363466801734e+00
5.626149941410668376e+00 5.480652731373849562e+00 5.202117475861921747e+00 4.923582220350000149e+00 4.923582220350000149e+00 4.674023508854851627e+00 4.261101859808798409e+00 4.067039758545758943e+00 3.906347593806894558e+00 3.532689214573256464e+00 3.401165878332505166e+00 3.326847909091832367e+00 3.020268292240629648e+00 2.933776449847875334e+00 2.657490536316189811e+00 2.521964997577410994e+00 2.431516713241556715e+00 1.927596009961420442e+00 1.408776649747768062e+00 1.408776649747768062e+00 1.307894727463944085e+00 1.332811178842288058e+00 9.585562269611640485e-01 7.594931034712362194e-01 5.678064626986421004e-01 3.857084415931696375e-01 -1.226234333745057636e-02 -6.091485695113894039e-01 -9.298758374095255075e-01 -1.244252458237411485e+00 -1.613116857610021437e+00 -1.613116857610021437e+00 -1.910448358285721460e+00 -2.177141236171382221e+00 -2.268696239027861772e+00 -2.279251746447041427e+00 -2.102452449835076287e+00 -2.213368011234169153e+00 -2.830624817718988329e+00 -3.336132706095846334e+00 -3.819975205882049085e+00 -4.670858511358092713e+00 -5.141052267153645161e+00 -5.141052267153645161e+00 -5.122309265241403509e+00 -4.759818041228775165e+00 -4.759818041228775165e+00 -4.175942487505124312e+00 -3.878855866404353314e+00 -3.381727691801414970e+00 -3.041344477343568720e+00 -2.014160083112000343e+00 -1.375056215876380605e+00 -4.421110381694868807e-01 -5.637638524623746900e-02 8.892278252835161823e-01 1.416053836798689902e+00 1.654283965661178080e+00 1.654283965661178080e+00 2.066212712420564479e+00 2.620914792591074072e+00 2.922761336795070441e+00 3.064335548936171882e+00 3.325356973195153998e+00 3.455355820797904709e+00 3.526273332664268345e+00 3.424526490037596016e+00 3.496454182373222697e+00 3.466831268410526246e+00 3.465447164341379782e+00 3.465447164341379782e+00 3.393875006866465149e+00 3.347339402018223886e+00 3.362859413809269338e+00 3.380400100625394089e+00 3.354496603653729370e+00 3.323003063081483965e+00 3.385175128704585923e+00 3.421248151338758259e+00 3.418660476357238132e+00 3.436952736379705442e+00 3.463181826961079679e+00 3.448093807015334633e+00 3.343148449170158631e+00 3.347442997332983339e+00 3.347442997332983339e+00 3.419616442249233224e+00 3.400845422436028276e+00 3.357918790856865510e+00 3.309327109934651290e+00 3.249154014129663537e+00 3.225943696477203915e+00 3.166062527757659062e+00 3.078242925198485747e+00 3.001007035963643155e+00 2.649832769213158468e+00 2.385552172401940396e+00 2.385552172401940396e+00 2.183315254275399742e+00 1.957903292744101797e+00 1.830600665677391437e+00 1.749968572196632710e+00 1.567734498092341333e+00 1.415525419863814971e+00 9.793271001457357627e-01 7.179866720646101985e-01 5.945366738201012247e-01 2.323339798117251553e-01 -9.044321025255416813e-02 -9.044321025255416813e-02 -3.682011501205184612e-01 -6.582981676075635447e-01 -6.986191350229902230e-01 -9.771039966899348617e-01 -1.410603401139539859e+00 -1.542457363466801734e+00
5.626149941410668376e+00 5.493111895935557598e+00 5.214576640423631559e+00 5.069079430386813634e+00 4.790544174874884042e+00 4.673112097771770834e+00 4.422719086162270052e+00 4.142154404251655819e+00 3.745655429068029285e+00 3.745655429068029285e+00 3.457229365533721399e+00 3.196387655050923815e+00 3.020268292240629648e+00 2.921627432199230601e+00 2.629588170397174185e+00 2.521964997577410994e+00 2.274391573725132787e+00 2.080232492397521948e+00 1.744504571072644783e+00 1.325084707233341819e+00 1.389134723353562473e+00 1.341911459014691221e+00 1.104447618065752978e+00 6.700477486223035406e-01 6.700477486223035406e-01 4.313449371926129094e-01 -4.445191638735614126e-03 -6.091485695113894039e-01 -1.029743235821585667e+00 -1.326751940039953004e+00 -1.470255280138043963e+00 -1.779932325952338745e+00 -1.970177058316283869e+00 -2.082511277198606070e+00 -2.333790525715667918e+00 -2.164994720864394928e+00 -2.164994720864394928e+00 -2.254534916262126210e+00 -2.813412307598417428e+00 -3.336132706095846334e+00 -3.762719089145360574e+00 -4.661548073594672381e+00 -4.946305586312608860e+00 -5.167927250022145813e+00 -5.139791792441323004e+00 -4.985715166935198894e+00 -4.453143158176911420e+00 -4.122358740718626180e+00 -4.122358740718626180e+00 -3.456732189573918479e+00 -2.570104262485207958e+00 -2.014160083112000343e+00 -1.629923863346740998e+00 -8.863169146368474749e-01 -5.637638524623746900e-02 1.303763563053367047e+00 1.223189071067969147e+00 1.454989164666997903e+00 1.791268386038062044e+00 1.925883857814399969e+00 2.269440516415250020e+00 2.786933597036355792e+00 3.183059466056248787e+00 3.183059466056248787e+00 3.405072588445278825e+00 3.441457709333906934e+00 3.424526490037596016e+00 3.357917305774572370e+00 3.319272888628206797e+00 3.412259025836491766e+00 3.395997288326491947e+00 3.371502497749432781e+00 3.362291576526828862e+00 3.349874137270892227e+00 3.402420707997941385e+00 3.402420707997941385e+00 3.288903181556265043e+00 3.371797143147546194e+00 3.421248151338758259e+00 3.405814591887603271e+00 3.417232921428496439e+00 3.463181826961079679e+00 3.393373543562153483e+00 3.362416819514380872e+00 3.336456659760179466e+00 3.413035132804077776e+00 3.434238166834448158e+00 3.434238166834448158e+00 3.366561304734995375e+00 3.287756753281764421e+00 3.157973147049997209e+00 3.157973147049997209e+00 3.127685065436966116e+00 3.004984558883831980e+00 3.004984558883831980e+00 2.637308362693171482e+00 2.368275348650914047e+00 2.288974659422347013e+00 2.181873642525873791e+00 1.915489253902159739e+00 1.853056516850930757e+00 1.653392207519176926e+00 1.624065379523400132e+00 1.429149897110320033e+00 8.534437441922131384e-01 4.776794513723902069e-01 4.776794513723902069e-01 1.114277604955488665e-01 -1.889843027222419258e-01 -2.737486922050453853e-01 -4.797677387389765458e-01 -9.196759311602298315e-01 -9.104218149673184435e-01 -1.291308518414665096e+00 -1.591512201845195928e+00 -1.596438726787330342e+00
5.638609105972368418e+00 5.360073850460449485e+00 5.360073850460449485e+00 5.081538594948515453e+00 4.803003339436590302e+00 4.673112097771770834e+00 4.483010086598042676e+00 4.287448421116283548e+00 3.977862845131511449e+00 3.610880894294679955e+00 3.522042159351007395e+00 3.393762251696223586e+00 3.122538959022864269e+00 2.813222595590266106e+00 2.813222595590266106e+00 2.611080469309957408e+00 2.371661975518531751e+00 2.080232492397521948e+00 1.763928863445382689e+00 1.397221871838938645e+00 1.389134723353562473e+00 1.304291658541933963e+00 1.170867817621833229e+00 7.589787477033065333e-01 6.244855587877170544e-01 1.421144284717390238e-01 1.421144284717390238e-01 -6.494938755877983638e-01 -1.427502630979387899e+00 -1.326751940039953004e+00 -1.641357237284749360e+00 -1.833474949141440380e+00 -1.970177058316283869e+00 -2.150768142545022243e+00 -2.258090769831939237e+00 -2.243014263112379947e+00 -2.123886762407415585e+00 -2.232250309143707589e+00 -2.444755803665817240e+00 -3.299630200354948251e+00 -4.247271942191866323e+00 -4.247271942191866323e+00 -4.935181240840103456e+00 -5.174214205833909119e+00 -5.139791792441323004e+00 -5.036058707176419347e+00 -4.595417756345674398e+00 -4.212123827915903007e+00 -3.899642203482988734e+00 -3.685750166835008113e+00 -3.142659717520663420e+00 -2.414619917546146688e+00 -1.709592032772877301e+00 -1.709592032772877301e+00 -5.641751416421292298e-01 6.230617974791738956e-01 1.223189071067969147e+00 1.388112757335289160e+00 1.664159773874733350e+00 2.148364088868512933e+00 2.481637511767995186e+00 2.669838946973212668e+00 3.098519526711760896e+00 3.255769991030220467e+00 3.504740754783901124e+00 3.418531738296997524e+00 3.362204502936901651e+00 3.302444793198701767e+00 3.307579461839991630e+00 3.331945085424071529e+00 3.353806746810815476e+00 3.370841499369517269e+00 3.370841499369517269e+00 3.348023316280361428e+00 3.440621803835893555e+00 3.353663887745252925e+00 3.290906883059815158e+00 3.366599706226862221e+00 3.417793130618006714e+00 3.396726010358174008e+00 3.440260964326524284e+00 3.464608861581704780e+00 3.410781168803413532e+00 3.354299750378203715e+00 3.354299750378203715e+00 3.404131986556752754e+00 3.394916246317969843e+00 3.399276674292918354e+00 3.326828155556682098e+00 3.231804203984178336e+00 3.195503343037054744e+00 3.125024569054803081e+00 3.080994146439002712e+00 3.078620833635777210e+00 2.755858230810110499e+00 2.474092571230157134e+00 2.474092571230157134e+00 2.256155060538189261e+00 2.028218607737672041e+00 1.915489253902159739e+00 1.842472464513778441e+00 1.685300510251235728e+00 1.624065379523400132e+00 1.018520761898281002e+00 7.589265821367165987e-01 6.220476895083292268e-01 2.526791448704501786e-01 1.804976087477375146e-02 -1.173325840820948762e-01 -4.088204578320419058e-01 -6.718352028823041389e-01 -6.718352028823041389e-01 -1.296135767738270994e+00 -1.517125341987247689e+00 -1.591512201845195928e+00 -1.708580133277622259e+00
5.651068270534077342e+00 5.505571060497260305e+00 5.227035804985334266e+00 4.948500549473407339e+00 4.948500549473407339e+00 4.672200686688689153e+00 4.287911200869550576e+00 4.287911200869550576e+00 4.060206214547300796e+00 3.677474862995797622e+00 3.522042159351007395e+00 3.406638227747591507e+00 3.135633473598788967e+00 2.989607475185910523e+00 2.750714854434760603e+00 2.620347101538651469e+00 2.480712716413847829e+00 2.085799653328814784e+00 1.576609864311770082e+00 1.576609864311770082e+00 1.335997646137830008e+00 1.203801366697633934e+00 1.170867817621833229e+00 9.237951586624908451e-01 7.600888553801555814e-01 6.064829472937154353e-01 -2.625288847326518460e-01 -6.133803813790594806e-01 -1.764538414912383946e+00 -1.810239224630644683e+00 -1.846463508177570656e+00 -1.918020357011539279e+00 -2.046945166150524464e+00 -2.223732055752340564e+00 -2.122612570384984298e+00 -2.122612570384984298e+00 -2.042650164804746815e+00 -2.501825235499913980e+00 -2.849893013833814770e+00 -3.288896347382777918e+00 -4.228228033424038301e+00 -4.646729979495664686e+00 -5.101823317214520870e+00 -5.156449345912122340e+00 -5.138129265448876382e+00 -4.858380736244780174e+00 -4.758967657508570426e+00 -4.432969164134672013e+00 -4.067841264838552462e+00 -3.662706888299703145e+00 -3.662706888299703145e+00 -3.197264151989117842e+00 -2.508397790517940429e+00 -2.005127108109338696e+00 -1.403314402272941575e+00 5.164764503037583276e-01 1.050907010326775914e+00 1.461890432511438576e+00 1.582054422383872838e+00 1.819037659543720098e+00 2.364795490440461112e+00 2.824240855465347977e+00 2.824240855465347977e+00 3.199971723461335849e+00 3.428864732171574836e+00 3.418531738296997524e+00 3.382724094982386465e+00 3.327519797838633497e+00 3.307579461839991630e+00 3.350102080060712417e+00 3.321719569731706567e+00 3.371542134849914163e+00 3.342333743353634645e+00 3.399603880620027496e+00 3.399603880620027496e+00 3.353771282270039400e+00 3.301208329685400233e+00 3.366599706226862221e+00 3.394579876881066660e+00 3.400791765188993843e+00 3.440260964326524284e+00 3.502797184995184665e+00 3.422025026556623217e+00 3.387776848520467787e+00 3.353591955309005002e+00 3.394784160475687429e+00 3.385221922949900986e+00 3.350122595795056668e+00 3.252446593443793610e+00 3.252446593443793610e+00 3.134733020741625076e+00 3.050148778673885896e+00 3.080994146439002712e+00 3.060750432244494057e+00 2.739311426197101440e+00 2.598460715580356073e+00 2.325699004970349648e+00 2.203595088282349845e+00 2.123611280215883745e+00 1.917444919807031578e+00 1.773860994677706415e+00 1.773860994677706415e+00 1.446457673154165846e+00 8.956550229794664197e-01 7.589265821367165987e-01 5.113688448517458296e-01 1.447916466060325813e-01 1.804976087477375146e-02 -3.154989025788131896e-01 -4.818942978579948688e-01 -5.726609218666738332e-01 -1.284840212875320464e+00 -1.493751937013763520e+00 -1.493751937013763520e+00 -1.695309978776672333e+00 -2.051333076459251892e+00
5.518030225058962124e+00 5.518030225058962124e+00 5.239494969547036085e+00 4.960959714035118040e+00 4.815462503998299226e+00 4.682424458523183119e+00 4.303244129832326514e+00 4.300196154374644308e+00 3.858956932618306190e+00 3.729224246780141083e+00 3.562768369358708220e+00 3.255741054974261139e+00 3.018511308373863500e+00 3.018511308373863500e+00 2.755396402094785646e+00 2.474468373855345682e+00 2.347733996519673294e+00 2.159315612533521112e+00 1.632239133425132049e+00 1.395708471604723444e+00 1.360816021603903136e+00 1.245854147686902058e+00 1.131665756686299540e+00 9.100238842557152319e-01 9.216016708116637757e-01 7.762079442617424441e-01 3.342390574325687647e-02 -1.045426711422547283e+00 -1.045426711422547283e+00 -1.898926557575499663e+00 -1.880327196745252394e+00 -1.918020357011539279e+00 -2.119558189349873167e+00 -2.117300841006096945e+00 -2.121615178704982174e+00 -1.998296280070809061e+00 -2.047555345379416636e+00 -2.167159764525956156e+00 -2.877031902804638275e+00 -3.765190998796532629e+00 -3.765190998796532629e+00 -4.619537594260055613e+00 -5.070655018231026823e+00 -5.156449345912122340e+00 -5.136466738456427983e+00 -4.946055199481378395e+00 -4.758967657508570426e+00 -4.476839170597243900e+00 -4.374610156336690814e+00 -4.044382249214068636e+00 -3.650360504573098019e+00 -3.047587089456446741e+00 -3.047587089456446741e+00 -2.582645745057623010e+00 -2.398048252155364768e-01 -2.398048252155364768e-01 1.068112231371922238e+00 1.396694469061563915e+00 1.582054422383872838e+00 1.710153439450021740e+00 2.245209692129529255e+00 2.554342639826907124e+00 3.005230174311670055e+00 3.135953312617111521e+00 3.284396612266823112e+00 3.416818804703172674e+00 3.363100741718739073e+00 3.363100741718739073e+00 3.325161054932686433e+00 3.333662929301207889e+00 3.321719569731706567e+00 3.355008081167555556e+00 3.353020314332117557e+00 3.354053291118103797e+00 3.475777264578269410e+00 3.360890978630336257e+00 3.290063729947202642e+00 3.357813055179355910e+00 3.411492495892316512e+00 3.411492495892316512e+00 3.463063405561099373e+00 3.455929591095572295e+00 3.422025026556623217e+00 3.412186276715909905e+00 3.377512635754774450e+00 3.394784160475687429e+00 3.343264502256310333e+00 3.300968517297195870e+00 3.268598647049942407e+00 3.176907255073630143e+00 3.016419989861914619e+00 3.016419989861914619e+00 3.040143274143238372e+00 2.949275508523273359e+00 2.949275508523273359e+00 2.549109625299911475e+00 2.283596108674378122e+00 2.203595088282349845e+00 2.082089180678371676e+00 1.868134482407134200e+00 1.838149553832280292e+00 1.623104559832422966e+00 1.281253655598988184e+00 1.079739622418745437e+00 6.347803376012813859e-01 2.545520260869126861e-01 2.545520260869126861e-01 -7.691561559834689255e-02 -3.866488340538761781e-01 -4.818942978579948688e-01 -7.875488682462984391e-01 -1.306043619988514148e+00 -1.502615652994202078e+00 -1.661581468521216465e+00 -1.854947416145602768e+00 -1.873494615566096977e+00
5.663527435095776497e+00 5.384992179583854011e+00 5.251954134108745897e+00 5.106456924071927972e+00 4.827921668560001933e+00 4.603592087469586147e+00 4.603592087469586147e+00 4.303052420692736746e+00 3.885258970747864637e+00 3.729224246780141083e+00 3.607851065071029151e+00 3.259089230675330739e+00 3.138618889749335228e+00 2.884973760381166485e+00 2.771801851389254168e+00 2.605195559500279145e+00 2.345824613253143287e+00 1.864200198756592375e+00 1.864200198756592375e+00 1.424833101820502046e+00 1.396570806379953789e+00 1.245854147686902058e+00 1.139076368027994501e+00 6.807911974662628207e-01 9.216016708116637757e-01 6.802281928655731225e-01 7.620572201678180724e-01 -1.441870844047370426e-01 -1.596714138128614069e+00 -1.841925041518576833e+00 -1.841925041518576833e+00 -2.001573271714390145e+00 -2.217419089485731742e+00 -2.217419089485731742e+00 -1.985139587578025111e+00 -1.998557691287745186e+00 -2.047555345379416636e+00 -2.080868596490037969e+00 -2.773502502323345720e+00 -3.278162494410607586e+00 -4.209184124656211168e+00 -4.592345209024447428e+00 -4.900987268082589665e+00 -5.138684485990335560e+00 -5.088048979145939121e+00 -5.088048979145939121e+00 -4.922517558671466453e+00 -4.693686845772941929e+00 -4.374610156336690814e+00 -4.403990658576981687e+00 -4.178901094530648841e+00 -3.791822819137167233e+00 -3.076820552264369901e+00 -2.763524776472589206e+00 -2.150896568340220583e+00 5.464629831705466456e-01 1.404779224250096936e+00 1.404779224250096936e+00 1.512382397114378607e+00 1.900660615881918147e+00 2.245209692129529255e+00 2.445822844766283755e+00 2.898888994188863144e+00 3.135953312617111521e+00 3.333803149047708025e+00 3.386392553339259592e+00 3.406275167628978195e+00 3.356218908641491083e+00 3.329780034152498569e+00 3.348918105542718848e+00 3.302044231933793927e+00 3.401825566952075164e+00 3.401825566952075164e+00 3.360446836733049114e+00 3.506500330180803093e+00 3.360890978630336257e+00 3.289520753730164948e+00 3.346509490050020741e+00 3.367869031496614873e+00 3.407204071301191295e+00 3.448342259912598795e+00 3.545368665357604865e+00 3.432622988486340176e+00 3.409237520384376552e+00 3.409237520384376552e+00 3.385436334394622548e+00 3.298621970181073948e+00 3.300968517297195870e+00 3.219300050693216786e+00 3.121860281889155431e+00 3.073816051909509905e+00 2.985147348573335080e+00 2.933544450769484335e+00 2.991562610800245103e+00 2.712884534470942466e+00 2.367040992477461803e+00 2.367040992477461803e+00 2.155806288104695323e+00 1.972546476144318550e+00 1.868134482407134200e+00 1.756756641383870665e+00 1.447322352521912769e+00 8.989936801522403487e-01 8.989936801522403487e-01 5.143336042962232124e-01 1.574927109659564894e-01 2.733948541073344396e-02 -1.956976148878258326e-01 -4.993111497320610326e-01 -6.626864217140335800e-01 -9.897217409714003100e-01 -1.176799403984617909e+00 -1.323892155324802644e+00 -1.561457454757557040e+00 -2.060867528861800135e+00 -2.060867528861800135e+00
5.675986599657489862e+00 5.397451344145560270e+00 5.251954134108745897e+00 4.973418878596811865e+00 4.840380833121702864e+00 4.694883623084893820e+00 4.272676101149098571e+00 4.278813603177201053e+00 4.078295533807438034e+00 3.781781405647663075e+00 3.452444375264780874e+00 3.452444375264780874e+00 3.166183872413994127e+00 2.911553741637022963e+00 2.771801851389254168e+00 2.612433332377618544e+00 2.352743959040878075e+00 2.079284832833163232e+00 1.530717263314899990e+00 1.458940187785055631e+00 1.428085039026857572e+00 1.273576904230778517e+00 8.137778925572116684e-01 8.137778925572116684e-01 6.651233154055695707e-01 9.461908603665808437e-01 7.620572201678180724e-01 6.041134360088294963e-01 -7.775846614103156806e-01 -1.642080993148128165e+00 -1.721259947129093248e+00 -1.650967508390931648e+00 -2.110071541250603477e+00 -2.024852567371668854e+00 -1.959323246241265304e+00 -1.959323246241265304e+00 -1.967211444722088753e+00 -2.250907329013489111e+00 -2.773502502323345720e+00 -3.215215332796256487e+00 -4.154981054534658824e+00 -4.592345209024447428e+00 -4.879822197320716981e+00 -5.107598898314179792e+00 -5.132599627605592296e+00 -4.992574713218585813e+00 -4.771733529420123965e+00 -4.786747839104874558e+00 -4.521939979286508482e+00 -4.235265011861224060e+00 -4.235265011861224060e+00 -4.020010262245202526e+00 -2.980230343815457594e+00 -2.763524776472589206e+00 -1.933296738027213468e+00 -1.589892531683549104e-01 7.351273405854287235e-01 1.295692427882980446e+00 1.418921906638141106e+00 1.614872614444778254e+00 2.137955234707671792e+00 2.582053218641675585e+00 2.582053218641675585e+00 3.015345017940695094e+00 3.216286102530828028e+00 3.386392553339259592e+00 3.381079347898992449e+00 3.336642013468588797e+00 3.329780034152498569e+00 3.316029826225680655e+00 3.296020514051757111e+00 3.389270758123926086e+00 3.380718256467607485e+00 3.386561263835024871e+00 3.447228826277886515e+00 3.366663689261657488e+00 3.306840464025238457e+00 3.330471124574693853e+00 3.330471124574693853e+00 3.394657917010151404e+00 3.469361925285323611e+00 3.469361925285323611e+00 3.386861296441985747e+00 3.381700416648084850e+00 3.374983717306140552e+00 3.344889204329347887e+00 3.282913456034076027e+00 3.237559399467149213e+00 3.124270094939141096e+00 3.025815165421545494e+00 3.006801564728415421e+00 2.825595375066649595e+00 2.783980406995002710e+00 2.783980406995002710e+00 2.503595716652282199e+00 2.273838252651987801e+00 2.222304452403452313e+00 2.087800761682421680e+00 1.912806342682693117e+00 1.817966266256537455e+00 1.585464585214348965e+00 1.253521358890008042e+00 1.067376869017130581e+00 6.402591979709602033e-01 2.677320188148614166e-01 2.677320188148614166e-01 -5.354074495388477795e-02 -3.828373992290794448e-01 -4.993111497320610326e-01 -6.980128343808955638e-01 -9.088004862911833737e-01 -1.176799403984617909e+00 -1.260638058710519926e+00 -1.558145671232952001e+00 -1.836968036902229429e+00 -2.523519582120188787e+00
5.542948554182380860e+00 5.542948554182380860e+00 5.264413298670443275e+00 4.985878043158521677e+00 4.840380833121702864e+00 4.707342787646594751e+00 4.242784930014440903e+00 4.278813603177201053e+00 3.922685482597398021e+00 3.760874740538564964e+00 3.604638689634831472e+00 3.270086837216392706e+00 3.040056199343388776e+00 3.040056199343388776e+00 2.779083325809808436e+00 2.510712745174819460e+00 2.352743959040878075e+00 2.061768733603279724e+00 1.644716668258809467e+00 1.458940187785055631e+00 1.470474742244127331e+00 1.271942827217976246e+00 1.114266248570068063e+00 7.337953056347383818e-01 9.189196702648784187e-01 9.729237898365830084e-01 8.219079336349115472e-01 4.443181223407371427e-01 4.443181223407371427e-01 -7.549597356222159661e-01 -1.126434300729576732e+00 -1.650967508390931648e+00 -1.709552625056053987e+00 -1.979691477192983218e+00 -1.945792072407227069e+00 -1.965658393523837422e+00 -1.965208751296442014e+00 -2.073003756088540150e+00 -2.625210390545274386e+00 -3.645199193298931828e+00 -4.050971893435115767e+00 -4.537785976562894064e+00 -5.067838339801904013e+00 -5.058802292026536307e+00 -5.058802292026536307e+00 -4.739760596835209228e+00 -4.460692207957652755e+00 -4.498732398755095119e+00 -4.241995618156390258e+00 -4.136299091146480755e+00 -4.117485346311561933e+00 -3.550912735191925407e+00 -2.846139132608942468e+00 -2.475361473729510653e+00 -1.412924596811366396e+00 -9.008240636890043618e-01 1.520587728772257452e-01 1.197440627799948532e+00 1.530038246298792703e+00 1.530038246298792703e+00 2.012620603496802385e+00 2.420116677373751024e+00 2.726849859163900103e+00 2.840373693842510150e+00 3.090819066798172532e+00 3.244037197607108070e+00 3.327970976374809986e+00 3.304512109195893110e+00 3.307637294709929954e+00 3.290262261397152166e+00 3.327856826110269672e+00 3.327856826110269672e+00 3.405051911811197041e+00 3.374657653321244233e+00 3.447228826277886515e+00 3.367478078792148555e+00 3.312410673837348440e+00 3.326403414892988852e+00 3.322747362176791341e+00 3.326111594152322049e+00 3.378715443802316365e+00 3.390229966295795094e+00 3.353353223955560569e+00 3.353353223955560569e+00 3.353314134688049730e+00 3.292398318278551450e+00 3.282913456034076027e+00 3.228749415014572577e+00 3.075701585854510256e+00 3.025815165421545494e+00 2.914026721867808867e+00 2.789395858393311833e+00 2.740728738350196814e+00 2.565918437352740611e+00 2.418550243625142038e+00 2.338642657654178336e+00 2.165330624768152745e+00 2.007646419108848335e+00 2.007646419108848335e+00 1.760377373324909733e+00 1.465358745547007180e+00 1.253521358890008042e+00 8.783554842332882417e-01 4.913412167381818740e-01 3.760509008706000023e-01 5.394603814716591311e-02 -1.598875511974952590e-01 -2.672131267602338989e-01 -5.649964287613501446e-01 -8.801718639131664856e-01 -8.801718639131664856e-01 -1.185616559705584105e+00 -1.392877886086336225e+00 -1.558145671232952001e+00 -2.017921819091484714e+00 -2.678514111412365395e+00
5.688445764219191680e+00 5.409910508707265642e+00 5.276872463232156640e+00 5.131375253195336050e+00 4.852839997683413564e+00 4.661351655702481445e+00 4.661351655702481445e+00 4.292218273707576692e+00 3.983755795218801854e+00 3.553246171428120714e+00 3.553246171428120714e+00 3.280946556300500916e+00 3.041699043731279861e+00 2.898104621972475314e+00 2.765846888314548835e+00 2.525977704426310755e+00 2.271697945864205703e+00 1.833571205962183814e+00 1.670927825909225728e+00 1.514359100687738158e+00 1.432540130848780180e+00 1.182448724203495338e+00 1.182448724203495338e+00 1.098952730483317985e+00 1.030742635950306463e+00 9.615248380602612333e-01 8.848388707097134542e-01 7.332175638031793730e-01 4.805544372721380908e-01 6.532864767849987375e-01 -3.627355028610007026e-01 -1.217232395158826197e+00 -1.880167258489533477e+00 -1.882471208233238880e+00 -1.984116924368823032e+00 -1.994986740541468517e+00 -2.038662291051132058e+00 -2.038662291051132058e+00 -2.543863158189548113e+00 -3.557964513374873405e+00 -4.050971893435115767e+00 -4.467190733026684235e+00 -5.003408368977094511e+00 -5.118632253593850656e+00 -4.810157535120467287e+00 -4.491099857566491771e+00 -4.459118026499983678e+00 -4.183917689209282642e+00 -4.029813174011311006e+00 -4.029813174011311006e+00 -4.023762556077027597e+00 -3.383867506661101032e+00 -2.846139132608942468e+00 -2.301852455714285206e+00 -1.658095911327518213e+00 -9.008240636890043618e-01 7.581727256127689385e-01 1.164192131764009153e+00 1.347046704185582477e+00 1.710138851164225038e+00 2.156377198733505640e+00 2.156377198733505640e+00 2.540189343933063171e+00 2.903075130116267388e+00 3.090819066798172532e+00 3.124180117884229002e+00 3.254694909843860007e+00 3.304512109195893110e+00 3.289902155015351326e+00 3.264494696568623677e+00 3.291286728132188255e+00 3.375760128724873077e+00 3.395415746963243109e+00 3.382195101050301300e+00 3.386635236536400750e+00 3.292078377804024569e+00 3.292078377804024569e+00 3.306551362678662898e+00 3.307353830285148621e+00 3.326111594152322049e+00 3.337410566588288940e+00 3.343813861767567897e+00 3.338641518299005462e+00 3.340214221665735561e+00 3.327075219375911441e+00 3.304009590387773532e+00 3.243953698743024638e+00 3.148740127232104946e+00 3.148740127232104946e+00 2.942504531404373402e+00 2.826603129456481067e+00 2.789395858393311833e+00 2.732485591618615040e+00 2.526461979700413529e+00 2.418550243625142038e+00 2.211248591600816216e+00 2.128320456681690231e+00 2.080951640300601202e+00 1.853741717291381264e+00 1.550984780677976183e+00 1.550984780677976183e+00 1.008727764602450394e+00 6.007748548596270055e-01 6.007748548596270055e-01 2.709076617318844082e-01 -7.207525953308578648e-02 -1.598875511974952590e-01 -3.464295991094785698e-01 -5.552612653140778232e-01 -7.349432849684131019e-01 -1.054457655730109078e+00 -1.246243295517821537e+00 -1.346180068854109679e+00 -1.684110495309971700e+00 -2.518223290889336496e+00 -2.518223290889336496e+00
5.700904928780889946e+00 5.422369673268967460e+00 5.143834417757048527e+00 4.998337207720226161e+00 4.865299162245114495e+00 4.660440244619399763e+00 4.302135267775979877e+00 4.305622944237953220e+00 4.000802967302339752e+00 3.768581902749453594e+00 3.464757770699541606e+00 3.415373482485414947e+00 3.250240192029219877e+00 2.938333515916202288e+00 2.688688726400279894e+00 2.688688726400279894e+00 2.379602973100468866e+00 1.911758316612267361e+00 1.670927825909225728e+00 1.569112971348033625e+00 1.440447195376033607e+00 1.385298299978288128e+00 1.186820728103143097e+00 1.179040375775418426e+00 1.098121530671882784e+00 9.557796871601264010e-01 7.795744822859786982e-01 7.795744822859786982e-01 8.296741958015287910e-01 4.978966035846253968e-01 -3.627355028610007026e-01 -2.700230072800522407e-01 -1.300941507302905364e+00 -1.882471208233238880e+00 -2.018311829673766766e+00 -1.957055877329702875e+00 -1.938613085920476209e+00 -2.166529208352407032e+00 -3.043879166510790490e+00 -3.043879166510790490e+00 -3.975118841951400306e+00 -4.788011989420641434e+00 -4.788011989420641434e+00 -5.011969060359309225e+00 -4.660854290818074119e+00 -4.491099857566491771e+00 -4.301298929547999528e+00 -4.112322954187861868e+00 -3.992592008794439096e+00 -4.070959160547611866e+00 -4.109829683739466333e+00 -3.964027667662468168e+00 -2.849811339054449277e+00 -1.884249238098731682e+00 -1.884249238098731682e+00 -1.362030796495324214e+00 5.374390194747789007e-01 1.164192131764009153e+00 1.284560389385820178e+00 1.581701095782142241e+00 1.870195644997798556e+00 2.257405062259949524e+00 2.358432925786393408e+00 2.658329600814623994e+00 2.964984282069336619e+00 3.165023679477222185e+00 3.165023679477222185e+00 3.269012309833927432e+00 3.260110236611060586e+00 3.264494696568623677e+00 3.275607576845213309e+00 3.362249499325819624e+00 3.395415746963243109e+00 3.380466810344396222e+00 3.354817390831873247e+00 3.361796910587814935e+00 3.305248194624753832e+00 3.286699310464336499e+00 3.299684060791407969e+00 3.299630067887246110e+00 3.342475388599645214e+00 3.342475388599645214e+00 3.290421740156024732e+00 3.298728026683387160e+00 3.327075219375911441e+00 3.279733972693537503e+00 3.199826653984021441e+00 3.220938552060315985e+00 3.059800540390198442e+00 2.906259411974560614e+00 2.877166370447323374e+00 2.747082271463628267e+00 2.643602860490577466e+00 2.643602860490577466e+00 2.412654580929800119e+00 2.182632162702218714e+00 2.128320456681690231e+00 1.989849881143602284e+00 1.737466694664819622e+00 1.662678040110698419e+00 1.196804937963131810e+00 8.793656410415597868e-01 7.370786785418950160e-01 3.532778417906833335e-01 4.087544447360485361e-02 4.087544447360485361e-02 -2.592780705122217921e-01 -4.963558249165677672e-01 -5.552612653140778232e-01 -7.275383671104794781e-01 -1.130409498887287700e+00 -1.246243295517821537e+00 -1.492895389314315757e+00 -1.905363870773147283e+00 -2.654977609970408103e+00 -2.834876867589271932e+00
5.567866883305781833e+00 5.434828837830673720e+00 5.289331627793859347e+00 5.010796372281936861e+00 4.732261116770007270e+00 4.732261116770007270e+00 4.362426268211752500e+00 4.257253478730008922e+00 4.000802967302339752e+00 3.858944919165558929e+00 3.580611048038222055e+00 3.415373482485414947e+00 3.117175127129530487e+00 3.011550258796624746e+00 2.886661794056477603e+00 2.528393233287988817e+00 2.367293215652940042e+00 2.147984481057320316e+00 1.707385498951100367e+00 1.527882394536927313e+00 1.527882394536927313e+00 1.398362343296611465e+00 1.262527515323927929e+00 1.179040375775418426e+00 1.160000804115627560e+00 1.010196489832475564e+00 8.843564571951384456e-01 8.683918286480820647e-01 8.920292302373225013e-01 6.949629169109740046e-01 1.364306466685427377e-01 -4.221016235738885292e-01 -4.221016235738885292e-01 -1.138218978045441698e+00 -1.953649722672519351e+00 -1.957055877329702875e+00 -1.841035333407353036e+00 -2.001908212072451398e+00 -2.503651673174585035e+00 -3.443891062738641651e+00 -3.864020966326727979e+00 -4.418176929640987183e+00 -4.933981686476450967e+00 -4.734816861498973850e+00 -4.734816861498973850e+00 -4.454421288690383562e+00 -4.282784368040780443e+00 -4.112322954187861868e+00 -4.321555455860345063e+00 -4.232182083115903382e+00 -4.109829683739466333e+00 -3.702457778865847704e+00 -3.323943385334464207e+00 -2.643733111973718408e+00 -1.577398828771114037e+00 -1.256338278901016015e+00 -8.896326454603850076e-01 1.067154004784250931e+00 1.404865404257287675e+00 1.404865404257287675e+00 1.740166306642433103e+00 2.094693447146148468e+00 2.358432925786393408e+00 2.476285507786737838e+00 2.835760116215228610e+00 2.986252743368191354e+00 3.196574338804861526e+00 3.233512510471963086e+00 3.264011173423753132e+00 3.237445082013240327e+00 3.305694513346018937e+00 3.305694513346018937e+00 3.385779582115289621e+00 3.398983930054856994e+00 3.354817390831873247e+00 3.348057086525051407e+00 3.285396142410427878e+00 3.286699310464336499e+00 3.291960298393505902e+00 3.284236535995603390e+00 3.291906305489343598e+00 3.341132870364742047e+00 3.265513849602445617e+00 3.269903769893756529e+00 3.263265534783160948e+00 3.227028983366989401e+00 3.121902027601093366e+00 3.121902027601093366e+00 2.963345534400464665e+00 2.759634364134520013e+00 2.759634364134520013e+00 2.667005333022609115e+00 2.559574163316428841e+00 2.527819291159912218e+00 2.369768501167575980e+00 2.155623533698842742e+00 2.032485067843018633e+00 1.794624063506537581e+00 1.582433862623261245e+00 1.473302936349505821e+00 9.734928442643561164e-01 5.836773195263920133e-01 5.836773195263920133e-01 2.696866249623345868e-01 -1.553281206891533317e-01 -1.759383442568165923e-01 -3.489749629081061455e-01 -5.625287448301578008e-01 -6.460877197575634057e-01 -9.760047063458866523e-01 -1.102749270085863653e+00 -1.259661394881375518e+00 -1.707536541687960430e+00 -2.441170052648133026e+00 -2.441170052648133026e+00 -2.985594142067443890e+00
5.580326047867490757e+00 5.434828837830673720e+00 5.301790792355561166e+00 5.023255536843638680e+00 4.877758326806828748e+00 4.659528833536318970e+00 4.422717268647524236e+00 4.319027614768329748e+00 4.061734564880156384e+00 3.763154706090063861e+00 3.763154706090063861e+00 3.503293520496649105e+00 3.149954028682766527e+00 3.011550258796624746e+00 2.977814515055126066e+00 2.590546148235331358e+00 2.367293215652940042e+00 1.977419084484523193e+00 1.852739492780792308e+00 1.668659710515754790e+00 1.492893569979790946e+00 1.358352220092811091e+00 1.358352220092811091e+00 1.242034140846880685e+00 1.110156931375459344e+00 1.010196489832475564e+00 9.215934569743768900e-01 9.301935664614728871e-01 8.920292302373225013e-01 8.880573708867324223e-01 2.548442093024673172e-01 -1.097437594659573523e-01 -6.098576529716031036e-01 -1.097434421814556416e+00 -1.576585558647531693e+00 -1.875155369563238139e+00 -1.813641414476147018e+00 -1.813641414476147018e+00 -2.121291534764847775e+00 -3.375282572143478710e+00 -3.864020966326727979e+00 -4.224930130522187355e+00 -4.676643014823484101e+00 -4.777708944944263791e+00 -4.542034175889766878e+00 -4.548301979295176878e+00 -4.449250373007356707e+00 -4.443416338308725955e+00 -4.363076341221923116e+00 -4.363076341221923116e+00 -4.231315009819267559e+00 -3.885038082852545926e+00 -3.016163454968651347e+00 -3.016163454968651347e+00 -1.750657249103339197e+00 -4.654889079412598551e-01 4.460067625160371585e-01 1.015626617981006730e+00 1.321863908193665615e+00 1.531263568968844746e+00 1.865768839537986112e+00 2.006059872880110007e+00 2.196733027228796598e+00 2.575133892482477371e+00 2.848325368852153261e+00 2.848325368852153261e+00 3.083118805042132315e+00 3.254564955494740897e+00 3.254564955494740897e+00 3.205017073837857389e+00 3.294613356963893569e+00 3.348738869926766171e+00 3.383089819845665147e+00 3.402543360749654688e+00 3.369558707078740944e+00 3.295759375259623702e+00 3.280216246217850795e+00 3.266847258250010988e+00 3.231535555683086702e+00 3.310422091769777531e+00 3.310422091769777531e+00 3.356351634846229004e+00 3.272609893152315763e+00 3.269903769893756529e+00 3.271125030088010810e+00 3.218861188027934084e+00 3.188318339413203084e+00 3.067747298194112737e+00 2.882399760188035565e+00 2.839155238571926976e+00 2.676325724666000827e+00 2.571517883010957739e+00 2.571517883010957739e+00 2.442255267073561775e+00 2.234236734600310914e+00 2.155623533698842742e+00 1.890786188433191128e+00 1.614878586909305636e+00 1.582433862623261245e+00 1.070341297943685266e+00 7.850723969572310779e-01 6.864211113014668797e-01 3.342051349191333398e-01 1.095327655916489007e-01 -1.899735090741307836e-02 -3.954186280795455866e-01 -5.467246029874580637e-01 -5.467246029874580637e-01 -7.218949693122723721e-01 -1.032407941687564001e+00 -1.102749270085863653e+00 -1.425507286280662145e+00 -1.864131953332726077e+00 -2.128281936564774490e+00 -2.791344617732469224e+00 -3.162290005592960807e+00
5.725823257904305130e+00 5.447288002392379092e+00 5.168752746880453053e+00 5.168752746880453053e+00 4.890217491368530567e+00 4.658617422453237289e+00 4.422717268647524236e+00 4.332432285298705388e+00 4.057715692554637599e+00 3.945952424501679268e+00 3.698698280231639046e+00 3.610852347412613295e+00 3.321347009759378910e+00 3.083439537917430417e+00 2.821450284147125842e+00 2.821450284147125842e+00 2.433716555278613747e+00 2.088533165335935138e+00 1.852739492780792308e+00 1.764920968816657165e+00 1.521687942488398004e+00 1.385619230792578316e+00 1.323581903818328964e+00 1.258495561242797933e+00 1.110749223980823652e+00 1.021698465871880845e+00 9.039106445468561013e-01 9.113887572880084997e-01 9.634520962101819075e-01 1.073574308986728454e+00 4.969726284183630938e-01 4.969726284183630938e-01 -1.813700438857908104e-01 -1.677300362436446868e+00 -1.942940069116714907e+00 -1.821267814950846109e+00 -1.713560626460087111e+00 -1.906020247376215337e+00 -2.689336562373414452e+00 -3.136293369956238752e+00 -3.748975912016613510e+00 -4.386526583402683421e+00 -4.463511192050724219e+00 -4.696686600553892532e+00 -4.664772597935340492e+00 -4.729526040779262530e+00 -4.729526040779262530e+00 -4.592765731935870122e+00 -4.488470692707849707e+00 -4.361612904111860090e+00 -4.240342553586335939e+00 -3.974699530541347947e+00 -3.503498879174476777e+00 -2.488916428761321242e+00 -1.918042795796286892e+00 -1.244241333068088151e+00 4.161173512561995858e-01 1.019268101763666001e+00 1.019268101763666001e+00 1.460838801243966589e+00 1.805510765072505741e+00 2.006059872880110007e+00 2.147761337600043063e+00 2.496869683930309503e+00 2.709154409810059949e+00 2.901520468457966295e+00 2.930579828200867709e+00 3.116425771860117599e+00 3.193681761038021261e+00 3.227078786044960790e+00 3.227078786044960790e+00 3.288295625787491794e+00 3.343115880256988248e+00 3.402543360749654688e+00 3.318534487181780346e+00 3.256159749424554661e+00 3.280216246217850795e+00 3.202310219902524846e+00 3.220303510500284627e+00 3.246142031641236159e+00 3.297966305249609320e+00 3.257785654763849958e+00 3.305540932505636409e+00 3.239427975733520704e+00 3.184833753801580514e+00 3.184833753801580514e+00 3.046869765595016766e+00 2.874866563583632573e+00 2.882399760188035565e+00 2.709762543077308905e+00 2.524391200310183159e+00 2.544973116768903587e+00 2.436934347245843568e+00 2.307166073153405161e+00 2.263342590053826431e+00 1.978242629596348667e+00 1.675586841199540933e+00 1.675586841199540933e+00 1.292292205713835962e+00 9.158846877608585180e-01 7.850723969572310779e-01 5.263153399664229903e-01 2.302454585019734490e-01 1.095327655916489007e-01 -2.654515744462020432e-01 -5.260464308427462710e-01 -6.251843589542624979e-01 -6.428424609777307897e-01 -1.033498072477075924e+00 -1.033498072477075924e+00 -1.347251774472066455e+00 -1.598368706899164771e+00 -1.864131953332726077e+00 -2.326626039190760942e+00 -2.916304004428329044e+00 -3.162290005592960807e+00
5.592785212429193464e+00 5.459747166954084463e+00 5.181211911442162865e+00 5.035714701405344940e+00 4.757179445893414460e+00 4.657706011370155608e+00 4.483008269083294195e+00 4.191554780523718549e+00 4.035077146403408754e+00 4.035077146403408754e+00 3.813825308886197973e+00 4.152657316221844752e+00 3.534158376817506220e+00 3.723191811282482000e+00 2.932478009757754300e+00 2.622792620043056022e+00 2.441159309586567794e+00 2.110494030094112183e+00 1.934837757823418825e+00 1.674323089762713934e+00 1.604351954042340545e+00 1.474986497797613705e+00 1.331859726500359331e+00 1.204193058179028331e+00 1.204193058179028331e+00 1.059482034345776924e+00 9.690421477736010925e-01 9.113887572880084997e-01 9.732319656382079076e-01 1.099459604400183199e+00 1.154571382688538428e+00 7.842305582541478914e-01 6.976310874548918850e-01 -6.571854421621342590e-01 -1.758759011140730522e+00 -1.676042323903797815e+00 -1.676042323903797815e+00 -2.010202715082569647e+00 -2.555431023521724576e+00 -3.136293369956238752e+00 -3.609363584725751473e+00 -4.108786335044535498e+00 -4.463511192050724219e+00 -4.788958342883631758e+00 -4.950137439717328114e+00 -4.847012692727818539e+00 -4.730021644357517374e+00 -4.483023188113646640e+00 -4.483023188113646640e+00 -4.309988465205586650e+00 -4.104220499212688722e+00 -3.974699530541347947e+00 -3.734501237145498642e+00 -2.576614640017676816e+00 -1.918042795796286892e+00 -1.408379089008006568e+00 6.993047757300702161e-02 7.318307354945013943e-01 1.157494369424973524e+00 1.287746060852170027e+00 1.600354826111673123e+00 1.945143754664242719e+00 2.279639552522402024e+00 2.279639552522402024e+00 2.633077092337718472e+00 2.753563575748676939e+00 2.930579828200867709e+00 2.949095272400705348e+00 3.122207934741951796e+00 3.174643360393456071e+00 3.221580132196486534e+00 3.234679029261434913e+00 3.278828528751421167e+00 3.269990998787235092e+00 3.215805247722206328e+00 3.215805247722206328e+00 3.180671672432442421e+00 3.198850166856271215e+00 3.220303510500284627e+00 3.227679676286851596e+00 3.223324229341976821e+00 3.257785654763849958e+00 3.260235856692776935e+00 3.138102602665135965e+00 3.205793893610843881e+00 3.021413694659553784e+00 2.875846722824173085e+00 2.875846722824173085e+00 2.754819415442222308e+00 2.566503630788355750e+00 2.566503630788355750e+00 2.437988689191586289e+00 2.348880383922328896e+00 2.307166073153405161e+00 2.096156619715177971e+00 1.780218500050056996e+00 1.734814582231963165e+00 1.382682305903383924e+00 1.080742395599601169e+00 9.854402088485969546e-01 6.042816945888851432e-01 3.160012856389892155e-01 3.160012856389892155e-01 1.529082389834332534e-03 -3.743134297418153067e-01 -5.260464308427462710e-01 -6.435438312174553976e-01 -9.350709844501894352e-01 -1.034588203266587847e+00 -1.268996262663470986e+00 -1.390913414022827199e+00 -1.469168925831422667e+00 -2.059870969156855303e+00 -2.649639642371067083e+00 -2.649639642371067083e+00 -3.306841100011373769e+00
5.605244376990903277e+00 5.326709121478977238e+00 5.326709121478977238e+00 5.048173865967047647e+00 4.769638610455120720e+00 4.657706011370155608e+00 4.543299269519065930e+00 4.255826719803636138e+00 4.186717440390550493e+00 3.970798899195100429e+00 3.899039923550482900e+00 4.046549891375037511e+00 4.657432274144286843e+00 3.310711236185490680e+00 3.310711236185490680e+00 2.749301899574567720e+00 2.308542774360149874e+00 2.110494030094112183e+00 2.007171841180166894e+00 1.743934324061772401e+00 1.604351954042340545e+00 1.420469005504148008e+00 1.367266356807198546e+00 1.294937290860498358e+00 1.144446196180467501e+00 1.025518738140070329e+00 1.025518738140070329e+00 9.227079521517573824e-01 1.001609390475772132e+00 1.001609390475772132e+00 1.123579710614586391e+00 1.100917035357844798e+00 6.976310874548918850e-01 -7.574669984155295577e-01 -1.501198082309565862e+00 -1.576743428489877363e+00 -1.813420481552453500e+00 -1.913738999080050407e+00 -2.157158826415435549e+00 -3.123895281832111959e+00 -3.973433529956248211e+00 -3.973433529956248211e+00 -4.470695005412085088e+00 -4.960670686879783631e+00 -4.950137439717328114e+00 -4.935142372031569913e+00 -4.716225296003640821e+00 -4.608927454017297975e+00 -4.377836847916699803e+00 -4.282619389861396009e+00 -4.229884253645758818e+00 -3.955624146246474737e+00 -3.255627485673785682e+00 -3.255627485673785682e+00 -2.140076045962776341e+00 -8.675075585628273522e-01 6.993047757300702161e-02 5.061676136840438378e-01 1.015951951496787853e+00 1.287746060852170027e+00 1.730452015375908204e+00 1.841405526673516535e+00 2.059187202685065277e+00 2.396303840104030414e+00 2.415905676433054428e+00 2.567511369806836807e+00 2.754046431654203264e+00 2.948406761595848469e+00 2.948406761595848469e+00 3.091734768717094184e+00 3.132800005538228127e+00 3.234679029261434913e+00 3.251558917225283896e+00 3.210462146475039358e+00 3.212204049587318089e+00 3.154733559956858446e+00 3.184373586537640577e+00 3.200654375104657223e+00 3.236739052362315849e+00 3.205286185174406555e+00 3.205286185174406555e+00 3.170416287247213916e+00 3.115694082478505322e+00 3.138102602665135965e+00 3.014343376048609358e+00 2.881409545376894421e+00 2.883925836192990033e+00 2.798338545290195878e+00 2.658469452479199191e+00 2.585847254518937266e+00 2.443213987113678431e+00 2.303499472637019263e+00 2.174265407657745008e+00 2.099648144405225736e+00 1.830975273165561301e+00 1.523787017031577484e+00 1.523787017031577484e+00 1.115891414086309874e+00 7.834863778334295592e-01 6.833547501100392108e-01 4.623378026796374218e-01 2.018488679470860081e-01 1.166905642051531272e-01 -7.469884219688995020e-02 -4.726352564127433986e-01 -5.580895438150993426e-01 -8.227911572209695157e-01 -1.071829978182651466e+00 -1.102143051016543751e+00 -1.312657902214231731e+00 -1.529814254348802249e+00 -1.529814254348802249e+00 -1.973406644545630417e+00 -2.745334154485060907e+00 -3.054945880220383270e+00 -3.451392194429787175e+00
5.617703541552612201e+00 5.472206331515794275e+00 5.193671076003860243e+00 5.060633030528753018e+00 4.915135820491937757e+00 4.656794600287073926e+00 4.359241626359457555e+00 4.359241626359457555e+00 4.288213896220467447e+00 4.061499234585896900e+00 3.899039923550482900e+00 4.786427635355128274e+00 5.776498121761504123e+00 4.618703384238189713e+00 3.048754039949307604e+00 2.701591944319432059e+00 2.504030368974040854e+00 2.216438921437385190e+00 1.924937322083883906e+00 1.924937322083883906e+00 1.647296859113024148e+00 1.464398211207348810e+00 1.367266356807198546e+00 1.336417658823577881e+00 1.190965292154818833e+00 1.103298409191213025e+00 9.898221964197899680e-01 9.064017658379971421e-01 9.603122734643091407e-01 1.012751935920807922e+00 9.509660698694704095e-01 9.509660698694704095e-01 -2.671290386659105343e-01 -1.408018593547317288e+00 -1.501198082309565862e+00 -1.548502369123113453e+00 -1.680190146661810768e+00 -1.913738999080050407e+00 -2.526451530947416479e+00 -3.045181792672325027e+00 -3.663174769039790668e+00 -4.381339032021895896e+00 -4.802533477062411293e+00 -4.890157831039762648e+00 -5.030685033629145764e+00 -4.877913555950761371e+00 -4.877913555950761371e+00 -4.553517023013692544e+00 -4.360275100520137670e+00 -4.282619389861396009e+00 -4.232219976197916900e+00 -4.032808075194553865e+00 -3.704113416636686473e+00 -2.910755295808322263e+00 -2.565883105942859288e+00 -1.745338562720436304e+00 -2.402689070757063616e-01 7.462130975961470680e-01 7.462130975961470680e-01 1.223022922229992648e+00 1.627274702619057711e+00 1.950643601952880335e+00 1.950643601952880335e+00 2.249520934171711062e+00 2.413733640846431605e+00 2.562584956051045637e+00 2.553979985588327839e+00 2.769121606484586273e+00 3.006753995553121506e+00 3.061261602692237016e+00 2.998727198955918549e+00 3.134276241870399993e+00 3.225972185354415878e+00 3.148309518875395341e+00 3.148309518875395341e+00 3.179679538621801527e+00 3.205534142209330639e+00 3.205534142209330639e+00 3.175697048509101617e+00 3.042225653715134648e+00 3.123155301778160808e+00 3.027265170844156472e+00 2.987238610203946543e+00 3.007273763432117164e+00 2.851819274818932382e+00 2.663503551634249789e+00 2.812380217850954267e+00 2.757551609383620317e+00 2.549292981804603730e+00 2.549292981804603730e+00 2.364641935986709242e+00 2.235071575563861046e+00 2.174265407657745008e+00 1.886162044903272772e+00 1.641152620906871862e+00 1.617289943115655326e+00 1.206067451071765495e+00 8.799545724720908568e-01 8.362042944961254332e-01 5.105887316228177042e-01 2.511489419539122969e-01 2.511489419539122969e-01 5.901087606175354876e-03 -3.636916322060824713e-01 -4.726352564127433986e-01 -6.643592284934576320e-01 -1.040256112273320710e+00 -1.071829978182651466e+00 -1.220211134771937989e+00 -1.473438104709251961e+00 -1.434224590658278453e+00 -1.811946615722056286e+00 -2.094605986620290849e+00 -2.350093251079397927e+00 -3.224995322858884794e+00 -3.856892040833947544e+00
5.617703541552612201e+00 5.484665496077496982e+00 5.206130240565570944e+00 5.060633030528753018e+00 4.782097775016830532e+00 4.655883189203993133e+00 4.603590269954839442e+00 4.311978053887585816e+00 4.207435846243408939e+00 4.207435846243408939e+00 3.978498780277467617e+00 5.832454118502146123e+00 5.776498121761504123e+00 5.695113750336963321e+00 3.003723228463830441e+00 2.701591944319432059e+00 2.531256374461150038e+00 2.302553871949846176e+00 2.146729613962831351e+00 1.819183079455370500e+00 1.683175346392291383e+00 1.573731926924824887e+00 1.446573525263716631e+00 1.319097890327818989e+00 1.319097890327818989e+00 1.104399712591652039e+00 9.687119735140268251e-01 9.064017658379971421e-01 9.581790893997247371e-01 7.825109558763774231e-01 5.442176740383628530e-01 4.247519670436751271e-01 -1.805476969136199025e-02 -1.057796739526171370e+00 -1.532315451076496693e+00 -1.659496560133873588e+00 -1.698279314157544073e+00 -1.807431770678875393e+00 -2.509978165909863890e+00 -3.626760624418472467e+00 -3.626760624418472467e+00 -4.549351789060184004e+00 -4.990655105144503167e+00 -5.049580375195423798e+00 -5.051589784972167152e+00 -4.775507964208085099e+00 -4.673999071282318951e+00 -4.427739767614851552e+00 -4.288805927989361777e+00 -4.252517601614502318e+00 -4.112989921972491913e+00 -3.852378019802904952e+00 -3.613389786910364609e+00 -2.862109135909327584e+00 -1.849570339229847038e+00 -1.849570339229847038e+00 -5.453879513955357528e-01 4.889610139596736182e-01 9.554024843404405054e-01 1.119764628900364212e+00 1.521036085447236452e+00 1.746763605807592601e+00 2.009426656920702658e+00 2.052159089341491160e+00 2.261942590405691345e+00 2.403738635117254940e+00 2.546218660756893737e+00 2.546218660756893737e+00 2.752855223291117426e+00 2.839949047202023458e+00 2.998727198955918549e+00 2.888343411568778052e+00 2.951773481055877113e+00 3.089713648792353773e+00 3.059967542462281198e+00 2.969369160940965813e+00 3.122900623790140884e+00 3.115109032326178529e+00 3.008446223964590160e+00 3.008446223964590160e+00 2.905304777601851907e+00 2.893521257763074228e+00 2.987238610203946543e+00 2.853147530625282702e+00 2.703351692721207122e+00 2.663503551634249789e+00 2.662738529911904184e+00 2.496688149921954647e+00 2.555961218665722345e+00 2.362979615986019244e+00 2.185537379957792403e+00 2.198525584739048799e+00 1.912529299604297961e+00 1.662783382617572192e+00 1.662783382617572192e+00 1.327142994108989837e+00 9.106297627815382878e-01 8.799545724720908568e-01 6.028480796267892128e-01 3.131388940768090601e-01 2.696639911674070245e-01 5.482044961482113177e-02 -1.349535248960161415e-01 -2.341854487985950140e-01 -6.009432350671259915e-01 -1.019079139005287349e+00 -1.019079139005287349e+00 -1.434811609416592137e+00 -1.571241802367213669e+00 -1.473438104709251961e+00 -1.759464616954693694e+00 -2.022284814369745387e+00 -2.094605986620290849e+00 -2.904383425822805620e+00 -3.466066492723746784e+00 -3.640383183863257877e+00
