2.570331184210451703e+00 2.333764854766559704e+00 2.185715830804587423e+00 1.773077596671535305e+00 1.351098106693361611e+00 1.351098106693361611e+00 1.022032880590770798e+00 7.800236524788153325e-01 7.484268896428403206e-01 6.298735239206928460e-01 4.967955778300888192e-01 4.206424517278268826e-01 3.336191279234155260e-01 8.246576421681227342e-02 3.179335885469669609e-01 1.685172128874189990e-01 5.358588126893553544e-02 -9.244776683970386960e-03 -1.283873162815358238e-01 3.359552953807254938e-01 3.359552953807254938e-01 3.714703484639394482e-01 2.393289853780456167e-01 3.226406660537640692e-01 2.465201612201343151e-01 3.366213516471820988e-01 5.151350388722115703e-01 8.074957773035891240e-01 8.358647350278169963e-01 8.799061776354890618e-01 9.547262138790331143e-01 9.726447927475860844e-01 9.726447927475860844e-01 9.511547397644686264e-01 9.416079992870826088e-01 9.582668371867908430e-01 9.180355601184138070e-01 9.407894046329362547e-01 9.764535402384665330e-01 1.147242779912118538e+00 1.232443576792370044e+00 1.263541822639390855e+00 1.364223085420503745e+00 1.495923499366920595e+00 1.495923499366920595e+00 1.597715210944238517e+00 1.055648643309925250e+00 8.562708311707518671e-01 4.382572937201641983e-01 -1.802805339112570349e-01 -3.244226825938561487e-01 -1.237629309218284845e+00 -1.647285629904885251e+00 -1.735659597179271429e+00 -2.075141379462795754e+00 -2.213673027275007144e+00 -2.209451115138161725e+00 -2.200089743114729934e+00 -2.061084096274230060e+00 -2.061084096274230060e+00 -1.988278013232113173e+00 -1.905992581133768127e+00 -2.108699182266109862e+00 -2.035129314860016692e+00 -2.095372357341355407e+00 -2.111584192838692253e+00 -2.323026092061060144e+00 -2.561058667560865310e+00 -2.618198388290686296e+00 -3.002287165518253254e+00 -3.379168030531138900e+00 -3.379168030531138900e+00 -3.747870567084607529e+00 -4.080798749967445183e+00 -4.088948936461534345e+00 -4.325311043770517117e+00 -4.530517676596361731e+00 -4.553216190765321691e+00 -4.735922221984038671e+00 -4.905369057812612787e+00 -4.942863617162196022e+00 -5.156826761248186841e+00 -5.345003129591148650e+00 -5.345003129591148650e+00 -5.548517936265859873e+00 -5.720222240264858371e+00 -5.728413920561758133e+00 -5.894145736352348841e+00 -6.077024433442574036e+00 -6.073525776341507587e+00 -6.254034493703709785e+00 -6.505830269978505775e+00 -6.487669127286715742e+00 -6.603669806810346543e+00 -6.775767916487210663e+00 -6.842201483808494800e+00 -6.982020960541158061e+00 -7.166289836344686748e+00 -7.166289836344686748e+00 -7.293483160171824409e+00 -7.426867351372068882e+00 -7.476308809657087551e+00 -7.567392978407443849e+00 -7.692829996415491145e+00 -7.728031703270829667e+00 -7.857521798238453314e+00 -7.942773824398580373e+00 -7.966854975647661874e+00 -8.078075181605743893e+00 -8.192532697154303989e+00 -8.192532697154303989e+00 -8.290011018045928992e+00 -8.387489338937555772e+00 -8.492640574727598590e+00 -8.492640574727598590e+00 -8.510662387768908488e+00
2.582606118765111258e+00 2.333764854766559704e+00 2.142250229444813137e+00 1.718274117510387722e+00 1.526919895443924480e+00 1.132432686376451558e+00 9.823475594411044121e-01 8.745498491385099715e-01 6.584398634135323336e-01 5.105945580406224815e-01 5.105945580406224815e-01 4.568772041568612829e-01 2.166995257374594308e-01 8.246576421681227342e-02 1.404398062830600480e-01 1.247138397850514890e-01 5.358588126893553544e-02 -1.312350703262587515e-01 1.619297240503692337e-01 3.027578141173085102e-01 4.061586441865824848e-01 2.735026053873418350e-01 2.735026053873418350e-01 1.871817182106501609e-01 1.773186262061468565e-01 3.366213516471820988e-01 2.169258416068273188e-01 6.031666202332002236e-01 8.358647350278169963e-01 7.734279137607468213e-01 8.353676430586407520e-01 9.088777205993205932e-01 8.994768475117949080e-01 8.588141244304909883e-01 8.476809547721795290e-01 8.694036825820594672e-01 9.166040037370886129e-01 9.166040037370886129e-01 9.562595001710675335e-01 1.182244832788095446e+00 1.232443576792370044e+00 1.328203864388030730e+00 1.388147693862040288e+00 1.469951696937648045e+00 1.613660611251665600e+00 1.275681813236524631e+00 1.116336191060744554e+00 5.794801719064431866e-01 -5.500066293092731318e-02 -5.500066293092731318e-02 -8.624684664538935230e-01 -1.561226934950505463e+00 -1.647285629904885251e+00 -1.938335239283587752e+00 -2.169141426403697892e+00 -2.213673027275007144e+00 -2.348445128610406663e+00 -2.431823561290154423e+00 -2.271064025434600175e+00 -1.757969557497204072e+00 -1.748037302803908677e+00 -1.748037302803908677e+00 -1.823597338162597170e+00 -2.050915912026565202e+00 -2.050915912026565202e+00 -2.294022131433960610e+00 -2.553925934709152301e+00 -2.561058667560865310e+00 -2.867613893515728041e+00 -3.241411544704096759e+00 -3.287563885341137748e+00 -3.658818811196489662e+00 -3.892926154398158367e+00 -4.002092886738601862e+00 -4.339743580046647509e+00 -4.553499074700766869e+00 -4.553499074700766869e+00 -4.713046420297273720e+00 -4.874714122494467006e+00 -4.905369057812612787e+00 -5.053022399752233440e+00 -5.280641068827046425e+00 -5.493406023605590605e+00 -5.521399378640484024e+00 -5.708014124056250083e+00 -5.895862919199984731e+00 -5.893385064915065641e+00 -6.080523090543640485e+00 -6.261534517987475290e+00 -6.252703933346603904e+00 -6.441098785373874591e+00 -6.603067201133089981e+00 -6.603067201133089981e+00 -6.761558537406797242e+00 -6.907493439082438513e+00 -6.948709434346547198e+00 -7.069407834593299356e+00 -7.211177753008421121e+00 -7.248351967960974029e+00 -7.403028289225433767e+00 -7.517831388229549994e+00 -7.519218681234469237e+00 -7.657628289560153512e+00 -7.747863600712863175e+00 -7.783065307568199920e+00 -7.906314107637880895e+00 -8.028025850558707432e+00 -8.028025850558707432e+00 -8.134584882753644663e+00 -8.240376731663578980e+00 -8.265193874854753986e+00 -8.337855052555205759e+00 -8.435333373446830763e+00 -8.460150516638005769e+00 -8.555544663274975647e+00 -8.602387415827248418e+00
2.840329904758299051e+00 2.338242895283729528e+00 1.874583896628086999e+00 1.874583896628086999e+00 1.474895931080417499e+00 1.077800411052307616e+00 9.823475594411044121e-01 8.139942944664860791e-01 6.070089481612512827e-01 5.516854905050038171e-01 3.983733333332004634e-01 3.044800261869841651e-01 2.259230453014399731e-01 5.277985666518401897e-02 1.575116076775071594e-01 1.575116076775071594e-01 1.075275434865601010e-01 5.259044865770581834e-02 1.619297240503692337e-01 5.631597291844268049e-01 4.871445957640520019e-01 4.044907742879097490e-01 -4.794081896121335506e-03 8.010093635430622083e-02 1.933366490430160900e-01 2.023479321698377909e-01 3.685896049050032541e-01 3.685896049050032541e-01 5.691284891346415353e-01 6.842283391636480028e-01 8.353676430586407520e-01 7.740836608494414683e-01 8.069318485623524495e-01 8.588141244304909883e-01 8.343441919385743422e-01 8.569444315438689008e-01 9.013406884829489041e-01 9.958919062529492106e-01 1.137675051726023678e+00 1.137675051726023678e+00 1.291689263206833749e+00 1.400682413617729161e+00 1.400682413617729161e+00 1.467672777236000980e+00 1.220152403137530817e+00 1.275681813236524631e+00 6.375391391080611481e-01 1.545082956488212089e-01 7.186201940920675102e-02 -6.925760784014874938e-01 -1.376580020127522230e+00 -1.828321266597138228e+00 -1.819646785682032419e+00 -2.072161029859951320e+00 -2.184905577792881637e+00 -2.288149146592987293e+00 -2.412156427031933337e+00 -2.023581222698340731e+00 -2.023581222698340731e+00 -1.480332264891092375e+00 -1.705381758354157729e+00 -1.782393282069021589e+00 -1.964606813681467168e+00 -2.207650234494269448e+00 -2.250663599134921977e+00 -2.533446520887804532e+00 -2.817768277942144906e+00 -2.864236275033240631e+00 -3.223226524066315601e+00 -3.539616899801418803e+00 -3.539616899801418803e+00 -3.846831227981676093e+00 -4.161640393979000763e+00 -4.252921362671878036e+00 -4.435409833542932390e+00 -4.718918205039474678e+00 -4.779801823114938841e+00 -5.017099892606693423e+00 -5.086938349150532446e+00 -5.031471098672570363e+00 -5.239257712289506763e+00 -5.457497802342784254e+00 -5.456262049640388412e+00 -5.713667903900679690e+00 -5.888528028393363201e+00 -5.888528028393363201e+00 -6.087479865167699344e+00 -6.287851336023310367e+00 -6.261534517987475290e+00 -6.404793377848776004e+00 -6.580618634945080814e+00 -6.587863530615283736e+00 -6.753041354330050261e+00 -6.925750677692728452e+00 -6.930359475694865878e+00 -7.042570365451819470e+00 -7.224400068360535165e+00 -7.224400068360535165e+00 -7.355718892918645224e+00 -7.484597043988525655e+00 -7.517831388229549994e+00 -7.603634328889913974e+00 -7.691902698913769321e+00 -7.747863600712863175e+00 -7.873300618720910471e+00 -7.963535929873620134e+00 -8.003944699309625932e+00 -8.098341745944559023e+00 -8.215559588472403973e+00 -8.215559588472403973e+00 -8.313037909364030753e+00 -8.410516230255655756e+00 -8.435333373446830763e+00 -8.507994551147282536e+00 -8.609153121057889990e+00 -8.602387415827248418e+00
2.595551659697630686e+00 2.339511879533241689e+00 2.093178250428888276e+00 1.642454209233432882e+00 1.218999273566608199e+00 1.218999273566608199e+00 9.101794940984322402e-01 6.634273074871642750e-01 6.070089481612512827e-01 4.776831093166557518e-01 2.453268620861221438e-01 3.044800261869841651e-01 2.324967236045610841e-01 9.211484125185437355e-02 2.775675869582189259e-01 1.622849254118481632e-01 1.425412589034888711e-01 1.025194666804503246e-01 3.657038206799769209e-01 5.632832556463329698e-01 5.691015896025873877e-01 4.591175212424041252e-01 1.173775367031676953e-01 2.775784692673852749e-01 2.775784692673852749e-01 3.339857691110650340e-01 3.530108984952614049e-01 3.814950720195455225e-01 4.246346646574493122e-01 5.761295537995648752e-01 6.606429389049128797e-01 7.289766547492499971e-01 6.944954315670723854e-01 7.775633189739601381e-01 8.125481746047890086e-01 9.439754629292711474e-01 9.439754629292711474e-01 1.075402751253753175e+00 1.209992330991532805e+00 1.249152850598375331e+00 1.347325497311050668e+00 1.484658663630568309e+00 1.464433194701193930e+00 1.096336380354386186e+00 7.307655206678674853e-01 6.887519109582979082e-01 2.006750459604621228e-01 -3.566522058385039329e-01 -3.566522058385039329e-01 -1.153512239759970193e+00 -1.764283355329604008e+00 -1.828321266597138228e+00 -1.925447254454092594e+00 -2.095015170449675335e+00 -2.184905577792881637e+00 -2.305666666063499903e+00 -2.365528497436755195e+00 -2.053993759107378914e+00 -1.612306566994198498e+00 -1.531323861604628300e+00 -1.603869683346766495e+00 -1.890131916999564066e+00 -2.164657681992463001e+00 -2.164657681992463001e+00 -2.449074499563547391e+00 -2.750076638942182239e+00 -2.817768277942144906e+00 -3.161610742524030737e+00 -3.458727538655990141e+00 -3.499727307337284543e+00 -3.800736301565193820e+00 -4.063482051033563636e+00 -4.107771697739057259e+00 -4.354730786758055139e+00 -4.639547536481548384e+00 -4.639547536481548384e+00 -4.988896399125591685e+00 -5.159169887527653486e+00 -5.086938349150532446e+00 -5.261408098916877663e+00 -5.463333022891495361e+00 -5.457497802342784254e+00 -5.685743435368936005e+00 -5.915742825800084148e+00 -5.906668279301168667e+00 -6.080179914250766871e+00 -6.282017577599525282e+00 -6.282017577599525282e+00 -6.414163734703617337e+00 -6.575924341020780162e+00 -6.575924341020780162e+00 -6.744994702316097879e+00 -6.912811611174180193e+00 -6.925750677692728452e+00 -7.042975829879324579e+00 -7.195519903671114825e+00 -7.209959986015825883e+00 -7.367044530651897460e+00 -7.479892256326886368e+00 -7.503099832484053877e+00 -7.594883974524582193e+00 -7.689437269550277065e+00 -7.689437269550277065e+00 -7.794501131005374894e+00 -7.928334223018280724e+00 -7.963535929873620134e+00 -8.065115574220671490e+00 -8.156189222907807235e+00 -8.190823414148045600e+00 -8.288220766172853970e+00 -8.360881943873305744e+00 -8.385699087064480750e+00 -8.483177407956107530e+00 -8.580655728847732533e+00 -8.580655728847732533e+00 -8.677053966837165788e+00
2.541582227982521758e+00 2.066640564750768849e+00 2.066640564750768849e+00 1.550278449229889333e+00 1.097384624989819812e+00 1.008999367519322288e+00 8.119218492159098188e-01 5.556632448353275855e-01 5.131148677846819606e-01 3.199548991740249204e-01 1.259960784550984425e-01 2.091490304718628956e-01 3.185481748035299265e-01 2.829527843024052247e-01 2.829527843024052247e-01 1.586308723748474647e-01 1.280291640151957067e-01 1.485861680848064303e-01 3.745222112259624647e-01 6.243720323967612007e-01 5.691015896025873877e-01 2.802183510465707239e-01 -2.212099426270991431e-02 1.431726993168809525e-02 4.664362661701314527e-01 4.842710896915725649e-01 4.842710896915725649e-01 3.477633443641220401e-01 4.561652508012626339e-01 4.561652508012626339e-01 5.797243258590570880e-01 6.223749945010416118e-01 6.944954315670723854e-01 6.774470839861781446e-01 7.915041692178589328e-01 8.697807805694289796e-01 1.023461175523440403e+00 1.136914976621477669e+00 1.167374121315082558e+00 1.239855065668582279e+00 1.274342202521876022e+00 1.274342202521876022e+00 1.377606454133266434e+00 8.290018198937585403e-01 7.307655206678674853e-01 3.627681547560226427e-01 -2.241169025994771413e-01 -2.528177592276615870e-01 -8.885296127343097483e-01 -1.302277718469577961e+00 -1.569335889782788485e+00 -1.893799669674986363e+00 -2.049463204545737494e+00 -2.049463204545737494e+00 -2.232816286767757230e+00 -2.419177685437199798e+00 -2.365528497436755195e+00 -2.231953116702229956e+00 -1.836348260996635506e+00 -1.531323861604628300e+00 -1.759599492358658201e+00 -1.870497596310356947e+00 -2.036618612511206461e+00 -2.371370727666898048e+00 -2.620212353166722519e+00 -2.694269364147181101e+00 -3.046795877337830305e+00 -3.396593402426288488e+00 -3.396593402426288488e+00 -3.713925432085072753e+00 -4.023808555650001395e+00 -4.063482051033563636e+00 -4.272334440260832977e+00 -4.523313750269792877e+00 -4.531129940453745064e+00 -4.877725227778851647e+00 -5.070767422734073548e+00 -5.167779114636401161e+00 -5.291812153267210661e+00 -5.469168243440206467e+00 -5.469168243440206467e+00 -5.682160340441605229e+00 -5.909521200605721170e+00 -5.915742825800084148e+00 -6.057908174715807448e+00 -6.260081951959352686e+00 -6.274717626682590144e+00 -6.406458633968487248e+00 -6.563250056183602688e+00 -6.571036320594396685e+00 -6.737749806645894957e+00 -6.893039947235752862e+00 -6.893039947235752862e+00 -7.042282964167895010e+00 -7.181079821326404655e+00 -7.195519903671114825e+00 -7.342771316694879147e+00 -7.467113468103475427e+00 -7.479892256326886368e+00 -7.550894103447363115e+00 -7.646120314959846453e+00 -7.684343466767373343e+00 -7.775240210210640157e+00 -7.861043150871001473e+00 -7.893132516162943091e+00 -8.018569534170991275e+00 -8.150367600380798550e+00 -8.150367600380798550e+00 -8.240400704854248914e+00 -8.336064800682130738e+00 -8.360881943873305744e+00 -8.433543121573757517e+00 -8.531021442465382520e+00 -8.555838585656557527e+00 -8.653316906548184306e+00 -8.677643743668372878e+00
2.470767747058092656e+00 2.265388074539063545e+00 1.800117293150133690e+00 1.468926445458056618e+00 1.271123644265510499e+00 8.832780234461836688e-01 5.551394629784528467e-01 5.551394629784528467e-01 5.657879446496896225e-01 -4.388679638101907615e-02 1.259960784550984425e-01 -2.511599051803713872e-03 2.500749092323882872e-01 1.754138850499351587e-01 1.632180430966776175e-01 1.397674738664649863e-01 1.731917052088163822e-01 3.013172591314615678e-01 6.682891837117419520e-01 6.682891837117419520e-01 6.300543149653684560e-01 2.237912511417995687e-01 -2.212099426270991431e-02 1.407245805485816958e-01 3.427117536532907627e-01 5.394315223846565255e-01 3.801275809427098751e-01 3.263474173293717251e-01 3.472957714821718334e-01 4.727123567079455912e-01 5.693528356005616020e-01 5.693528356005616020e-01 6.250493883797836325e-01 6.447530336598648049e-01 7.915041692178589328e-01 9.248509330825510633e-01 1.099408649308720953e+00 1.136914976621477669e+00 1.237222834825622231e+00 1.313327913135102332e+00 1.332220031628414514e+00 1.366707168481708479e+00 1.080713904531878100e+00 9.442506444299118007e-01 4.722223345103181980e-01 -3.924959681963414299e-02 -3.924959681963414299e-02 -8.893867867386855419e-01 -1.403274881745310454e+00 -1.302277718469577961e+00 -1.843347786697907775e+00 -2.064383343668394932e+00 -2.043141468210453393e+00 -2.186148509708764287e+00 -2.283965952646503261e+00 -2.366129132412980507e+00 -2.460153589142461961e+00 -2.119090135948463960e+00 -2.119090135948463960e+00 -1.825098916606531674e+00 -1.880293646072999536e+00 -1.870497596310356947e+00 -2.031953043290088523e+00 -2.536071822467198977e+00 -2.620212353166722519e+00 -2.973224553962145578e+00 -3.292455934431568032e+00 -3.342507370352908236e+00 -3.651303654147863398e+00 -3.990140181713184298e+00 -3.990140181713184298e+00 -4.273201986472997760e+00 -4.527702150618051036e+00 -4.523313750269792877e+00 -4.749778668567353535e+00 -5.010439790687780004e+00 -5.070767422734073548e+00 -5.288223157613094472e+00 -5.483052967753623719e+00 -5.475003463988917574e+00 -5.687808353784894244e+00 -5.870850068431265001e+00 -5.875881894785022652e+00 -6.056433158369446623e+00 -6.238873413768456722e+00 -6.238873413768456722e+00 -6.397231690248432301e+00 -6.564832250014067228e+00 -6.563250056183602688e+00 -6.725680705195252074e+00 -6.917291375753743310e+00 -6.909081439804134028e+00 -7.037302562580654453e+00 -7.160163593075111521e+00 -7.317636241486268567e+00 -7.329086015846582924e+00 -7.454334679880066261e+00 -7.559231855570456737e+00 -7.566003582819847750e+00 -7.641997289773993174e+00 -7.741346526472330680e+00 -7.741346526472330680e+00 -7.863262451252955643e+00 -7.946846091531364564e+00 -7.983367827315652754e+00 -8.073603138468362417e+00 -8.211538475291844108e+00 -8.214036699871057223e+00 -8.311247657490955731e+00 -8.383908835191405728e+00 -8.408725978382580735e+00 -8.506204299274207514e+00 -8.558344594099100533e+00 -8.603052619642026499e+00 -8.654931138420735692e+00 -8.680070983120446115e+00
2.470767747058092656e+00 2.199705729688619549e+00 1.717771101273377621e+00 1.468926445458056618e+00 9.888988820888952036e-01 7.674563428224083772e-01 6.435181768814060010e-01 4.072005278034935838e-01 2.885719567864821755e-01 2.885719567864821755e-01 -8.283365019403179930e-02 1.121965079448616343e-01 2.500749092323882872e-01 2.567652725126897684e-01 2.621569214639236645e-01 1.397674738664649863e-01 2.246617443805057346e-01 3.620972090674044463e-01 4.100998594977295353e-01 7.006479279854705977e-01 6.744783332712227519e-01 6.068395118084940476e-01 -2.894929622004017294e-02 2.822880173219622923e-01 2.822880173219622923e-01 4.859942308858202775e-01 4.655496490738373350e-01 3.263474173293717251e-01 2.701355234999541777e-01 3.878125869281478511e-01 5.004741454080527951e-01 5.739938880347114081e-01 6.007630205468861284e-01 6.286536792215320357e-01 8.336139321751822040e-01 1.055966686063984028e+00 1.055966686063984028e+00 1.187527790378835491e+00 1.301672705879285852e+00 1.313327913135102332e+00 1.386834135939026824e+00 1.175915546003617251e+00 1.080713904531878100e+00 6.134231432031025388e-01 2.215052114565070895e-01 9.526782834255789756e-02 -8.559719808259511620e-01 -1.606927710858674363e+00 -1.606927710858674363e+00 -1.863371719044141894e+00 -2.018314196172315444e+00 -2.018314196172315444e+00 -2.226085112309662772e+00 -2.364422109021478313e+00 -2.283965952646503261e+00 -2.402098407506902511e+00 -2.401357810320922326e+00 -2.381467383332660948e+00 -2.085870439183334923e+00 -2.320295626170670644e+00 -2.082408854982390700e+00 -2.084831480315250118e+00 -2.259438884594928698e+00 -2.712952958006343174e+00 -2.829096003624615108e+00 -3.238129148369541355e+00 -3.552041850718382854e+00 -3.552041850718382854e+00 -3.848353932628906904e+00 -4.188008681708403458e+00 -4.258153321374087419e+00 -4.518733985651048002e+00 -4.875950868964015861e+00 -4.816189240670817995e+00 -4.971638786675107724e+00 -5.200172745505497574e+00 -5.226716049647413875e+00 -5.442232236661309841e+00 -5.679801631106393245e+00 -5.679801631106393245e+00 -5.865818242077508238e+00 -6.081515962821406163e+00 -6.073048260620453220e+00 -6.225988293096474280e+00 -6.387685213842059895e+00 -6.392458452045245210e+00 -6.561369550913298099e+00 -6.718250679933643887e+00 -6.726772673563377047e+00 -6.895651993769746468e+00 -7.021009512272642361e+00 -7.027341759406175115e+00 -7.155587319579033156e+00 -7.299377418964763109e+00 -7.299377418964763109e+00 -7.435898788501419610e+00 -7.546453067347046684e+00 -7.559231855570456737e+00 -7.641148562358830887e+00 -7.733100476100625009e+00 -7.737223501286477401e+00 -7.836572737984814019e+00 -7.931798949497299134e+00 -7.950710148125462950e+00 -8.032649032191727656e+00 -8.163049809691145242e+00 -8.163049809691145242e+00 -8.271857245986065976e+00 -8.359091692000230722e+00 -8.383908835191405728e+00 -8.456570012891857502e+00 -8.520267540820716690e+00 -8.558344594099100533e+00 -8.620694840561583305e+00 -8.599391776211460225e+00 -8.636479664638439857e+00
2.446504159494742758e+00 1.928643712319146442e+00 1.928643712319146442e+00 1.361695392123772663e+00 7.431127059803179780e-01 7.674563428224083772e-01 4.822735112614955355e-01 3.010373427672575208e-01 3.684688361767917142e-01 -4.804318717720237886e-02 3.762303388264081477e-02 -1.446838808492625569e-02 2.543505285081216205e-01 2.678807275909673713e-01 2.678807275909673713e-01 2.421671982246717258e-01 4.127725753613393223e-01 3.620972090674044463e-01 6.348224146970475879e-01 7.397169663971361331e-01 6.744783332712227519e-01 5.274126520129914786e-01 -1.922399339243291150e-01 2.089080513548733087e-01 4.021917314579899760e-01 4.924985763680446160e-01 4.924985763680446160e-01 5.976485264209374648e-01 4.233859864020226293e-01 4.233859864020226293e-01 3.973987386043607017e-01 5.166681685198312168e-01 6.930655582481950461e-01 6.930655582481950461e-01 9.562442911828296088e-01 1.083064743432045507e+00 1.161984575779147599e+00 1.248666570509411988e+00 1.348073450406967133e+00 1.389335993522465618e+00 1.245942074235896868e+00 9.453748792163542136e-01 7.441662115881164663e-01 3.353117988452739562e-01 -3.634437127059819694e-01 -3.634437127059819694e-01 -1.346444904352523064e+00 -1.840742308714502506e+00 -1.844975954787165140e+00 -1.973368215778120049e+00 -2.092354230692686556e+00 -2.166106150975162237e+00 -2.281923766365250739e+00 -2.315884777920268256e+00 -2.355217325963606889e+00 -2.384006545446353709e+00 -2.379232426552364110e+00 -2.379232426552364110e+00 -2.352149028981448176e+00 -2.488411211421242886e+00 -2.326729655629713900e+00 -2.253478057788483646e+00 -2.560882975422577701e+00 -2.712952958006343174e+00 -3.024717348854948362e+00 -3.397095783861683316e+00 -3.511161807909056520e+00 -3.809107648068774221e+00 -4.088192383815674624e+00 -4.151859895082287366e+00 -4.444765354452615114e+00 -4.800780092461611304e+00 -4.800780092461611304e+00 -5.100045918057476868e+00 -5.279500340824052174e+00 -5.200172745505497574e+00 -5.445550350398292494e+00 -5.654815319136363705e+00 -5.682125709269310931e+00 -5.859220937327698664e+00 -6.056909707647670338e+00 -6.058816790076591019e+00 -6.224621965524929301e+00 -6.386637534093834390e+00 -6.386637534093834390e+00 -6.566374788271004626e+00 -6.700891187000244109e+00 -6.718250679933643887e+00 -6.868023386899690941e+00 -6.992919417572633911e+00 -7.021009512272642361e+00 -7.154280405718667524e+00 -7.298913987527827274e+00 -7.293542378585687658e+00 -7.430096101176393297e+00 -7.546320606669425501e+00 -7.546320606669425501e+00 -7.649868583761710639e+00 -7.740470602238556985e+00 -7.740470602238556985e+00 -7.828326687613108348e+00 -7.927675924311445854e+00 -7.931798949497299134e+00 -8.027025161009783361e+00 -8.115348442601945322e+00 -8.107967301490534240e+00 -8.264370467976547729e+00 -8.326319723789609384e+00 -8.339555286266655543e+00 -8.444660053684682310e+00 -8.488487869338561254e+00 -8.488487869338561254e+00 -8.546872304138279475e+00 -8.591816213203030017e+00 -8.599391776211460225e+00 -8.593091640256915298e+00
2.423499030690257072e+00 1.879222685519677416e+00 1.589660695378603439e+00 1.213261724196005753e+00 6.037555644494200235e-01 5.312266522055686391e-01 2.197309072909545136e-01 3.724585820494343003e-02 1.815123715380174696e-01 -2.131393202208186136e-02 3.301727581060181493e-01 3.301727581060181493e-01 3.146831832751991742e-01 2.769319654139952291e-01 2.765486889022530370e-01 5.179283316886085231e-01 7.177845464582843782e-01 6.925412824301899750e-01 8.074247727132146668e-01 8.281150309825959788e-01 7.456623492314723434e-01 6.421187102913673561e-01 2.218924518302546889e-01 2.218924518302546889e-01 2.262071495882027605e-01 4.324529830974964684e-01 4.743603074629074157e-01 6.688074435695872122e-01 6.505111605487663429e-01 4.386683683165881753e-01 4.498273629808923202e-01 5.741000261928020931e-01 7.196609152260980968e-01 9.001566540587331300e-01 1.050464895069548099e+00 1.050464895069548099e+00 1.228657758752940143e+00 1.308766776194286940e+00 1.308766776194286940e+00 1.447116926118147129e+00 9.787697438865721189e-01 9.453748792163542136e-01 6.016035013944699417e-01 2.699438662137839534e-02 -1.259934106806568921e-01 -1.073878083039641051e+00 -1.719562099585422388e+00 -1.857699750391566873e+00 -1.999050035839864403e+00 -2.095143652934476464e+00 -2.095143652934476464e+00 -2.224694104400189332e+00 -2.336522762317857271e+00 -2.315884777920268256e+00 -2.312110087809061909e+00 -2.305393446563093640e+00 -2.342630975814844696e+00 -2.381826049118076494e+00 -2.422238466116077404e+00 -2.458137043658346066e+00 -2.327959719967193752e+00 -2.393755911311995277e+00 -2.393755911311995277e+00 -2.932660033695173141e+00 -3.331396889869917111e+00 -3.397095783861683316e+00 -3.675757721661471855e+00 -4.016401170309780611e+00 -4.088192383815674624e+00 -4.406168270199417591e+00 -4.663902278208510666e+00 -4.702414835811859817e+00 -5.036767744659697676e+00 -5.263471640190587664e+00 -5.263471640190587664e+00 -5.489967248937327682e+00 -5.651764352637403732e+00 -5.651764352637403732e+00 -5.894977447557569583e+00 -6.088299538567614633e+00 -6.056909707647670338e+00 -6.298215307572512245e+00 -6.444507747406029274e+00 -6.385077824987934747e+00 -6.563402308400516638e+00 -6.734642705988562739e+00 -6.722128327717134866e+00 -6.864493983583714432e+00 -6.993758859533986794e+00 -6.993758859533986794e+00 -7.134945094228906548e+00 -7.295134942822336654e+00 -7.298913987527827274e+00 -7.412069189290765969e+00 -7.538259080561503289e+00 -7.539267804849552945e+00 -7.670336879078683445e+00 -7.740840256274982067e+00 -7.726748415545334758e+00 -7.823430453382616889e+00 -7.921357830927885146e+00 -7.921357830927885146e+00 -8.020127145373470157e+00 -8.118896459819056943e+00 -8.115348442601945322e+00 -8.159757229153044022e+00 -8.305498573094418191e+00 -8.326319723789609384e+00 -8.426172205584004260e+00 -8.442919506343784519e+00 -8.456708197856407594e+00 -8.508889074185892909e+00 -8.565591235925978708e+00 -8.573489029345576995e+00 -8.573509935564411322e+00 -8.656640456921426363e+00
2.131107838748380168e+00 2.131107838748380168e+00 1.484784404134973146e+00 7.567294477166337519e-01 6.037555644494200235e-01 3.288800003423355545e-01 9.070494464098491361e-02 3.724585820494343003e-02 5.075920211299166790e-02 2.483938912364176965e-01 2.787261372730899800e-01 4.586353195761826984e-01 3.455538510939443753e-01 3.455538510939443753e-01 4.768981642557317269e-01 7.524852430909894085e-01 7.524852430909894085e-01 8.965865659221738948e-01 8.687109000842272444e-01 8.281150309825959788e-01 8.227081332369222677e-01 7.231806730147867235e-01 2.298204847707907006e-01 3.324650966864408641e-01 2.887120766477098699e-01 1.798784156579786575e-01 5.110739420478460637e-01 7.391680886005689288e-01 7.391680886005689288e-01 7.309798870896407896e-01 6.579648885110291889e-01 5.741000261928020931e-01 7.987023790694858238e-01 9.699163417056031467e-01 1.027605441578693934e+00 1.128381532690730715e+00 1.239860162355983730e+00 1.300743100499726967e+00 1.534793652172573353e+00 1.030684669684294619e+00 1.030684669684294619e+00 6.069693902136215069e-01 1.327148234663842741e-01 2.699438662137839534e-02 -6.835215307859970890e-01 -1.627210444687507529e+00 -1.719562099585422388e+00 -2.053097714911859661e+00 -2.214734384922366850e+00 -2.170006390633179016e+00 -2.192951256082062095e+00 -2.321431808542752773e+00 -2.345147992068131515e+00 -2.389768974657580536e+00 -2.294229727706868616e+00 -2.294229727706868616e+00 -2.258615516610707363e+00 -2.315863036246852413e+00 -2.422238466116077404e+00 -2.362881423499016087e+00 -2.239766242302860366e+00 -2.346326907713810250e+00 -2.823682207647992382e+00 -3.193134476840230107e+00 -3.255796828692386402e+00 -3.618892303607882166e+00 -3.989969542015325388e+00 -3.989969542015325388e+00 -4.308461303300559209e+00 -4.628831685076902680e+00 -4.663902278208510666e+00 -4.926208431894591122e+00 -5.193239056352217276e+00 -5.249271131198157470e+00 -5.462897775106005049e+00 -5.660995225735739211e+00 -5.672008083740211148e+00 -5.883658672227868536e+00 -6.122082027620253442e+00 -6.122082027620253442e+00 -6.330589539956675615e+00 -6.483226843667885930e+00 -6.444507747406029274e+00 -6.591470833805988860e+00 -6.771816543043129855e+00 -6.734642705988562739e+00 -6.887791619096410578e+00 -7.006178966062688751e+00 -7.024459472296776141e+00 -7.138376688197249464e+00 -7.284502702415978526e+00 -7.291528936305402553e+00 -7.418578740394804250e+00 -7.536258160767529191e+00 -7.536258160767529191e+00 -7.655699221873261351e+00 -7.754932097004628488e+00 -7.740840256274982067e+00 -7.839109386311997163e+00 -7.932812582713324900e+00 -7.913381841848137199e+00 -8.012151156293722210e+00 -8.102944481659561049e+00 -8.110920470739308996e+00 -8.199463525527157515e+00 -8.272908445755927431e+00 -8.348067767355864532e+00 -8.365048513579747436e+00 -8.466293059886307759e+00 -8.513481183095187532e+00 -8.513481183095187532e+00 -8.562226228083169133e+00 -8.638105585936632025e+00 -8.583711645389888290e+00 -8.665986315756811109e+00 -8.762536608346568556e+00
2.373290964450490925e+00 1.733097683091880059e+00 1.274426143614984408e+00 9.682361092239284428e-01 3.542789476624205180e-01 2.506917887779944176e-01 2.506917887779944176e-01 1.129042032515547717e-01 2.709006386315973014e-01 2.483938912364176965e-01 4.886781292122914788e-01 6.061273212181571557e-01 4.686619851993359398e-01 4.179476985078330320e-01 5.269214185523107830e-01 6.972269663330972200e-01 9.507972124641153044e-01 8.893229321561157974e-01 8.893229321561157974e-01 8.631359243314591367e-01 7.752743540000263112e-01 7.231806730147867235e-01 6.695506411991660745e-01 3.376123650376661178e-01 2.887120766477098699e-01 1.829915758093836886e-01 3.272280310590794383e-01 6.357109366905290271e-01 7.568360303326667760e-01 7.849587941523437085e-01 7.956900801456825434e-01 8.129147618004398668e-01 9.231979560983774036e-01 9.231979560983774036e-01 1.027586672254831246e+00 1.220147454593762282e+00 1.239860162355983730e+00 1.401410312345333864e+00 1.392352840059859487e+00 1.202827612192659101e+00 6.182093468206355524e-01 2.883720943130615999e-01 2.411009057762811825e-01 -4.531726096821104832e-01 -1.486037880864747418e+00 -1.486037880864747418e+00 -1.940112752149083963e+00 -2.164392262201246364e+00 -2.214734384922366850e+00 -2.220981474246484844e+00 -2.269023429922025770e+00 -2.321431808542752773e+00 -2.404456019598374183e+00 -2.409085645627498717e+00 -2.322602393286250955e+00 -2.225406690110357300e+00 -2.175834998979035095e+00 -2.175834998979035095e+00 -2.281189153326420804e+00 -2.388214214399973390e+00 -2.239766242302860366e+00 -2.627746976694284697e+00 -3.114305881748448357e+00 -3.193134476840230107e+00 -3.528824365770704574e+00 -3.844106014188226617e+00 -3.934054601502065651e+00 -4.292762985409583898e+00 -4.555338221014472389e+00 -4.591417792825556177e+00 -4.882584482425123440e+00 -5.155379907150959617e+00 -5.155379907150959617e+00 -5.427581037224221916e+00 -5.664623978623866130e+00 -5.895211108969422575e+00 -5.895211108969422575e+00 -6.120074833167403305e+00 -6.322465570443442040e+00 -6.302325126663813393e+00 -6.506817869389467823e+00 -6.681749092211774155e+00 -6.662589294031143083e+00 -6.761467374955858922e+00 -6.933577526270209290e+00 -6.916714679483606076e+00 -7.021393787062434555e+00 -7.181398134486271623e+00 -7.181398134486271623e+00 -7.297665869342009337e+00 -7.400874844784557816e+00 -7.416153585257863057e+00 -7.546432683532527719e+00 -7.687482968934533645e+00 -7.676407244250466277e+00 -7.773517127993841314e+00 -7.867293067771290893e+00 -7.853201227041644472e+00 -7.940305948863896290e+00 -8.036947865827787751e+00 -8.010204800931388647e+00 -8.094968492579813102e+00 -8.193737807025396336e+00 -8.193737807025396336e+00 -8.271091800236433755e+00 -8.326271460921635281e+00 -8.348067767355864532e+00 -8.407465714102954735e+00 -8.506413914188605929e+00 -8.498140011777536529e+00 -8.580517957615462876e+00 -8.623494431568961005e+00 -8.632458905635743918e+00 -8.664791389900884155e+00 -8.750224012880327251e+00 -8.750224012880327251e+00
2.312176062263282095e+00 1.512546850517103803e+00 1.274426143614984408e+00 5.397576936864808550e-01 1.540384800904687490e-01 1.869717781079017482e-01 1.640489415157533881e-01 1.377169274576308666e-01 1.812927952046404778e-01 5.004331448229509816e-01 5.828446698569423878e-01 5.828446698569423878e-01 5.481660502749026165e-01 4.354104791294905463e-01 5.269214185523107830e-01 7.692777284440828200e-01 1.028584664576068342e+00 9.770872452325727320e-01 8.892001999241593291e-01 8.837217919426859636e-01 8.427153416607856551e-01 7.683681439234374411e-01 4.038903101118461736e-01 4.038903101118461736e-01 2.470793353889080834e-01 2.493828860909344802e-01 3.272280310590794383e-01 5.049693447505305688e-01 7.715589376307745439e-01 7.849587941523437085e-01 8.145806035479398188e-01 8.530775778657708752e-01 8.920387272392039657e-01 9.942554695490543049e-01 1.154042547430757404e+00 1.154042547430757404e+00 1.403364873251614631e+00 1.469307819957586858e+00 1.469307819957586858e+00 1.001414222838104440e+00 4.335457170132624993e-01 2.883720943130615999e-01 -1.339733677892587238e-01 -1.018429232962600128e+00 -1.865635711919028328e+00 -1.884669431309902166e+00 -2.065827434202793356e+00 -2.156797741216876396e+00 -2.178029218880301432e+00 -2.242371794109204508e+00 -2.264390075547295211e+00 -2.348744402525683839e+00 -2.393608629904208307e+00 -2.160447841304969696e+00 -2.160447841304969696e+00 -1.964587860424306776e+00 -2.008455219350180343e+00 -2.189931731632656309e+00 -2.340282112015479754e+00 -2.542620879378497456e+00 -2.595155469392996572e+00 -3.058087520025058126e+00 -3.389338233804825240e+00 -3.457438088456489034e+00 -3.785141349913708986e+00 -4.138004533253627493e+00 -4.138004533253627493e+00 -4.492562021442330078e+00 -4.781308489151728125e+00 -4.828861404459284579e+00 -5.072670804515651000e+00 -5.374911018587912537e+00 -5.408798174106186352e+00 -5.634524156610979162e+00 -5.888698983364778705e+00 -5.888146287661514933e+00 -6.105363940133787359e+00 -6.347165119358705532e+00 -6.337970191659883845e+00 -6.503697423017205992e+00 -6.706868021242253342e+00 -6.706868021242253342e+00 -6.808771634220761371e+00 -6.923350684472709737e+00 -6.933577526270209290e+00 -7.064207541474944563e+00 -7.169213634603842422e+00 -7.166357096421107187e+00 -7.301370152585770157e+00 -7.432941317803490655e+00 -7.406230340587557137e+00 -7.538701680413998574e+00 -7.668172833665336086e+00 -7.668172833665336086e+00 -7.767775122277246425e+00 -7.868288285178795860e+00 -7.867293067771290893e+00 -7.965562197808305989e+00 -8.044179220380817341e+00 -8.036947865827787751e+00 -8.088704070393998080e+00 -8.177785828865902218e+00 -8.185761817945650165e+00 -8.275041402650115785e+00 -8.332657965175055637e+00 -8.332657965175055637e+00 -8.397110083979352879e+00 -8.481402317654925582e+00 -8.506413914188605929e+00 -8.567771990890154399e+00 -8.632524665731629909e+00 -8.623494431568961005e+00 -8.699326575345505574e+00 -8.745871134411876469e+00 -8.757731632301506863e+00 -8.854872086057005376e+00
1.839080777348962803e+00 1.839080777348962803e+00 1.018938162213277598e+00 2.244321135039079040e-01 1.540384800904687490e-01 2.129660910065524215e-01 1.709906405000664043e-01 1.377169274576308666e-01 4.013757023151932612e-01 4.823341628194073305e-01 5.394700527493494491e-01 6.435208970590184929e-01 6.948528717139785815e-01 5.700055145334473883e-01 5.311541728857526179e-01 9.923296067948286225e-01 1.025476513727799244e+00 1.039798817036749590e+00 9.942237563229896491e-01 8.945858519976859213e-01 8.945858519976859213e-01 8.102532355041880407e-01 6.075146429185181995e-01 3.331860738313962567e-01 6.898276536681379190e-01 1.031110270119620781e-01 5.865429041105289093e-02 6.213765605277863369e-01 8.023496598875350383e-01 7.336945686444824588e-01 8.311496678488654588e-01 9.220664807622718229e-01 9.220664807622718229e-01 1.033187561053828807e+00 1.232403011417471994e+00 1.253430322344610159e+00 1.503476955316963348e+00 1.158955849112660363e+00 9.052084357891033717e-01 6.197366775914683323e-01 1.617163412619198604e-01 5.606660367745864432e-03 -7.795358369867574355e-01 -1.769977542834503481e+00 -1.769977542834503481e+00 -2.140313750388587177e+00 -2.207781705784856108e+00 -2.156797741216876396e+00 -2.202984502446194259e+00 -2.163958465476705673e+00 -2.264390075547295211e+00 -2.291448947845949657e+00 -2.377492788919420619e+00 -2.352310591581432853e+00 -1.879841089220967598e+00 -1.864818364872253387e+00 -1.896294236647429576e+00 -2.134665461490699467e+00 -2.488428772207025297e+00 -2.488428772207025297e+00 -2.837056276283622669e+00 -3.303195515501344826e+00 -3.389338233804825240e+00 -3.664741116680279021e+00 -3.999422981373823127e+00 -4.071481394160540113e+00 -4.424683974149806076e+00 -4.670177942374282409e+00 -4.744351138723482464e+00 -5.032616630380472245e+00 -5.327360762604355315e+00 -5.327360762604355315e+00 -5.614252365250221644e+00 -5.854713477221000772e+00 -5.888698983364778705e+00 -6.125085507133336549e+00 -6.334546667958754540e+00 -6.347165119358705532e+00 -6.529502895681687846e+00 -6.693221507214812682e+00 -6.695762109248526883e+00 -6.837980133502105318e+00 -6.951470341572860256e+00 -6.951470341572860256e+00 -7.095652544533608719e+00 -7.195935564565187903e+00 -7.195935564565187903e+00 -7.311926387636955127e+00 -7.428703604380599401e+00 -7.432941317803490655e+00 -7.543196504797382573e+00 -7.657089820117249701e+00 -7.667759918836318356e+00 -7.809190567444835196e+00 -7.893993960040796232e+00 -7.899324469944417615e+00 -8.000032281635432341e+00 -8.063831327845321084e+00 -8.063831327845321084e+00 -8.142544824146987992e+00 -8.197398783996165506e+00 -8.177785828865902218e+00 -8.268579154231739281e+00 -8.355927387526259409e+00 -8.342720074945706443e+00 -8.380421007498334518e+00 -8.458889252174593310e+00 -8.449882914626162034e+00 -8.548532272239697249e+00 -8.629034722345485520e+00 -8.629034722345485520e+00 -8.683981494447303717e+00 -8.787540004019131601e+00 -8.745871134411876469e+00 -8.849377359944217147e+00 -8.950469858437241299e+00
1.571607957787909182e+00 1.329381807016494665e+00 6.013203094505361612e-01 2.059178955460757021e-01 2.030266534863476025e-01 1.992211109875687558e-01 2.664748605407054050e-01 3.639620577454516503e-01 6.413355858315569202e-01 5.856769330142571617e-01 5.856769330142571617e-01 6.812573661551717397e-01 7.134891028601917373e-01 5.700055145334473883e-01 5.940926396879995242e-01 1.026430912163011300e+00 1.025476513727799244e+00 1.042139368512349673e+00 1.016573927309531999e+00 9.455986261424420558e-01 9.237006213507275021e-01 7.366561405600007273e-01 7.366561405600007273e-01 5.545329730707327931e-01 6.701656523221890538e-01 6.701656523221890538e-01 8.381622214258668824e-02 5.646030329379517765e-01 8.023496598875350383e-01 8.102834715822450073e-01 8.188715047587811213e-01 8.617228203142991427e-01 9.741605770410134424e-01 1.043205545358599995e+00 1.133621346027461785e+00 1.438985576195759286e+00 1.306651944421601153e+00 1.306651944421601153e+00 5.150978462388894341e-01 1.891469257492562339e-01 1.617163412619198604e-01 -3.922170873869785801e-01 -1.327755878061760875e+00 -1.542733690892929443e+00 -2.040764760515411780e+00 -2.196133015019404056e+00 -2.217834976991138518e+00 -2.213450122329185810e+00 -2.163281703130362832e+00 -2.163281703130362832e+00 -2.120479814774389737e+00 -2.324863842133180203e+00 -2.377492788919420619e+00 -2.344866302805963088e+00 -2.204847286684500585e+00 -1.864818364872253387e+00 -2.073690814156293971e+00 -2.312998884657258003e+00 -2.438195713469864856e+00 -2.808220679421139288e+00 -3.088314664789467479e+00 -3.156469118940356200e+00 -3.545039497756373059e+00 -3.932752722874359730e+00 -3.932752722874359730e+00 -4.298785155653014556e+00 -4.622267210614214861e+00 -4.670177942374282409e+00 -4.980834944313481394e+00 -5.243109047299734371e+00 -5.270141206310769988e+00 -5.568770629668738259e+00 -5.812440412064373341e+00 -5.838090883495888228e+00 -6.104120966848096685e+00 -6.324225796162981972e+00 -6.324225796162981972e+00 -6.526970492185935946e+00 -6.733398536503284681e+00 -6.693221507214812682e+00 -6.857515282632670406e+00 -7.030677827362876720e+00 -6.979500018622764479e+00 -7.086547940212212460e+00 -7.256648188850106429e+00 -7.212862022397276363e+00 -7.359107923194962986e+00 -7.413224301097008251e+00 -7.413224301097008251e+00 -7.561270258769970276e+00 -7.657917402454804012e+00 -7.657089820117249701e+00 -7.782681653484649686e+00 -7.900530273795824954e+00 -7.893993960040796232e+00 -8.008463173302700966e+00 -8.123031757485382087e+00 -8.100128611530804434e+00 -8.148052491897738392e+00 -8.248476372572563164e+00 -8.257314791188102632e+00 -8.277443768545509784e+00 -8.350424715590156310e+00 -8.350424715590156310e+00 -8.414348349654982684e+00 -8.448696078092565287e+00 -8.458889252174593310e+00 -8.492300115149369333e+00 -8.598818518631496488e+00 -8.638266160057233023e+00 -8.677547586095540666e+00 -8.737943332778236538e+00 -8.762898243892141892e+00 -8.828560107431872694e+00 -8.945655909419432561e+00 -8.945655909419432561e+00
1.870413357829932233e+00 1.012936890184531258e+00 2.263324097136035218e-01 2.263324097136035218e-01 1.988438323155406195e-01 1.816857531414897697e-01 2.664748605407054050e-01 4.014421459310134610e-01 6.372386048809299819e-01 5.282332232378880166e-01 6.617613936083260873e-01 7.109918612846761743e-01 7.267444889908396544e-01 6.493637984577074196e-01 9.694373072293905880e-01 9.694373072293905880e-01 1.059938021769137428e+00 1.042552804982823211e+00 1.016573927309531999e+00 1.025934419553466759e+00 9.769590247454954524e-01 8.648159374886390527e-01 6.612426018318497967e-01 7.349689811563701047e-01 6.480702802983366873e-01 4.268988526201701883e-01 2.611179766053041418e-02 2.611179766053041418e-02 7.540978309770169918e-01 7.301498015822033283e-01 8.188715047587811213e-01 8.623430556969789995e-01 9.923873855120429743e-01 1.043205545358599995e+00 1.344637626861786783e+00 1.510049764355201773e+00 1.430338447978131811e+00 6.876091100763964681e-01 4.217208875909949084e-01 3.303924184192321700e-01 -1.189499939539169077e-01 -1.145153617050535200e+00 -1.145153617050535200e+00 -1.766513086567941038e+00 -2.142503005668438654e+00 -2.196133015019404056e+00 -2.290099101574067042e+00 -2.317025651992154156e+00 -2.210606248263675688e+00 -2.112020927491445210e+00 -2.038658927595524251e+00 -2.172233762604848017e+00 -2.345679230917085967e+00 -2.388586230058983961e+00 -2.388586230058983961e+00 -2.161369024180078480e+00 -2.231868411393837626e+00 -2.312998884657258003e+00 -2.620261175150558675e+00 -3.000137076591387952e+00 -3.088314664789467479e+00 -3.488139134734171698e+00 -3.792284927091146063e+00 -3.875061895886249275e+00 -4.240459310732115128e+00 -4.583616605999953464e+00 -4.583616605999953464e+00 -4.897832186811754696e+00 -5.204329654716030262e+00 -5.243109047299734371e+00 -5.502679650447825033e+00 -5.761513349087767466e+00 -5.812440412064373341e+00 -6.050408626038818127e+00 -6.303391260657620343e+00 -6.326137543487271309e+00 -6.530732911808009078e+00 -6.744935376662399840e+00 -6.737428132199175579e+00 -6.883088442093790782e+00 -7.030304043639420186e+00 -7.030304043639420186e+00 -7.230168463588685590e+00 -7.263913589570189622e+00 -7.256648188850106429e+00 -7.386858664655099105e+00 -7.515903957825184278e+00 -7.633830481857147632e+00 -7.612993729433569001e+00 -7.746729742671869090e+00 -7.853719477592525422e+00 -7.822406737883106587e+00 -7.927369563578228195e+00 -8.040415228295566763e+00 -8.018445216907400308e+00 -8.142049718925077784e+00 -8.218062101550406950e+00 -8.218062101550406950e+00 -8.255892553739412776e+00 -8.365568797198260853e+00 -8.317580262321790485e+00 -8.377503056434266071e+00 -8.452752730162647055e+00 -8.466286046239634544e+00 -8.467492542913378273e+00 -8.562811984707709101e+00 -8.546490829507350284e+00 -8.605013246944706040e+00 -8.710806584921654050e+00 -8.727772851643361918e+00 -8.753419359253030052e+00 -8.844644970208085155e+00 -8.844644970208085155e+00 -8.922441539158826984e+00 -9.045757789632659751e+00 -9.052710270285050598e+00
1.309718430027016822e+00 7.310446763321158947e-01 4.189734630479995947e-01 2.161388297492339572e-01 2.121089193461057065e-01 2.121089193461057065e-01 2.525643285691465123e-01 4.604702178427702575e-01 6.372386048809299819e-01 6.071576951928921995e-01 6.960941929994730604e-01 7.109918612846761743e-01 7.487579701746590599e-01 8.078264831452388606e-01 7.602335607214084634e-01 1.012027675075434008e+00 1.051841124276414519e+00 1.073057319477243698e+00 1.063179287515737315e+00 1.024205183102284256e+00 1.024205183102284256e+00 8.754604481299967933e-01 6.954203091258566172e-01 7.349689811563701047e-01 6.795687131372234457e-01 6.656871660411303182e-01 -6.163996326226266198e-02 1.433167064730398454e-01 7.721186042144158046e-01 8.143527550801263892e-01 8.524611115241185200e-01 9.382263234909238303e-01 9.382263234909238303e-01 1.111360699024837029e+00 1.563168339510687233e+00 1.510049764355201773e+00 1.100037709226009408e+00 5.502075554263965440e-01 4.217208875909949084e-01 -5.063484866763151571e-02 -7.933494150899382813e-01 -1.032567481219404337e+00 -1.778676088468929439e+00 -2.129667829715740535e+00 -2.129667829715740535e+00 -2.250215853541161604e+00 -2.336275278376784836e+00 -2.336275278376784836e+00 -2.232429981677145570e+00 -2.051952170573934087e+00 -2.038658927595524251e+00 -2.082909744469044977e+00 -2.281627198554350144e+00 -2.400423096792151600e+00 -2.524804047299145537e+00 -2.261275342784075715e+00 -2.390618471342018658e+00 -2.505260530133305075e+00 -2.915331686051160442e+00 -3.278471120726626609e+00 -3.341116169357991161e+00 -3.741840661305908977e+00 -4.106343050582988319e+00 -4.106343050582988319e+00 -4.469285654480929182e+00 -4.795129094768105560e+00 -4.844014521761055292e+00 -5.099661696512489684e+00 -5.406167163224010253e+00 -5.461332667513377537e+00 -5.754078010340185401e+00 -5.960588607876592171e+00 -6.023547832907311772e+00 -6.260890736310440019e+00 -6.499750299527050856e+00 -6.499750299527050856e+00 -6.709759873408844832e+00 -6.912516886287495055e+00 -6.903358345710955746e+00 -7.083758689723041790e+00 -7.232165199681358736e+00 -7.204142579199837471e+00 -7.326242562096586752e+00 -7.449016730346089687e+00 -7.429444784342880581e+00 -7.546098300151133031e+00 -7.662275570293113347e+00 -7.632576060094600656e+00 -7.784484116611813498e+00 -7.876519061084904294e+00 -7.876519061084904294e+00 -7.985930669508949364e+00 -8.062385239683734994e+00 -8.040415228295566763e+00 -8.140061421242464235e+00 -8.262259954915693427e+00 -8.240380023208038196e+00 -8.291927085289252375e+00 -8.366461584881701441e+00 -8.357873142363068553e+00 -8.428739961244723133e+00 -8.468262117602874284e+00 -8.468262117602874284e+00 -8.547056080740945916e+00 -8.582014144240249109e+00 -8.562811984707709101e+00 -8.662845425336641370e+00 -8.734222038774317909e+00 -8.710806584921654050e+00 -8.791298934641357476e+00 -8.876011522165061507e+00 -8.854189349965363220e+00 -8.939547945184152411e+00 -9.058186578991909599e+00 -9.058186578991909599e+00 -9.162814559476279541e+00
1.104141984670774068e+00 7.310446763321158947e-01 5.713426828664783796e-01 3.224115662219320666e-01 2.621352693983735049e-01 2.741217041291280632e-01 3.106010919436610895e-01 3.404951122455612822e-01 6.216180324239319877e-01 6.438638175170510181e-01 6.438638175170510181e-01 7.338987698106965718e-01 8.551916610725579515e-01 8.078264831452388606e-01 1.022873438312794203e+00 1.066581580684392350e+00 1.051841124276414519e+00 1.086176617185349969e+00 1.115906638110805371e+00 1.073114915024397042e+00 9.379433794652537459e-01 7.739618715144982453e-01 7.739618715144982453e-01 7.913860361899607287e-01 5.854677792139417747e-01 5.414123235726381322e-01 2.343368340287327878e-01 3.656903760011340765e-01 8.925756708625363078e-01 8.925756708625363078e-01 9.248445760420583861e-01 1.015129721957022113e+00 1.021820595681454780e+00 1.105414867871985507e+00 1.347674104231279424e+00 1.273395551272081594e+00 7.235653974724682858e-01 3.413137107131899994e-01 1.952913058260099810e-01 -5.619287607080367675e-01 -1.517541266467969496e+00 -1.517541266467969496e+00 -2.049179116936286071e+00 -2.196007455381849383e+00 -2.212423864973263932e+00 -2.264491096841753315e+00 -2.338443761168481405e+00 -2.294418070593871040e+00 -2.117406976411249975e+00 -2.011692979246536783e+00 -1.950952269604507405e+00 -2.133841505547208417e+00 -2.316529729394831261e+00 -2.316529729394831261e+00 -2.397669625442241159e+00 -2.446150867701489595e+00 -2.390618471342018658e+00 -2.769560128740085059e+00 -3.204695298609554488e+00 -3.278471120726626609e+00 -3.578810664815361253e+00 -3.962580620954172961e+00 -4.035630360892513480e+00 -4.395309715613964663e+00 -4.680434988045071520e+00 -4.747942915816701692e+00 -5.046608077220643196e+00 -5.345292614778474949e+00 -5.345292614778474949e+00 -5.643690652486261783e+00 -5.907376187024405034e+00 -5.960588607876592171e+00 -6.162098565172983378e+00 -6.420027486237955827e+00 -6.462373164096412381e+00 -6.676090376161776696e+00 -6.841819145054317985e+00 -6.875488642301387898e+00 -7.063530865960718330e+00 -7.208652379214991690e+00 -7.208652379214991690e+00 -7.350964812061266507e+00 -7.497632548343521108e+00 -7.449016730346089687e+00 -7.591689615839580796e+00 -7.694000813211195222e+00 -7.662275570293113347e+00 -7.776332474354972213e+00 -7.918246688415256251e+00 -7.890621197399786624e+00 -8.006679069513172209e+00 -8.084355251071901449e+00 -8.084355251071901449e+00 -8.162031432630632466e+00 -8.258765335424707033e+00 -8.262259954915693427e+00 -8.359868287442917989e+00 -8.398849203541372432e+00 -8.366461584881701441e+00 -8.472660525388224784e+00 -8.539899660167657558e+00 -8.497337086028997177e+00 -8.563354684121804894e+00 -8.657373097003098650e+00 -8.616445207959150920e+00 -8.693933009702806913e+00 -8.734566793889683822e+00 -8.734566793889683822e+00 -8.823265611630905170e+00 -8.908389559376328037e+00 -8.876011522165061507e+00 -8.974964228962141632e+00 -9.056640960549238173e+00 -9.033836432891945378e+00 -9.155740479933225373e+00 -9.272346490785162487e+00
8.154685399928730538e-01 6.786174570097167624e-01 2.671064495845024700e-01 2.691128725084573903e-01 1.538690813804026725e-01 2.489711531403897837e-01 3.967520497221622144e-01 3.967520497221622144e-01 6.986181955016552703e-01 7.265192627635903566e-01 7.103311798845022285e-01 8.094581299657062079e-01 9.658483154307926366e-01 9.944977282329314772e-01 1.100098318086572657e+00 1.138245911499227159e+00 1.121425965960314075e+00 1.135948652330422082e+00 1.075749733137184805e+00 1.075749733137184805e+00 9.356315036695614928e-01 7.910287645715825544e-01 7.163028025461771753e-01 7.146367327369560485e-01 5.419823881668676124e-01 5.414123235726381322e-01 -2.984919037272581663e-03 4.401800956054863212e-01 8.349817495308937687e-01 9.488756638288401435e-01 1.026174700377898930e+00 1.026174700377898930e+00 1.075829614015770153e+00 1.119633257846399665e+00 1.119633257846399665e+00 8.673204037754470574e-01 4.094024932095444713e-01 3.413137107131899994e-01 -1.098737926473134091e-01 -9.889946139158642957e-01 -1.185767489900757532e+00 -2.018667633896088276e+00 -2.177278460529625814e+00 -2.179591045790435722e+00 -2.249470826927533196e+00 -2.324193317992603980e+00 -2.324193317992603980e+00 -2.170611783055838462e+00 -1.980904465416424953e+00 -2.011692979246536783e+00 -1.854290409538019491e+00 -2.015716974008164630e+00 -2.163422640021003929e+00 -2.305576961727256347e+00 -2.306263463017631743e+00 -2.451771099466745873e+00 -2.743523419948366016e+00 -3.156493169755945072e+00 -3.156493169755945072e+00 -3.525076102150916491e+00 -3.890245384694392961e+00 -3.962580620954172961e+00 -4.252552015178792999e+00 -4.614858645663193926e+00 -4.680434988045071520e+00 -4.993554457928797596e+00 -5.219382348281110140e+00 -5.301364007308345450e+00 -5.589957412657818203e+00 -5.854163766172219674e+00 -5.854163766172219674e+00 -6.115979392602371334e+00 -6.377372372197469552e+00 -6.377372372197469552e+00 -6.594620032195489756e+00 -6.808149647807249849e+00 -6.841819145054317985e+00 -7.003266367961535011e+00 -7.192116951603064301e+00 -7.210855333994429017e+00 -7.345626592563289314e+00 -7.483904842335183716e+00 -7.490028439713361408e+00 -7.622848038624706390e+00 -7.710625477931160709e+00 -7.710625477931160709e+00 -7.813368595791319038e+00 -7.909766112173221231e+00 -7.918246688415256251e+00 -8.045615362707682294e+00 -8.128295273848237912e+00 -8.106325262460067904e+00 -8.184001444018798921e+00 -8.283647636965696393e+00 -8.261677625577529938e+00 -8.369530735070769722e+00 -8.436191551042028891e+00 -8.436191551042028891e+00 -8.477030616023990106e+00 -8.554421810664797121e+00 -8.539899660167657558e+00 -8.616230578867313028e+00 -8.672195562369754640e+00 -8.657373097003098650e+00 -8.706200678197758336e+00 -8.810697555252255952e+00 -8.778178955679866391e+00 -8.849161014709812534e+00 -8.931242410810598997e+00 -8.952733782227957349e+00 -8.998603685077089409e+00 -9.078831000938258455e+00 -9.078831000938258455e+00 -9.160688106863613456e+00 -9.268400483563249637e+00 -9.272346490785162487e+00
8.154685399928730538e-01 6.233887847618031497e-01 3.217336672914075102e-01 2.691128725084573903e-01 1.056323739496610875e-01 6.005322397758558473e-02 2.575191664935055913e-01 6.129668041801654699e-01 6.980974984173669018e-01 6.980974984173669018e-01 7.328669903403185470e-01 9.459058829366164822e-01 9.459058829366164822e-01 1.110708245387812987e+00 1.121784091814175266e+00 1.138245911499227159e+00 1.160403966360409322e+00 1.150204392914828677e+00 1.128300946950841377e+00 1.019726182021270189e+00 9.637026309053557949e-01 8.796079525536469879e-01 7.533389366097987816e-01 5.642086578063886249e-01 5.642086578063886249e-01 4.346878821527758174e-01 1.750731288627793703e-02 4.401800956054863212e-01 9.661868900014377592e-01 1.051701324494164425e+00 1.083408290984430700e+00 1.091700136633388274e+00 1.246846036117911893e+00 1.099991982282345848e+00 8.835967834855349423e-01 4.168558851018527300e-01 4.168558851018527300e-01 5.877204521968854012e-03 -7.905292236155581076e-01 -9.889946139158642957e-01 -1.606855881170775158e+00 -2.149291759887479447e+00 -2.177278460529625814e+00 -2.264382556336129948e+00 -2.354016776809797040e+00 -2.339105047401200732e+00 -1.997312856211353793e+00 -1.691765670339335337e+00 -1.905064396657520920e+00 -1.749261554167077293e+00 -1.887519351415245072e+00 -1.887519351415245072e+00 -2.073446238880969794e+00 -2.241864537012413727e+00 -2.306263463017631743e+00 -2.553755116199368125e+00 -2.986026010421618082e+00 -3.067138148456732161e+00 -3.447707792007052685e+00 -3.733834203274114749e+00 -3.818130291585941638e+00 -4.181781348238351903e+00 -4.538857419425016637e+00 -4.538857419425016637e+00 -4.882625814271760234e+00 -5.166030577841304705e+00 -5.219382348281110140e+00 -5.450191699483738716e+00 -5.752232355555621623e+00 -5.819908482603091571e+00 -6.074970761338143177e+00 -6.266557209875370127e+00 -6.338688613633687297e+00 -6.569304043454814668e+00 -6.773306777797379219e+00 -6.773306777797379219e+00 -6.964700348484240244e+00 -7.157605036909162166e+00 -7.192116951603064301e+00 -7.333481800203188072e+00 -7.457777669567885681e+00 -7.483904842335183716e+00 -7.611624869571675944e+00 -7.728814255365517027e+00 -7.727250142651126197e+00 -7.831022452800949551e+00 -7.950635220137046488e+00 -7.932348534659259265e+00 -8.048967771414561767e+00 -8.148394205815188585e+00 -8.148394205815188585e+00 -8.227941466795133607e+00 -8.305617648353864624e+00 -8.283647636965696393e+00 -8.383293829912595641e+00 -8.473634305058114435e+00 -8.545256275787838973e+00 -8.507535305673641801e+00 -8.587190176279433373e+00 -8.662280531447930088e+00 -8.651128822201648916e+00 -8.698730076847969173e+00 -8.786774092090636756e+00 -8.765111508551072461e+00 -8.834622109130199519e+00 -8.892127465193295777e+00 -8.892127465193295777e+00 -8.955614061711081320e+00 -9.065214247520254176e+00 -9.025480184111298598e+00 -9.120583006278348392e+00 -9.195924016303344217e+00 -9.175572899415463723e+00 -9.271867717793083941e+00 -9.384698674036036081e+00 -9.373584206824508769e+00
7.196634406427816488e-01 4.671442435425069983e-01 4.671442435425069983e-01 1.065996425463016234e-01 1.311524094074451030e-01 6.005322397758558473e-02 3.897662376957666819e-01 6.758378198491106215e-01 6.630433183846228262e-01 7.095745114469953485e-01 7.847240157166019969e-01 8.132995018963895539e-01 1.045337667848451613e+00 1.115102138067315840e+00 1.115102138067315840e+00 1.143410360991865771e+00 1.170836687719731151e+00 1.150204392914828677e+00 1.171954979754954884e+00 1.025791759077560483e+00 9.637026309053557949e-01 8.356074768565404653e-01 5.559164667969732632e-01 5.016517245990790297e-01 4.484501398431067765e-01 2.167207967725169604e-01 9.828926122700118451e-02 7.172510278149532015e-01 1.069857111726989274e+00 1.069857111726989274e+00 1.173555939809425075e+00 1.403814937452071199e+00 1.246846036117911893e+00 1.179914307034467091e+00 6.039102134350067264e-01 5.240933793751975101e-01 4.882366292563809079e-02 -3.174037566221402651e-01 -5.583428250814587157e-01 -1.531787120837908356e+00 -2.076264782529567476e+00 -2.076264782529567476e+00 -2.243105352008230469e+00 -2.372043794361328839e+00 -2.354016776809797040e+00 -2.415949082495898459e+00 -1.588655653644907018e+00 -1.691765670339335337e+00 -1.644232698796134873e+00 -1.790095640075030525e+00 -1.820580167674382910e+00 -2.042190276620848621e+00 -2.157873067750252893e+00 -2.157873067750252893e+00 -2.474745350021159140e+00 -2.891331739470250906e+00 -2.986026010421618082e+00 -3.280996073178347849e+00 -3.643448301750150442e+00 -3.733834203274114749e+00 -4.024881789064187920e+00 -4.394320786802934364e+00 -4.459405586351610218e+00 -4.814958553481758941e+00 -5.009496024865610408e+00 -5.322826004711905590e+00 -5.377175079772670507e+00 -5.654885786196713227e+00 -5.857185210627014804e+00 -5.969678235884714468e+00 -6.194425806117052957e+00 -6.448863665257451139e+00 -6.448863665257451139e+00 -6.681848795517895567e+00 -6.894169676543505432e+00 -6.930188433790338109e+00 -7.088581207521357896e+00 -7.273244540916735446e+00 -7.302448763501185880e+00 -7.463519899932720136e+00 -7.576841132925432376e+00 -7.587338874194356819e+00 -7.720500050647877366e+00 -7.882063678539253715e+00 -7.882063678539253715e+00 -7.968737485637823248e+00 -8.069834263075410519e+00 -8.056498053029837791e+00 -8.194301622283068909e+00 -8.269150925332331425e+00 -8.249911478183301838e+00 -8.327587659742031079e+00 -8.427233852688928550e+00 -8.405263841300762095e+00 -8.488873580674912489e+00 -8.578963564615646575e+00 -8.580862146042075977e+00 -8.616428987908953729e+00 -8.689417354935612181e+00 -8.689417354935612181e+00 -8.763331325814103678e+00 -8.810767828559189496e+00 -8.786774092090636756e+00 -8.874033100706849808e+00 -8.941373690666331697e+00 -8.916372665669403119e+00 -8.994811496469806045e+00 -9.077867458548311674e+00 -9.045288764181925956e+00 -9.142570808846272712e+00 -9.220530271047543636e+00 -9.220530271047543636e+00 -9.296908631037945625e+00 -9.382269202526202889e+00 -9.384698674036036081e+00 -9.483209772985080832e+00
7.546097200972585739e-01 6.195266386635189804e-01 3.004443264124644908e-01 2.822235730559824463e-01 2.734545768446347558e-01 3.215024931343400949e-01 7.008539687437593813e-01 7.008539687437593813e-01 7.513320222560031514e-01 7.563648726409777368e-01 7.847240157166019969e-01 8.703157934809002683e-01 9.904505153768100589e-01 1.077280462398341854e+00 1.141849285152908511e+00 1.196952327928080706e+00 1.174388779386207560e+00 1.141672454911455636e+00 1.076384255182859961e+00 1.076384255182859961e+00 8.744332126107660086e-01 6.407388128677886652e-01 5.559164667969732632e-01 4.902653571432963875e-01 2.543047953153442786e-01 2.167207967725169604e-01 5.671920023487313917e-02 1.052839648091950187e+00 1.053561613186752677e+00 1.199984841560317372e+00 1.364682636142819927e+00 1.364682636142819927e+00 1.320749636123519810e+00 6.243841126320701651e-01 3.689347589687203000e-01 3.590871994731757999e-01 -1.012387435046151196e-01 -1.054111561798320551e+00 -1.054111561798320551e+00 -1.826549340566639756e+00 -2.160240584207899772e+00 -2.179184845360361056e+00 -2.296755715059326963e+00 -2.296558889477321230e+00 -2.292939284981960313e+00 -2.088674645404766661e+00 -1.742371497183989426e+00 -1.582202502142466161e+00 -1.801139822955390990e+00 -1.961124393555367718e+00 -1.961124393555367718e+00 -2.181758610467396942e+00 -2.456607208558327482e+00 -2.496639391727033086e+00 -2.750633075374157244e+00 -3.177293619073684461e+00 -3.232018840268013449e+00 -3.576716465626854191e+00 -3.868138938176739483e+00 -3.946269517136935967e+00 -4.316421469030306213e+00 -4.650634148658917333e+00 -4.650634148658917333e+00 -4.950031843823721189e+00 -5.264421755462163510e+00 -5.322826004711905590e+00 -5.531496278051649007e+00 -5.799191455581599541e+00 -5.857185210627014804e+00 -6.163493112992211920e+00 -6.324025483707414352e+00 -6.375645733460173048e+00 -6.605184004339358594e+00 -6.776059137856107029e+00 -6.860567979832262964e+00 -7.050271652107088727e+00 -7.246973981252377683e+00 -7.246973981252377683e+00 -7.403688691518370391e+00 -7.555190971668040767e+00 -7.576841132925432376e+00 -7.703995646890312798e+00 -7.827136029794157679e+00 -7.840997112141621983e+00 -7.977497064879866429e+00 -8.115967740184398593e+00 -8.092579753874346693e+00 -8.209929050121854033e+00 -8.289986936754356606e+00 -8.289986936754356606e+00 -8.347634769809356925e+00 -8.449203864077096782e+00 -8.427233852688928550e+00 -8.526880045635827798e+00 -8.609048937030982174e+00 -8.578963564615646575e+00 -8.654321000533650832e+00 -8.725322670144263881e+00 -8.696869157581202714e+00 -8.770139252231064830e+00 -8.853673025461974433e+00 -8.853673025461974433e+00 -8.908016701754466027e+00 -8.999271187669506844e+00 -8.941373690666331697e+00 -9.029886992569512216e+00 -9.125299286425637035e+00 -9.077867458548311674e+00 -9.168764259114171367e+00 -9.260984308653416264e+00 -9.238893814493451373e+00 -9.313017031668429979e+00 -9.418489641722077366e+00 -9.422795192729960689e+00 -9.501361671809172904e+00 -9.600967586495970707e+00
7.546097200972585739e-01 4.298033303849410069e-01 8.871767647994401040e-02 2.792413312825561267e-01 3.876229554079157480e-01 4.104634305105095415e-01 6.902207806832796333e-01 7.163324138732380941e-01 7.697168014549732318e-01 8.015037408473838498e-01 8.192694639883453256e-01 9.493016696123236509e-01 1.051819941425640836e+00 1.084342466000481231e+00 1.197407663619502127e+00 1.196485314325221427e+00 1.196485314325221427e+00 1.162538047322450918e+00 1.037477250963172670e+00 9.763249420120070354e-01 6.810473362897589977e-01 3.807119376956774603e-01 4.172780053295397362e-01 4.463655378038879351e-01 4.403434481745960305e-03 1.687415611241187274e-03 8.548803522676557964e-01 1.186503521926336679e+00 1.186503521926336679e+00 1.346428799522327413e+00 1.322517848154891151e+00 1.334461980743905540e+00 9.545963459729702727e-01 4.099443440578590669e-01 3.689347589687203000e-01 -1.464681545685108943e-01 -6.936742289975819098e-01 -8.760677683097850554e-01 -1.709229084680028432e+00 -2.125707739280030761e+00 -2.125707739280030761e+00 -2.238587347880338196e+00 -2.300178493972682148e+00 -2.296558889477321230e+00 -2.146540188366270030e+00 -1.992901882759857690e+00 -1.742371497183989426e+00 -1.843214294872440151e+00 -1.996672766256302189e+00 -1.976258450390431687e+00 -2.141653016241941376e+00 -2.360256160001986458e+00 -2.399224149541165918e+00 -2.716870208186247027e+00 -3.087573977548588644e+00 -3.087573977548588644e+00 -3.449581674879110160e+00 -3.790008359216542999e+00 -3.868138938176739483e+00 -4.149828941669900573e+00 -4.510546099123061481e+00 -4.594325170138720438e+00 -4.888992716852095910e+00 -5.123779886824455509e+00 -5.184819013796081677e+00 -5.493783468234513911e+00 -5.747711643258806902e+00 -5.747711643258806902e+00 -6.017661461177143956e+00 -6.286523113830840614e+00 -6.324025483707414352e+00 -6.523175361359938584e+00 -6.722849194929746197e+00 -6.776059137856107029e+00 -7.043724353410269146e+00 -7.157890636684671293e+00 -7.203914043627444030e+00 -7.394632249993697393e+00 -7.537750053961619123e+00 -7.537750053961619123e+00 -7.714534769309618234e+00 -7.821533331511039577e+00 -7.821533331511039577e+00 -7.967596028633042948e+00 -8.106171149129167475e+00 -8.115967740184398593e+00 -8.269845695473748037e+00 -8.317376945559116663e+00 -8.323199447054605571e+00 -8.393421796462488871e+00 -8.475502145200323412e+00 -8.438684510432377550e+00 -8.548850057023994253e+00 -8.626526238582725270e+00 -8.626526238582725270e+00 -8.694623432146180164e+00 -8.763343673701609049e+00 -8.725322670144263881e+00 -8.806407393268392170e+00 -8.877997973014197797e+00 -8.875533829426558441e+00 -8.918208688108578031e+00 -9.027099926633198379e+00 -8.984062831407717553e+00 -9.047753708511521609e+00 -9.106068677637804143e+00 -9.106068677637804143e+00 -9.197083264695930183e+00 -9.290175178104847831e+00 -9.260984308653416264e+00 -9.357204622708554353e+00 -9.430110047033515741e+00 -9.418489641722077366e+00 -9.495493347281806606e+00 -9.610957801553198010e+00 -9.591929484154821495e+00
6.405601787148054171e-01 2.724412434197357458e-01 1.069946323006988748e-01 9.238883319448118470e-02 3.035645442333719801e-01 7.477397970861556775e-01 7.477397970861556775e-01 7.169427158217496210e-01 7.799062926580594413e-01 8.015037408473838498e-01 8.428198782364456632e-01 1.031605004110691226e+00 1.051819941425640836e+00 1.183482979978534466e+00 1.193772721730689268e+00 1.198278167778221714e+00 1.176704037479495923e+00 1.067859649188272808e+00 1.067859649188272808e+00 7.884929176523324257e-01 4.099339884024428837e-01 4.099339884024428837e-01 2.479674552823502576e-01 3.233925601292340635e-01 4.403434481745960305e-03 1.804367170756020489e-01 1.016047248226698452e+00 1.116616501971387176e+00 1.297271173872894146e+00 1.444821670842526551e+00 1.484892226205384747e+00 9.824379035114241265e-01 5.052410518433764208e-01 5.052410518433764208e-01 1.632768712796745791e-01 -4.936877414132760933e-01 -6.936742289975819098e-01 -1.337904339376091434e+00 -2.037528083772381038e+00 -2.070579204962153419e+00 -2.208258357068115796e+00 -2.297051656015243193e+00 -2.332054955524569095e+00 -2.231447478671318763e+00 -2.105757061294043275e+00 -2.105757061294043275e+00 -1.980066643916767566e+00 -2.027119852330870664e+00 -1.996672766256302189e+00 -2.104219111614893389e+00 -2.240351069941611595e+00 -2.360256160001986458e+00 -2.645320550070617394e+00 -2.949322801891126833e+00 -3.020714326989999421e+00 -3.387466663434749226e+00 -3.745830049846464505e+00 -3.745830049846464505e+00 -4.087389043397005040e+00 -4.426566060485857435e+00 -4.426566060485857435e+00 -4.768285575953950861e+00 -5.064993611099367854e+00 -5.123779886824455509e+00 -5.358888709458335065e+00 -5.643415770994715253e+00 -5.696231830936015150e+00 -5.966181648854351316e+00 -6.148995286439568275e+00 -6.223096212597964971e+00 -6.476431300689397652e+00 -6.679142958428020194e+00 -6.679142958428020194e+00 -6.886948168532141423e+00 -7.106397653941353809e+00 -7.157890636684671293e+00 -7.307349317984417780e+00 -7.475033566937501206e+00 -7.505068297230591767e+00 -7.664355341774746755e+00 -7.791225212202144590e+00 -7.814600024499134712e+00 -7.934520724179232154e+00 -8.092421722268079876e+00 -8.092421722268079876e+00 -8.233409645922389331e+00 -8.338423006799992265e+00 -8.317376945559116663e+00 -8.405426035002454555e+00 -8.499064099842682296e+00 -8.475502145200323412e+00 -8.567720492572796331e+00 -8.670466261359059956e+00 -8.648496249970891725e+00 -8.729224293387053635e+00 -8.810860951472578861e+00 -8.800924760334318364e+00 -8.834216352379572257e+00 -8.894292166844470771e+00 -8.894292166844470771e+00 -8.984852147976624792e+00 -9.025649547657968341e+00 -9.027099926633198379e+00 -9.099816982075239480e+00 -9.158513081802333033e+00 -9.145041924719636839e+00 -9.240669533840584648e+00 -9.308279858782878335e+00 -9.402324919651322332e+00 -9.380758487009231317e+00 -9.461118506200024925e+00 -9.547203062398601503e+00 -9.534591159186245335e+00 -9.609021219331111752e+00 -9.698778503504829729e+00 -9.698778503504829729e+00
5.071458080904545085e-01 1.484022329702855136e-01 1.069946323006988748e-01 1.530999816564433402e-01 2.546922348900504396e-01 5.290967219881183015e-01 7.635864963602806421e-01 7.752236711103557276e-01 7.710543778683645044e-01 7.832221397611127678e-01 9.773559620970865280e-01 9.773559620970865280e-01 1.154477699097061327e+00 1.193342838512151616e+00 1.193772721730689268e+00 1.244955582816338335e+00 1.199883098596839615e+00 1.143373101187922902e+00 9.654711323558579084e-01 3.317764562393630823e-01 3.655600708811843624e-01 1.835638940026713128e-01 3.668433251546298068e-01 3.668433251546298068e-01 -6.821517554181888432e-02 8.732985684000221793e-01 1.016047248226698452e+00 1.172323467448204593e+00 1.399873255960581542e+00 1.444821670842526551e+00 1.223855989192507820e+00 8.141703354367536560e-01 6.505439945459959850e-01 1.943302692625998307e-01 -9.974563905660749352e-02 -3.775767530917460979e-01 -1.204367471313287474e+00 -1.894214070736714772e+00 -1.894214070736714772e+00 -2.153361325274476545e+00 -2.262048356505916402e+00 -2.297051656015243193e+00 -2.297103929513863108e+00 -2.378394960139791792e+00 -2.255221317249803903e+00 -2.139922259991342557e+00 -2.439951863813993871e+00 -2.147444453273883447e+00 -2.137027013538834730e+00 -2.216182011215415137e+00 -2.216182011215415137e+00 -2.476676294629372777e+00 -2.872166117944879637e+00 -2.949322801891126833e+00 -3.170615147025960034e+00 -3.583418208143462458e+00 -3.662022273182719445e+00 -4.008187011354966245e+00 -4.271534148564581024e+00 -4.354502182185876258e+00 -4.700817353016786271e+00 -5.009840365594989464e+00 -5.009840365594989464e+00 -5.289426609426007175e+00 -5.573020979091249494e+00 -5.643415770994715253e+00 -5.830324987754609722e+00 -6.074894360281171579e+00 -6.148995286439568275e+00 -6.338732763991601793e+00 -6.562814621725004294e+00 -6.644125008479702110e+00 -6.838884223863328060e+00 -6.998831167710442891e+00 -7.052614410825897906e+00 -7.272373608697291658e+00 -7.435963821163108278e+00 -7.554588977022664409e+00 -7.606830635400416263e+00 -7.763725838699320647e+00 -7.931951250482344840e+00 -7.931951250482344840e+00 -8.039648655169301605e+00 -8.174128913102114424e+00 -8.207387818335600826e+00 -8.324891203281133301e+00 -8.405879673485074477e+00 -8.411230457924606441e+00 -8.499492057660276600e+00 -8.599361324041339572e+00 -8.581784355594390235e+00 -8.658192186502915888e+00 -8.770112454305957428e+00 -8.770112454305957428e+00 -8.849421736529308191e+00 -8.911493254692718580e+00 -8.872248776262411596e+00 -8.943110034614882409e+00 -8.991906642999639487e+00 -8.985856693797330763e+00 -9.068458349673850449e+00 -9.133090407207356876e+00 -9.140609766283978033e+00 -9.196510417073195498e+00 -9.262766249592703005e+00 -9.262766249592703005e+00 -9.351844597086216737e+00 -9.418900721755557370e+00 -9.418900721755557370e+00 -9.498140882390318396e+00 -9.576030086509526029e+00 -9.547203062398601503e+00 -9.661187870766363872e+00 -9.719432828469800612e+00 -9.716329660971712912e+00 -9.807557957940106874e+00
2.180224825419695145e-01 2.180224825419695145e-01 3.594803495189606568e-02 1.781542173886921376e-01 2.546922348900504396e-01 5.752430044987669744e-01 7.520723877603299190e-01 7.752236711103557276e-01 7.956972896945383456e-01 8.288749215337565257e-01 8.745607860072689421e-01 1.102382209233226718e+00 1.144323550423424152e+00 1.179919133966044198e+00 1.195400615109074138e+00 1.221901866443219076e+00 1.221901866443219076e+00 1.131112178362844833e+00 6.486483736884700591e-01 3.317764562393630823e-01 -2.440360344439672369e-01 2.909600346638765433e-01 3.881774893653717751e-01 1.141954475472413827e-01 8.161717290879328957e-01 9.167594085500953005e-01 1.178398373582673297e+00 1.293137776620375545e+00 1.293137776620375545e+00 1.314978498782613192e+00 9.758114703618567809e-01 8.141703354367536560e-01 4.696160823729079170e-01 -2.651869883936260747e-02 -9.974563905660749352e-02 -1.126065928751643241e+00 -1.666522330107424565e+00 -1.802205205355667417e+00 -2.185200763118022582e+00 -2.228487685696841858e+00 -2.228487685696841858e+00 -2.267541308616606521e+00 -2.295577748740838864e+00 -2.378394960139791792e+00 -2.362541660311962666e+00 -2.385137876683359970e+00 -2.456028853755375163e+00 -2.456028853755375163e+00 -2.354334708246198726e+00 -2.087775649409790546e+00 -2.268044544150872976e+00 -2.559372156396355624e+00 -3.059608599218528013e+00 -3.161349746955409046e+00 -3.497079399953856083e+00 -3.790793821000713493e+00 -3.882063500211369700e+00 -4.232677928484068097e+00 -4.535283773861483958e+00 -4.535283773861483958e+00 -4.871159912994327712e+00 -5.149571137221126804e+00 -5.219964509393679286e+00 -5.428224336076766576e+00 -5.669852865234376260e+00 -5.753290306350486105e+00 -6.003195599227098000e+00 -6.176200812388707995e+00 -6.271995229048300757e+00 -6.485405161215863856e+00 -6.718535594136732847e+00 -6.718535594136732847e+00 -6.954237418712205354e+00 -7.162376568421552570e+00 -7.211345665724477882e+00 -7.354581008441707368e+00 -7.518939558671585921e+00 -7.554588977022664409e+00 -7.731993143464600315e+00 -7.874781416828283476e+00 -7.908219316164673884e+00 -8.038363918320859725e+00 -8.140251083854732173e+00 -8.155125313203070547e+00 -8.308604487542034178e+00 -8.401864098648262669e+00 -8.401864098648262669e+00 -8.493848911100954524e+00 -8.589689524395943465e+00 -8.599361324041339572e+00 -8.701234869232402858e+00 -8.791783231277406685e+00 -8.745861014191042671e+00 -8.868720169310771340e+00 -8.959563469818721870e+00 -8.927835406363655579e+00 -8.981153878823214143e+00 -9.022915426040224673e+00 -9.022915426040224673e+00 -9.093715414580465506e+00 -9.175851011779785793e+00 -9.133090407207356876e+00 -9.254119605934755910e+00 -9.309683766012266659e+00 -9.269318749519269929e+00 -9.353165225450256415e+00 -9.463890171726815126e+00 -9.431218729566705150e+00 -9.514197749584601738e+00 -9.593826239138760315e+00 -9.593826239138760315e+00 -9.664296077763687265e+00 -9.758366458249254194e+00 -9.719432828469800612e+00 -9.821735918356935713e+00 -9.901568404999729012e+00
3.435471175326324511e-01 1.420043090895593829e-01 1.033142779248719112e-01 7.716440237453162099e-02 4.441851333138875368e-01 6.968996219079233168e-01 6.968996219079233168e-01 7.843926788708055486e-01 8.378153559413752394e-01 8.288749215337565257e-01 9.272576958175192674e-01 1.080647208898300349e+00 1.144323550423424152e+00 1.205884038454552609e+00 1.226983339161445308e+00 1.166509293974449468e+00 1.155396305348324937e+00 8.631099381884382860e-01 -2.216050013418201792e-01 -3.665759703517956769e-02 2.577437665572748227e-01 5.651050186908661566e-01 6.466903372279244611e-01 4.153245141112583694e-01 1.056468698242554405e+00 1.056468698242554405e+00 1.210865021091074079e+00 1.246209960682362450e+00 1.219337983444242601e+00 1.232888446976908803e+00 7.960262000980313779e-01 6.297159612671614504e-01 8.715432422568165916e-02 -3.134723071772170799e-01 -7.514919683014159579e-01 -1.460876614293825204e+00 -2.128855442851462776e+00 -2.128855442851462776e+00 -2.237861073503897291e+00 -2.322702388768538739e+00 -2.296105621031976796e+00 -2.183122710565569946e+00 -2.154672153380701616e+00 -2.264700540630229852e+00 -2.281913946367684520e+00 -2.278014503399861113e+00 -2.378644953758033420e+00 -2.452999686396308832e+00 -2.312884954813638316e+00 -2.312884954813638316e+00 -2.266958390618310837e+00 -2.910290209627517832e+00 -3.059608599218528013e+00 -3.333212299475746931e+00 -3.682025021788746244e+00 -3.790793821000713493e+00 -4.063584864318777079e+00 -4.375394600155192215e+00 -4.470524937712752944e+00 -4.784076228914140749e+00 -4.999618240562440086e+00 -5.086818610410748676e+00 -5.336257573255035247e+00 -5.611130291848491325e+00 -5.611130291848491325e+00 -5.864210025333175480e+00 -6.102318786200068068e+00 -6.176200812388707995e+00 -6.339471949880445933e+00 -6.566591238505729677e+00 -6.687650419330465112e+00 -6.893222707484579992e+00 -7.011450988726245726e+00 -7.093800146428838715e+00 -7.295790388863757414e+00 -7.474897256713182614e+00 -7.474897256713182614e+00 -7.643945312627268507e+00 -7.808081417408261338e+00 -7.874781416828283476e+00 -7.990230224421208227e+00 -8.145857079126473721e+00 -8.140251083854732173e+00 -8.282755660162495204e+00 -8.362023112800262226e+00 -8.385677585259385225e+00 -8.479042759749562563e+00 -8.579994517362905526e+00 -8.579994517362905526e+00 -8.647576987873758725e+00 -8.742962535659700052e+00 -8.791783231277406685e+00 -8.821282357206142066e+00 -8.917128787590945294e+00 -8.959563469818721870e+00 -9.014941615216855553e+00 -9.062479325002978925e+00 -9.052003716850194337e+00 -9.094719960401171477e+00 -9.205846814107113474e+00 -9.200569589542890725e+00 -9.246178749086142901e+00 -9.339966308269138651e+00 -9.339966308269138651e+00 -9.386460822430207074e+00 -9.464479275705114603e+00 -9.463890171726815126e+00 -9.548999984874674496e+00 -9.607514983391617136e+00 -9.610890884517804267e+00 -9.690941666819030686e+00 -9.750175694598139486e+00 -9.790617419531592702e+00 -9.834891028504715749e+00 -9.912476542204842644e+00 -9.912476542204842644e+00
3.253599140797346911e-01 2.887070339920385503e-02 2.192257189850434773e-01 2.192257189850434773e-01 6.244158654373976880e-01 7.265566487982755284e-01 7.590476624653305082e-01 7.951263782839058658e-01 8.806289471302894967e-01 8.896756715112509317e-01 1.057968490270747575e+00 1.085495118026781558e+00 1.133600956834792228e+00 1.191370065632884057e+00 1.203876536072813863e+00 1.203876536072813863e+00 1.078231097617490919e+00 -8.411288245133322072e-02 -2.216050013418201792e-01 -9.667289670416900904e-02 4.977634518904077154e-01 5.651050186908661566e-01 9.320308969642730756e-02 1.045345681386400827e+00 1.021420278581640195e+00 1.216497974200884791e+00 1.342891369565847537e+00 1.342891369565847537e+00 1.298024129424590223e+00 8.466889507629196121e-01 7.960262000980313779e-01 4.464850526088863791e-01 -1.990460343486517569e-01 -3.134723071772170799e-01 -1.187943039403382972e+00 -1.881060646488003307e+00 -2.001235099307074883e+00 -2.251528152139405492e+00 -2.317516079733252354e+00 -2.317707886138068218e+00 -2.323775244284244756e+00 -2.059971090204270272e+00 -2.059971090204270272e+00 -2.017958939468215362e+00 -2.133798169173493520e+00 -2.278014503399861113e+00 -2.281361042016508023e+00 -2.546073980069468501e+00 -2.537816830670974078e+00 -2.258601145473921434e+00 -2.520757724111051701e+00 -2.686324288504951419e+00 -3.254783332027229914e+00 -3.616146511006538056e+00 -3.616146511006538056e+00 -3.977883727686782667e+00 -4.302656852237923601e+00 -4.375394600155192215e+00 -4.614084965007504202e+00 -4.918613662277629750e+00 -4.999618240562440086e+00 -5.275830717765417788e+00 -5.460947949733236051e+00 -5.525836183272639701e+00 -5.763959671663901219e+00 -6.026797376101544756e+00 -6.026797376101544756e+00 -6.258610918312267124e+00 -6.497121028898257933e+00 -6.497121028898257933e+00 -6.723352994858380782e+00 -6.948111846717341500e+00 -7.011450988726245726e+00 -7.175907911411305129e+00 -7.357945172842466519e+00 -7.427557243748072580e+00 -7.588613109746131791e+00 -7.712186034238332155e+00 -7.760920422452247003e+00 -7.935275757673064589e+00 -8.090290182940549357e+00 -8.090290182940549357e+00 -8.228877989909666013e+00 -8.333287207698655052e+00 -8.362023112800262226e+00 -8.431111063574135756e+00 -8.511554892174338249e+00 -8.528642502726750507e+00 -8.625137297610237397e+00 -8.687419763557315378e+00 -8.730171423167220723e+00 -8.827357539088980687e+00 -8.869994361276422268e+00 -8.869994361276422268e+00 -8.982682179953961565e+00 -9.064408880272294411e+00 -9.062479325002978925e+00 -9.097332473872503655e+00 -9.153749589855880942e+00 -9.205846814107113474e+00 -9.262754917562581625e+00 -9.302320591415835338e+00 -9.338832611238226278e+00 -9.386816215880406489e+00 -9.425635661368167106e+00 -9.436486570907286264e+00 -9.515656195604584866e+00 -9.602284030926263370e+00 -9.602284030926263370e+00 -9.657194765313509066e+00 -9.734315715782507539e+00 -9.750175694598139486e+00 -9.831389813159127300e+00 -9.885036644382532600e+00 -9.912098719269083702e+00 -9.997234655837146988e+00
1.278599055330505441e-01 3.115190750854594792e-02 1.279012954893219423e-01 4.325522059243215867e-01 6.976629636680564683e-01 6.976629636680564683e-01 7.743065859634552517e-01 8.871635490402944857e-01 8.871635490402944857e-01 9.397151124926649279e-01 1.035844289896316051e+00 1.085495118026781558e+00 1.111020843387759527e+00 1.188108222205793707e+00 1.206873886765581716e+00 1.084039006275906214e+00 7.341790392636786677e-01 4.922747653940527934e-01 1.138737243824128609e-01 3.514746762580190365e-01 3.514746762580190365e-01 5.892879959778349885e-01 9.374318851084482151e-01 1.045345681386400827e+00 1.114546968522850623e+00 1.219397781680582993e+00 1.326045496933453638e+00 1.397981792544039203e+00 1.029689505354439927e+00 9.602152560898762346e-01 5.805407375443517592e-01 3.305579515647166788e-03 3.305579515647166788e-03 -8.644873109760657925e-01 -1.703408180310334474e+00 -1.881060646488003307e+00 -2.180880956101507451e+00 -2.283297077275251663e+00 -2.317516079733252354e+00 -2.392173691243971057e+00 -2.162145443338468365e+00 -2.088355147278945001e+00 -1.836453632960026061e+00 -1.848819917037172633e+00 -1.979769216608528337e+00 -2.130975733545708017e+00 -2.339197352914130335e+00 -2.339197352914130335e+00 -2.456128431036570525e+00 -2.592201333690114851e+00 -2.520757724111051701e+00 -3.122051445538321257e+00 -3.485019179909464526e+00 -3.526682265679992767e+00 -3.886790135497806276e+00 -4.141354177401889380e+00 -4.232989229492060801e+00 -4.565843568984504941e+00 -4.851037722735353164e+00 -4.851037722735353164e+00 -5.117250015880088654e+00 -5.390873808383171983e+00 -5.460947949733236051e+00 -5.630036413199822398e+00 -5.858288064154686836e+00 -5.935756490863461465e+00 -6.174971774050460382e+00 -6.328734931207463887e+00 -6.409832202889257147e+00 -6.650333566225262061e+00 -6.887675000749517551e+00 -6.887675000749517551e+00 -7.074580869811152972e+00 -7.341025715674045493e+00 -7.357945172842466519e+00 -7.470653358553790646e+00 -7.673313150263623150e+00 -7.712186034238332155e+00 -7.884451919588146396e+00 -8.018255643402698141e+00 -8.069079481487616334e+00 -8.197138650602664001e+00 -8.275815397495438930e+00 -8.304551302597047879e+00 -8.402375158472528582e+00 -8.498676713175241204e+00 -8.498676713175241204e+00 -8.561700545201734514e+00 -8.667248838213016171e+00 -8.759107977102038589e+00 -8.759107977102038589e+00 -8.862931846900556465e+00 -8.902839261158755235e+00 -8.949973687473276485e+00 -9.000660480750974912e+00 -9.088515184916547085e+00 -9.095572059101945328e+00 -9.136297118876221646e+00 -9.178885610871654777e+00 -9.231594146585321070e+00 -9.288319188304461349e+00 -9.353451280138006751e+00 -9.353451280138006751e+00 -9.409125829426853826e+00 -9.462988796258203550e+00 -9.494257673759944893e+00 -9.537779350063919637e+00 -9.628006728194995034e+00 -9.633615511735666104e+00 -9.726269907877734155e+00 -9.762172160434843704e+00 -9.773100011034706824e+00 -9.838899584954102551e+00 -9.931767250956990978e+00 -9.931767250956990978e+00 -1.001666150146191292e+01
1.887581361977570260e-01 3.115190750854594792e-02 6.183257150707058281e-02 5.349724066742321815e-01 7.035486458338795490e-01 8.602193344619769588e-01 8.974171424708418110e-01 8.936981509502995857e-01 9.462497144026699170e-01 9.849075346160538480e-01 9.849075346160538480e-01 1.056974141184038540e+00 1.134143811228956134e+00 1.188108222205793707e+00 1.175380835327697548e+00 9.347584326971353219e-01 7.341790392636786677e-01 7.308579687731980856e-02 3.747466304179376539e-01 1.933093825688840528e-01 2.748663023594389854e-01 8.247818991862402305e-01 6.147602514970263998e-01 1.038726086852759023e+00 1.147334699416084014e+00 1.147334699416084014e+00 1.245953217683196002e+00 1.112063948520777057e+00 1.029689505354439927e+00 7.973222047776052923e-01 3.375878282036496314e-01 1.388585857152130343e-01 -5.808233265931409539e-01 -1.301069506963455247e+00 -1.553350767568285828e+00 -2.125214225012684643e+00 -2.242725936416533727e+00 -2.242725936416533727e+00 -2.358625744785828093e+00 -2.198342702176367069e+00 -2.162145443338468365e+00 -1.906824761405247370e+00 -1.713129717523736550e+00 -1.848819917037172633e+00 -1.964301281586883885e+00 -1.931040299201487898e+00 -2.107620073129613303e+00 -2.277164035308766543e+00 -2.678842729696004898e+00 -2.678842729696004898e+00 -2.953905475690825622e+00 -3.386164234564716935e+00 -3.485019179909464526e+00 -3.721652017712244742e+00 -4.057337367090831926e+00 -4.141354177401889380e+00 -4.369741706359629774e+00 -4.672856932870715241e+00 -4.963988576241471939e+00 -5.040619296060779853e+00 -5.229495235419453714e+00 -5.483233841076553539e+00 -5.559029546770782204e+00 -5.788416851602898205e+00 -5.945828114950092669e+00 -6.015699327501881299e+00 -6.244747005059012146e+00 -6.485927633447762908e+00 -6.485927633447762908e+00 -6.712359702544203444e+00 -6.938791771640643091e+00 -7.019728219888211385e+00 -7.164717637713872378e+00 -7.389462513377717201e+00 -7.426729619650072500e+00 -7.613927416330776410e+00 -7.756815327349302791e+00 -7.792517190911908642e+00 -7.959823144937814732e+00 -8.125826939992393250e+00 -8.125826939992393250e+00 -8.247079492393831757e+00 -8.344903348269314236e+00 -8.373639253370921409e+00 -8.442727204144796715e+00 -8.540551060020279195e+00 -8.546733668261749628e+00 -8.643908159895028476e+00 -8.708759282596753692e+00 -8.727262539240872030e+00 -8.813353683260434224e+00 -8.893351370522148969e+00 -8.887865671925537114e+00 -8.982818587355605899e+00 -9.072797585284497757e+00 -9.072797585284497757e+00 -9.127344233308111399e+00 -9.163061486543615075e+00 -9.178885610871654777e+00 -9.257281219501310332e+00 -9.321849801260983170e+00 -9.338037622189855114e+00 -9.422992557042974227e+00 -9.435413523012911696e+00 -9.455788878482728421e+00 -9.521293448820474126e+00 -9.598700023961406202e+00 -9.598700023961406202e+00 -9.660788540093674825e+00 -9.755899263060594961e+00 -9.762172160434843704e+00 -9.796101918024739064e+00 -9.851074720373302895e+00 -9.910702460072164044e+00 -9.986029344555678477e+00 -1.003433394926840805e+01
2.840193127520654337e-01 2.112301983066514066e-01 3.277471254341186579e-01 3.277471254341186579e-01 7.036500073408251676e-01 8.039945342538425965e-01 8.974171424708418110e-01 8.998714289713584114e-01 9.431855222865432875e-01 9.766622231191512959e-01 1.020531220507524983e+00 1.056056127583933968e+00 1.075086396750863038e+00 1.133461214958679131e+00 9.660919708430681929e-01 9.660919708430681929e-01 4.090211250052088188e-01 2.014745239135479205e-01 3.747466304179376539e-01 6.292787622908494471e-01 5.122712787179649618e-01 8.247818991862402305e-01 9.816536122434265099e-01 9.993856148988882193e-01 1.084508672135209739e+00 1.178127236000378497e+00 1.236444240892084157e+00 8.934669210949757190e-01 8.839478692917053237e-01 4.754903147504811467e-01 8.730267504900363074e-02 -1.709926065661118155e-01 -1.037562639108525975e+00 -1.962936828459941996e+00 -1.962936828459941996e+00 -2.153224055132302528e+00 -2.260841107421200924e+00 -2.286830994046109566e+00 -2.344578781912705523e+00 -2.003985626751036975e+00 -1.983942625568835938e+00 -1.721327284456389384e+00 -1.716341483127240330e+00 -1.730923824382360365e+00 -1.896130470026846426e+00 -2.064175205063262020e+00 -2.064175205063262020e+00 -2.490953467366694873e+00 -2.872149959882625669e+00 -2.917561750947697430e+00 -3.240672897947438624e+00 -3.560505394677566215e+00 -3.634710857791895400e+00 -3.973594131954720776e+00 -4.230585607284471195e+00 -4.289366379360557424e+00 -4.598204686541522257e+00 -4.903936376441026646e+00 -4.903936376441026646e+00 -5.166210459501360930e+00 -5.425621644777095298e+00 -5.483233841076553539e+00 -5.651982398074337333e+00 -5.875956902398304926e+00 -5.945828114950092669e+00 -6.173110590849073986e+00 -6.335350419306767122e+00 -6.407190063193314522e+00 -6.633622132289755058e+00 -6.783733851664617731e+00 -6.860757580970576086e+00 -7.087087551991992029e+00 -7.315684728610805543e+00 -7.315684728610805543e+00 -7.502620529982991116e+00 -7.704441716480249447e+00 -7.756815327349302791e+00 -7.864124555416218243e+00 -8.060564637210028138e+00 -8.083857680653572686e+00 -8.218343587292224584e+00 -8.287431538066099890e+00 -8.316167443167707063e+00 -8.413991299043189542e+00 -8.511815154918672022e+00 -8.511815154918672022e+00 -8.589259605020993504e+00 -8.673023216617934850e+00 -8.708759282596753692e+00 -8.763279091711980939e+00 -8.846134821246771196e+00 -8.893351370522148969e+00 -8.935684161041084650e+00 -9.015902841539197965e+00 -9.020827593669002553e+00 -9.112621489560799759e+00 -9.150246355010359878e+00 -9.150246355010359878e+00 -9.207029380218486381e+00 -9.308837799738595820e+00 -9.321849801260983170e+00 -9.368032841221516804e+00 -9.452987698966543562e+00 -9.435413523012911696e+00 -9.485555024774587451e+00 -9.548329223881003358e+00 -9.559902504523250855e+00 -9.651923403387655753e+00 -9.687961568451683547e+00 -9.716840181744105465e+00 -9.790028605087178093e+00 -9.869172452911962878e+00 -9.869172452911962878e+00 -9.929946007891309989e+00 -1.000117408377227868e+01 -1.003433394926840805e+01
1.741894529368097633e-01 1.851862339519437239e-01 4.406229264206675267e-01 6.426789305092720506e-01 7.370249622687681246e-01 8.040673860344815793e-01 8.527360095108549309e-01 9.008137799224562592e-01 8.993419399126014735e-01 9.458377023065611677e-01 1.023418033963162666e+00 1.091581034660342953e+00 1.091581034660342953e+00 1.100895013773969033e+00 7.780992008776188573e-01 6.439788016703095197e-01 9.833000658158662366e-02 5.017312234687504313e-01 6.918438169515347402e-01 6.327677657806295430e-01 7.826109939115785119e-01 8.295283542633384855e-01 9.711117396101915933e-01 1.058434595594605510e+00 1.058434595594605510e+00 1.175327266948994698e+00 8.478170292372098071e-01 8.934669210949757190e-01 6.664909480790729424e-01 2.589278980311813805e-01 8.730267504900363074e-02 -7.981267632565643977e-01 -1.455689888557658351e+00 -1.613851709022491976e+00 -2.149785012419013430e+00 -2.238726756834788389e+00 -2.238726756834788389e+00 -2.338551036393900606e+00 -2.046591019620867868e+00 -2.003985626751036975e+00 -1.723171440849942115e+00 -1.739759587998397805e+00 -1.716341483127240330e+00 -1.934559301780156559e+00 -2.171272794765132019e+00 -2.117723999914196575e+00 -2.471132487629884800e+00 -2.727435197343524909e+00 -2.771166311233896007e+00 -3.136312940736978305e+00 -3.463854320898303918e+00 -3.463854320898303918e+00 -3.811186117992426681e+00 -4.157817734406366483e+00 -4.230585607284471195e+00 -4.454503657949370421e+00 -4.749913137433355637e+00 -4.848981803822844938e+00 -5.126099047673230658e+00 -5.285117267368360849e+00 -5.350681839223446090e+00 -5.579123273750602685e+00 -5.814979957048064030e+00 -5.814979957048064030e+00 -6.049594453480754197e+00 -6.284407487008559556e+00 -6.335350419306767122e+00 -6.488413707427434396e+00 -6.706710122358659376e+00 -6.783733851664617731e+00 -7.000812516170274336e+00 -7.192734759473228934e+00 -7.241906943843892996e+00 -7.456745721981145714e+00 -7.642831996809288597e+00 -7.642831996809288597e+00 -7.809033708664777862e+00 -7.942699582274414638e+00 -7.942699582274414638e+00 -8.127231428400126134e+00 -8.259597171219310141e+00 -8.287431538066099890e+00 -8.356519488839975196e+00 -8.454343344715457675e+00 -8.483079249817064849e+00 -8.580903105692545552e+00 -8.639786448605525138e+00 -8.653086743880720633e+00 -8.743805519702045004e+00 -8.817522511158117027e+00 -8.817522511158117027e+00 -8.919782311023920940e+00 -8.968975678953485797e+00 -9.015902841539197965e+00 -9.044747010445231439e+00 -9.136727794205052433e+00 -9.159116407514277469e+00 -9.189825854211004952e+00 -9.238795601308041228e+00 -9.282649347633856962e+00 -9.354952210463141071e+00 -9.394467854502897453e+00 -9.394467854502897453e+00 -9.470494343852772445e+00 -9.521351263308346802e+00 -9.548329223881003358e+00 -9.582025658982585625e+00 -9.675840078580314696e+00 -9.687961568451683547e+00 -9.785528618243457544e+00 -9.817885049739512482e+00 -9.819103825014771303e+00 -9.867335131288186290e+00 -9.969331312735993933e+00 -9.969331312735993933e+00 -1.005347887024428921e+01
1.027628602556027171e-01 2.139244225843225933e-01 2.139244225843225933e-01 5.906447186867763710e-01 6.821841833807246180e-01 8.040673860344815793e-01 8.149257588737857105e-01 8.629388150079642106e-01 8.993419399126014735e-01 9.717452641849638750e-01 9.890438644715979777e-01 1.048602032531660511e+00 1.056465733256740647e+00 8.802177282476282283e-01 8.802177282476282283e-01 2.021499773104907249e-01 3.241123462280495748e-01 3.241123462280495748e-01 8.393064431301774375e-01 7.221302321464577734e-01 7.826109939115785119e-01 7.637789795810188131e-01 9.489596213499833510e-01 1.045589801291471499e+00 1.012412306678493801e+00 8.124173280341193681e-01 9.299650964054470004e-01 5.364284029170873769e-01 3.669950140956485529e-01 3.669950140956485529e-01 -2.700250150374848279e-01 -1.286840037571601147e+00 -1.455689888557658351e+00 -2.020015488947169757e+00 -2.219137628207977553e+00 -2.242035894053095113e+00 -2.314947276974407941e+00 -1.965949114918646989e+00 -2.269697350756311849e+00 -1.615205459078348227e+00 -1.731773328134494028e+00 -1.731773328134494028e+00 -1.950729815205332507e+00 -2.125796179648991036e+00 -2.171272794765132019e+00 -2.375513280574499841e+00 -2.705272935656161337e+00 -2.727435197343524909e+00 -3.031952983526517542e+00 -3.301754325105156873e+00 -3.404357747950220947e+00 -3.731920068446977989e+00 -4.079251865541101196e+00 -4.079251865541101196e+00 -4.372838673004113552e+00 -4.675155291775570987e+00 -4.675155291775570987e+00 -4.968529817324290221e+00 -5.223953185721245340e+00 -5.285117267368360849e+00 -5.461405069879125662e+00 -5.706594322755028870e+00 -5.758046145794516235e+00 -5.998255739479409598e+00 -6.181531521910753391e+00 -6.232870235912098877e+00 -6.420624715549443806e+00 -6.634093985006572325e+00 -6.634093985006572325e+00 -6.857077000097012487e+00 -7.086918108554158380e+00 -7.192734759473228934e+00 -7.302074214906010496e+00 -7.524028930584574226e+00 -7.578553705484154079e+00 -7.755086059504927576e+00 -7.885106967652799170e+00 -7.934325732318901814e+00 -8.063537098326262864e+00 -8.201914943028734584e+00 -8.201914943028734584e+00 -8.329433720749282344e+00 -8.425607439613850502e+00 -8.454343344715457675e+00 -8.523431295489332982e+00 -8.621255151364813685e+00 -8.639786448605525138e+00 -8.703957492721682954e+00 -8.779917444233173995e+00 -8.794179831024477423e+00 -8.882522743262544651e+00 -8.942441170141464113e+00 -8.954448986644933939e+00 -9.050751865750278569e+00 -9.127171419266312924e+00 -9.127171419266312924e+00 -9.190133173742379924e+00 -9.216590221878396605e+00 -9.308017475766401816e+00 -9.308017475766401816e+00 -9.388054619665300748e+00 -9.417008840368460199e+00 -9.471155394169336716e+00 -9.508344738890977865e+00 -9.557252518887015214e+00 -9.575364998941532590e+00 -9.648400063048136133e+00 -9.699456715621717962e+00 -9.715134596809692269e+00 -9.815157973426320126e+00 -9.842105732004803542e+00 -9.842105732004803542e+00 -9.893614218892704315e+00 -9.982154701780721950e+00 -1.001631882298887888e+01 -1.006061269046185025e+01
