4.948210541514335148e+00 4.904876288331591283e+00 4.904876288331591283e+00 4.743376896796076103e+00 4.721386254266720428e+00 4.721386254266720428e+00 4.560140695679172573e+00 4.382576396048541767e+00 4.003012339157612232e+00 4.137149949271854865e+00 3.958230457884525322e+00 3.716838302195390575e+00 3.513876727969030167e+00 3.529037200974082467e+00 3.290227763963125884e+00 3.100274769693867505e+00 3.017622282004303713e+00 3.017622282004303713e+00 2.963477696522340388e+00 2.846605143815095218e+00 2.757915591195004179e+00 2.788197943382348054e+00 2.710528621308793795e+00 2.639334901799540667e+00 2.665394352936260702e+00 2.661493729789274454e+00 2.607633194532835041e+00 2.513700968517087908e+00 2.307294312445464790e+00 2.307294312445464790e+00 2.250430293224293443e+00 2.078253972074311395e+00 1.953570154765784661e+00 1.956308637006681117e+00 1.777425636536707376e+00 1.572607409383165677e+00 1.328283004694563729e+00 1.320405275197477746e+00 1.159843164272107652e+00 8.331858616865440714e-01 7.406932972766029355e-01 5.435779040178640997e-01 2.785128498769315342e-01 -1.328199141800254779e-01 -1.328199141800254779e-01 -6.505388423119544405e-02 -2.777932632467079443e-01 -5.934221845450016186e-01 -8.498889288009745524e-01 -1.504648091452511327e+00 -2.027785330302858569e+00 -2.780166717231959517e+00 -2.943155819488357583e+00 -3.367276854717017986e+00 -3.902602900089245708e+00 -4.182842215850695489e+00 -4.182842215850695489e+00 -4.377482597490832461e+00 -4.576803164553913561e+00 -4.587665881492270614e+00 -4.641200492943727163e+00 -4.275895424063296701e+00 -3.888821391977300035e+00 -3.647113123841200455e+00 -3.508143484947877422e+00 -3.219107492570009388e+00 -3.067515199090137035e+00 -2.950337883686406482e+00 -2.919831569758693846e+00 -2.901699116386419419e+00 -2.916945961348796246e+00 -3.695060709460706860e+00 -3.695060709460706860e+00 -4.442244562411818087e+00 -5.007461428952472815e+00 -5.435013178666327605e+00 -5.609500196163697439e+00 -6.109596430592717731e+00 -6.421759163569212170e+00 -6.509140192695076266e+00 -6.872020989246689915e+00 -7.106330959958730986e+00 -7.396662451170100461e+00 -7.510577461333792115e+00 -7.617175596262643289e+00 -7.675694586058380509e+00 -7.688250330027695867e+00 -7.688250330027695867e+00 -7.777978259891451529e+00 -7.912268889730680321e+00 -8.060136770149169294e+00 -8.060355265897246824e+00 -8.206740461533188480e+00 -8.314616489647931985e+00 -8.456316473220258700e+00 -8.469959863386318233e+00 -8.580858143189228571e+00 -8.778426016667182807e+00 -8.922373331474425129e+00 -8.922373331474425129e+00 -9.005486030514681772e+00 -9.042575695279536419e+00 -9.079727185003743983e+00 -9.074856926215822739e+00 -9.176302752263161722e+00 -9.235926616245942355e+00 -9.299929024839876490e+00 -9.331957904765310730e+00 -9.424633749035294272e+00 -9.499654205472378266e+00 -9.619420623475681609e+00 -9.619420623475681609e+00 -9.739785464639222567e+00 -9.781954779536295774e+00 -9.781954779536295774e+00 -9.911778495286569068e+00
4.930917799729318318e+00 4.918622225065222509e+00 4.841901124823687397e+00 4.834643076317973076e+00 4.814868089703796983e+00 4.678565900234069375e+00 4.616814808471413123e+00 4.616814808471413123e+00 4.351988218689753829e+00 4.217646327003017781e+00 3.958230457884525322e+00 3.991214813283576746e+00 3.740374413997347602e+00 3.529037200974082467e+00 3.287574734320227066e+00 3.298853340473775653e+00 3.146450375301177882e+00 3.004626517496084670e+00 3.042865633548379023e+00 2.950944216022091560e+00 2.808308751426728644e+00 2.801452516411290006e+00 2.801452516411290006e+00 2.735987953355258462e+00 2.757974716401039750e+00 2.661493729789274454e+00 2.678613490134590158e+00 2.666386788506801331e+00 2.556903232419547756e+00 2.303764860701220218e+00 2.371818588817766749e+00 2.183179283938964765e+00 2.066722123849160209e+00 1.960510749107686079e+00 1.893276439822783042e+00 1.706281010309433466e+00 1.480360441557843520e+00 1.240829894024279678e+00 1.240829894024279678e+00 9.668349726308559378e-01 6.877769453733895144e-01 4.899349171539081893e-01 4.174908603549846164e-01 1.174769731434549200e-02 -2.846268327111626251e-01 -2.773379514021765552e-02 -1.158056517432116683e-01 -3.236780919985468574e-01 -1.100969341944609603e+00 -1.581504001357185274e+00 -1.581504001357185274e+00 -2.361121598058303128e+00 -3.181978656695771956e+00 -3.181978656695771956e+00 -3.780325106417091519e+00 -4.110081832011869274e+00 -4.225411294221708580e+00 -4.319321504258065936e+00 -4.471985339674674265e+00 -4.676991782884574178e+00 -4.518199558923037706e+00 -4.310537669213086787e+00 -4.152084467201937912e+00 -3.769268083425406868e+00 -3.393688291990815564e+00 -3.393688291990815564e+00 -3.195868770720058372e+00 -3.068336036060763661e+00 -2.919831569758693846e+00 -2.950833006028349192e+00 -2.721397394491161137e+00 -3.068173836064207460e+00 -3.874385835893459529e+00 -4.030667446769492734e+00 -4.565287522845973278e+00 -5.156494104995056560e+00 -5.785279720377221047e+00 -5.785279720377221047e+00 -6.200692067914320482e+00 -6.614927268774751568e+00 -6.872020989246689915e+00 -6.963097393203901753e+00 -7.207603542757507142e+00 -7.510577461333792115e+00 -7.605957193848052356e+00 -7.513864375087482728e+00 -7.558048310697532024e+00 -7.646107420747892292e+00 -7.639513584881489017e+00 -7.770183486612531887e+00 -7.920241899413200670e+00 -8.059456770102253031e+00 -8.059456770102253031e+00 -8.229823414794003256e+00 -8.359061583583411448e+00 -8.469959863386318233e+00 -8.483603253552379542e+00 -8.644536450565583507e+00 -8.741673307516361291e+00 -8.907832730581853653e+00 -8.867929809136517960e+00 -8.991271044654459033e+00 -8.980490764941949422e+00 -9.051231272571998332e+00 -9.051231272571998332e+00 -9.167546043529570809e+00 -9.271768568116986131e+00 -9.331957904765310730e+00 -9.371581884823893205e+00 -9.509085912181411970e+00 -9.577699663155314624e+00 -9.666248617830079937e+00 -9.769999233838319697e+00 -9.777971303118796698e+00 -9.928331950504865944e+00 -9.905908954721068582e+00
4.904644515972483632e+00 4.883968735940564798e+00 4.840738136600728048e+00 4.891236401141115131e+00 4.891236401141115131e+00 4.797252352425219080e+00 4.761548164887678070e+00 4.682795002220648151e+00 4.584526052306047816e+00 4.376285223254006596e+00 4.206190825713031600e+00 3.960814424918514653e+00 3.997265141283598666e+00 3.760022473455848058e+00 3.500253885350586902e+00 3.331519988779402031e+00 3.331519988779402031e+00 3.173024661903028232e+00 3.052122171200212009e+00 2.888906414824181645e+00 2.921201152086381203e+00 2.850201718653618599e+00 2.768183955086392256e+00 2.793005573606117231e+00 2.825088519022341593e+00 2.759356913742383455e+00 2.675772062352391512e+00 2.731885402285946896e+00 2.686815503033193497e+00 2.468627431092890845e+00 2.375320134318566812e+00 2.375320134318566812e+00 2.205468017893040145e+00 2.058841805320437590e+00 1.893276439822783042e+00 1.866007686993449433e+00 1.626710327878013729e+00 1.422245156090022222e+00 1.205400878457964842e+00 1.127367261708885238e+00 8.924807551459418287e-01 6.312733855898380320e-01 3.441003741027446883e-01 3.441003741027446883e-01 -1.272987375926283860e-01 -1.020950781725853684e-01 -1.158056517432116683e-01 -2.269649342382009105e-01 -6.802353550565665152e-01 -1.125008767596557213e+00 -1.812306990432941411e+00 -2.035725554174952823e+00 -2.604825804628507768e+00 -3.329366890185077921e+00 -3.824844286045991915e+00 -3.824844286045991915e+00 -4.031495950196741340e+00 -4.229148999580039536e+00 -4.471985339674674265e+00 -4.511030282002217007e+00 -4.459358233873881083e+00 -4.310537669213086787e+00 -3.986424009224683651e+00 -3.899086557061907321e+00 -3.620234619716237390e+00 -3.318203817306115244e+00 -3.276579402460573220e+00 -3.165186887701278984e+00 -3.038236105545731647e+00 -2.846440764497737419e+00 -2.846440764497737419e+00 -2.882330421827280276e+00 -3.469875975632485954e+00 -4.030667446769492734e+00 -4.180934314022479725e+00 -4.944890655039748673e+00 -5.373962815751900379e+00 -5.873023718502986767e+00 -5.919933492320708979e+00 -6.263834001320521594e+00 -6.734186790065203709e+00 -6.949052751017996243e+00 -6.949052751017996243e+00 -7.226276511734989860e+00 -7.352703181883027739e+00 -7.513864375087482728e+00 -7.436453083376036055e+00 -7.509752968914180649e+00 -7.639513584881489017e+00 -7.798719712603705112e+00 -7.891414130585842734e+00 -7.934857193782825391e+00 -8.089827602098690562e+00 -8.248163303780502886e+00 -8.248163303780502886e+00 -8.372704973749470980e+00 -8.497246643718439074e+00 -8.644536450565583507e+00 -8.624021522852560295e+00 -8.787743462235267700e+00 -8.867929809136517960e+00 -8.891632632437776351e+00 -8.880481570110841716e+00 -8.992358637690035295e+00 -9.105357446294647161e+00 -9.099252465178288674e+00 -9.152286262291859487e+00 -9.323146955071450748e+00 -9.419619888737953417e+00 -9.419619888737953417e+00 -9.573049259289797774e+00 -9.689455319925535548e+00 -9.769999233838319697e+00 -9.819122424522694459e+00 -9.947933376900403246e+00 -9.939878597646417902e+00
4.904644515972483632e+00 4.864000315380998529e+00 4.839330260697326302e+00 4.860926697056038748e+00 4.922032274917949479e+00 4.893301429187253859e+00 4.796606419839117841e+00 4.792142098044473109e+00 4.566941585057367803e+00 4.566941585057367803e+00 4.356866907097788122e+00 4.161001784110585078e+00 3.997265141283598666e+00 4.022517435796935104e+00 3.718578688647641073e+00 3.508439268827667323e+00 3.378456968171611230e+00 3.385151091939502699e+00 3.219780966649382847e+00 3.024516435993207519e+00 2.915691225871603010e+00 2.915691225871603010e+00 2.823664275558233072e+00 2.851566273269832585e+00 2.825088519022341593e+00 2.857058376654950660e+00 2.721884307026834815e+00 2.731885402285946896e+00 2.656362016569813633e+00 2.669045204225208412e+00 2.556859667895858834e+00 2.349441231570803090e+00 2.229415109121418492e+00 2.229415109121418492e+00 2.036908256817467233e+00 1.850424900189518773e+00 1.626710327878013729e+00 1.621633156123853059e+00 1.362253768271828758e+00 1.127367261708885238e+00 1.051572044595640687e+00 7.687835186921055941e-01 5.486408705375263040e-01 2.068522338950066208e-01 3.002935752590589480e-02 -1.704355517398122299e-01 -1.652396417400373574e-01 -3.388379277197005601e-01 -3.388379277197005601e-01 -8.796635012793444508e-01 -1.530883602329097481e+00 -2.035725554174952823e+00 -2.343133159943561417e+00 -2.985976196940060223e+00 -3.432128880775660917e+00 -3.858982444773192633e+00 -3.795421558856317379e+00 -4.049538647505801059e+00 -4.343128767143706881e+00 -4.473131512000300347e+00 -4.473131512000300347e+00 -4.312325851130992760e+00 -4.077696462884008000e+00 -3.899086557061907321e+00 -3.793716138174872743e+00 -3.425525282646503467e+00 -3.276579402460573220e+00 -3.095636506955374401e+00 -3.078132522846846797e+00 -2.972971270303991886e+00 -2.754624603098594804e+00 -3.056875148020639976e+00 -3.056875148020639976e+00 -3.608810801462730034e+00 -4.388159785898585241e+00 -4.388159785898585241e+00 -5.133969227256150347e+00 -5.624480453600103402e+00 -5.919933492320708979e+00 -6.006997758218568961e+00 -6.595916352490631240e+00 -6.846844460758518380e+00 -6.950016718528285509e+00 -6.962054501914950677e+00 -7.180121274893418892e+00 -7.303318403190687036e+00 -7.398707810725451139e+00 -7.398707810725451139e+00 -7.556380844206967318e+00 -7.740660785982410808e+00 -7.891414130585842734e+00 -7.857964481239571697e+00 -8.012137372771274357e+00 -8.137265023977596101e+00 -8.261806693946564195e+00 -8.275450084112623728e+00 -8.386348363915530513e+00 -8.510646884463984208e+00 -8.651058794296094590e+00 -8.651058794296094590e+00 -8.734057565392422617e+00 -8.857003460850078724e+00 -8.880481570110841716e+00 -8.889298519059725123e+00 -9.034412140326129048e+00 -9.082197024172371513e+00 -9.230367961417115907e+00 -9.310868768113980565e+00 -9.395088332141916965e+00 -9.503755452023158412e+00 -9.629205076962655596e+00 -9.705498113691620077e+00 -9.801172832184203543e+00 -9.884987740863213190e+00 -9.961631431286008365e+00 -9.967978700006264958e+00
4.869936294993837400e+00 4.849863470170502566e+00 4.839330260697326302e+00 4.887210317794104419e+00 4.957616541883778538e+00 4.893301429187253859e+00 4.840553361569909896e+00 4.887338824798098891e+00 4.764780008760565622e+00 4.503959711702365531e+00 4.301849316599454909e+00 4.301849316599454909e+00 4.256693209198588512e+00 3.997812945604443335e+00 3.997812945604443335e+00 3.720168962927975276e+00 3.593376364872680639e+00 3.385151091939502699e+00 3.395557204225287506e+00 3.182911764647704977e+00 3.042018773169230084e+00 2.895348933519176882e+00 2.883640011971672745e+00 2.830142832972950551e+00 2.881529311333044685e+00 2.824801543863064701e+00 2.824801543863064701e+00 2.796896256863916630e+00 2.794236879008066943e+00 2.669045204225208412e+00 2.741900746973950476e+00 2.518144164577596378e+00 2.372972037170657966e+00 2.203771834036842847e+00 2.157009444023268330e+00 2.033007352666065692e+00 1.819845810329276503e+00 1.564226354917496398e+00 1.564226354917496398e+00 1.303317716308936003e+00 9.836003668685606716e-01 7.687835186921055941e-01 6.780806274004037570e-01 3.993669631958622901e-01 3.002935752590589480e-02 -2.034270979458455142e-01 -2.197031280063373726e-01 -1.288410045084142919e-01 -4.463207580299455302e-01 -1.131301392306649500e+00 -1.131301392306649500e+00 -1.769473920711383208e+00 -2.550714649943688350e+00 -2.550714649943688350e+00 -3.083932655134230316e+00 -3.587050032444343728e+00 -3.795421558856317379e+00 -3.775603893767850217e+00 -4.136693524440454794e+00 -4.399217317564817264e+00 -4.357340560379268979e+00 -4.298467778113917781e+00 -4.252994709657973438e+00 -4.041919501387484459e+00 -3.685154393205437806e+00 -3.685154393205437806e+00 -3.351022427924035707e+00 -3.118696391846588423e+00 -3.078132522846846797e+00 -3.029272352273653990e+00 -2.877817335363787254e+00 -2.896236247345378434e+00 -3.099835142737520144e+00 -3.137588840691163394e+00 -4.097162593134904718e+00 -4.751684369655251317e+00 -5.301327537609006768e+00 -5.426960612649692983e+00 -5.647994670365365621e+00 -6.228620061832538468e+00 -6.743664592003929315e+00 -6.743664592003929315e+00 -6.715425031622606511e+00 -6.875231859921031585e+00 -7.100122476263623028e+00 -7.089930658459037360e+00 -7.263555697665804445e+00 -7.481384993475948875e+00 -7.470519963172270295e+00 -7.647429941247252394e+00 -7.758976411399821416e+00 -7.877313078463558327e+00 -7.968670298223662130e+00 -8.080613064468629148e+00 -8.133740139499440858e+00 -8.283624242576014041e+00 -8.283624242576014041e+00 -8.400952097420240960e+00 -8.529712260241923971e+00 -8.667697864684564379e+00 -8.619233603795258603e+00 -8.785354431781588147e+00 -8.780260544460784189e+00 -8.894522949706207271e+00 -8.973039374600331186e+00 -9.028873730052913160e+00 -9.122353170274474010e+00 -9.318835983348964902e+00 -9.318835983348964902e+00 -9.499685452660298068e+00 -9.637180389631838651e+00 -9.705498113691620077e+00 -9.819063942130654254e+00 -9.936864082391380748e+00 -9.961631431286008365e+00 -9.997857854888257734e+00
4.784902252795813382e+00 4.834774721212436788e+00 4.840561277893937309e+00 4.952412218193838811e+00 4.952412218193838811e+00 4.934993262306918815e+00 4.870437279588722745e+00 4.887338824798098891e+00 4.918770414349287634e+00 4.607128882892315147e+00 4.503608254187915882e+00 4.361189143302656390e+00 4.432604536893245850e+00 4.285012398138022149e+00 3.957123589884303350e+00 3.728929458496184957e+00 3.728929458496184957e+00 3.596015853630946335e+00 3.386174494543601199e+00 3.182911764647704977e+00 3.178656631707730718e+00 2.955636810215554355e+00 2.883640011971672745e+00 2.895665991537353712e+00 2.914009193973045253e+00 2.942654726304032131e+00 2.773628628699003951e+00 2.838840542273651124e+00 2.846884556480188788e+00 2.853166598484933925e+00 2.766806681905357390e+00 2.766806681905357390e+00 2.564636489492212235e+00 2.320815025516829611e+00 2.157009444023268330e+00 2.143770678487537218e+00 1.975247576725229326e+00 1.767853686952268966e+00 1.537548883899465979e+00 1.493491797916955965e+00 1.265108619654640165e+00 9.191092552560118367e-01 7.144875371108992956e-01 5.722418790505312547e-01 2.179883201445881880e-01 -2.235250884005810235e-01 -4.914283110034220470e-02 -4.914283110034220470e-02 -2.149955792894742423e-01 -7.363461914327098512e-01 -1.327737577266425051e+00 -1.406528368353269443e+00 -2.067879226571297746e+00 -2.634139182575734761e+00 -3.169960444115389464e+00 -3.368401525559863607e+00 -3.558947892227972254e+00 -3.845921542795728509e+00 -4.252897145646085342e+00 -4.252897145646085342e+00 -4.228879664242268355e+00 -4.235483144661042587e+00 -4.235483144661042587e+00 -4.101496001649431733e+00 -3.820465852454816513e+00 -3.532846747986892133e+00 -3.423053800857440265e+00 -3.147901213207398907e+00 -3.116122606126413341e+00 -2.995401446690892477e+00 -2.942619181024916486e+00 -2.937269379504821476e+00 -2.760772766281512247e+00 -3.411891657424970248e+00 -3.411891657424970248e+00 -4.495949122702175949e+00 -5.026124744227308483e+00 -5.426960612649692983e+00 -5.474477700397074820e+00 -5.988898058424883430e+00 -6.392558306922499156e+00 -6.557543400300353653e+00 -6.497399621293434180e+00 -6.746267102737874666e+00 -6.913669911542823954e+00 -7.114697003696552002e+00 -7.114697003696552002e+00 -7.352390717261812370e+00 -7.525490934013085109e+00 -7.647429941247252394e+00 -7.688658512500471609e+00 -7.815967830821657358e+00 -7.968670298223662130e+00 -8.098955069591692535e+00 -8.071198537639533654e+00 -8.174336690494124369e+00 -8.293817135475361368e+00 -8.469947550674049808e+00 -8.469947550674049808e+00 -8.618866524565291343e+00 -8.747578716527669940e+00 -8.747578716527669940e+00 -8.781628257644007007e+00 -8.911085574937938958e+00 -8.973039374600331186e+00 -9.018748583687827391e+00 -9.117449610600640852e+00 -9.269832657433935807e+00 -9.379621695917240487e+00 -9.491461140495861315e+00 -9.568673719634121611e+00 -9.696267459376263886e+00 -9.861329689874834159e+00 -9.861329689874834159e+00 -9.947066980096224142e+00 -9.979626973792331768e+00
4.784902252795813382e+00 4.610223184828284637e+00 4.552566999567130068e+00 4.783243222583385190e+00 4.877263583418534942e+00 4.759068253527029668e+00 4.808270279522893098e+00 4.858628663794210212e+00 4.830871734986717847e+00 4.830871734986717847e+00 4.588825030527788229e+00 4.418662580132957984e+00 4.323678055876733595e+00 4.323678055876733595e+00 4.102172986145077083e+00 3.883936766424863407e+00 3.767396014793871650e+00 3.791093767294049677e+00 3.624848795435612558e+00 3.381125140897975889e+00 3.169025898080124026e+00 3.115426517472172918e+00 2.956134209851663641e+00 2.889853489518360075e+00 2.938838955615917570e+00 2.938838955615917570e+00 2.832831059911126381e+00 2.888448609833871750e+00 2.886740277171000457e+00 2.921794911704562292e+00 2.871575582858061804e+00 2.695619593015524895e+00 2.518700694983672328e+00 2.512308164711853031e+00 2.331623173655130277e+00 2.143893115542405248e+00 1.930490800026104292e+00 1.930490800026104292e+00 1.689563090369206932e+00 1.391822700701050630e+00 1.391822700701050630e+00 1.091506606069529539e+00 8.324734391154362534e-01 5.722418790505312547e-01 4.331631364700295750e-01 3.095802494349832179e-02 -2.895081834061450921e-01 -1.146250870827469626e-01 -1.069663807758779450e-01 -3.633293388715431727e-01 -9.319699721230060296e-01 -1.519103026990760608e+00 -1.519103026990760608e+00 -2.244810212230039070e+00 -2.837883075360065455e+00 -3.368401525559863607e+00 -3.533893006463880937e+00 -3.785932060346842487e+00 -3.953477453278044784e+00 -4.161440730988701375e+00 -4.088066646216272026e+00 -4.189226464889219237e+00 -4.231023280791262664e+00 -4.042658211480964603e+00 -4.042658211480964603e+00 -3.674170117511612599e+00 -3.319286257926589379e+00 -3.147901213207398907e+00 -3.127394193249229737e+00 -3.011883425769122713e+00 -2.942619181024916486e+00 -2.837827879572172307e+00 -2.754494045117743539e+00 -2.880813722188421355e+00 -3.674047788317286845e+00 -3.946676012725193416e+00 -4.522987922919130099e+00 -5.131386444171317507e+00 -5.638466792905200364e+00 -5.638466792905200364e+00 -6.013414324035746716e+00 -6.294530674782195412e+00 -6.497399621293434180e+00 -6.566231030322218665e+00 -6.771581239467869828e+00 -6.981803649677097212e+00 -7.151154876300804375e+00 -7.187651099410198086e+00 -7.371172168906062971e+00 -7.524191282148347426e+00 -7.693979492779465801e+00 -7.693979492779465801e+00 -7.875487727507924696e+00 -7.999003007555729461e+00 -8.071198537639533654e+00 -8.074390362397886989e+00 -8.298660816977836419e+00 -8.382341593779829125e+00 -8.549435832089571363e+00 -8.613724409636290602e+00 -8.632483526365845705e+00 -8.823495878193444497e+00 -8.869885633542704539e+00 -8.869885633542704539e+00 -8.984955179702829753e+00 -9.086278733173225319e+00 -9.117449610600640852e+00 -9.287305252402669353e+00 -9.409050782470751884e+00 -9.491461140495861315e+00 -9.629257316936303823e+00 -9.663763213334792823e+00 -9.771117530055763112e+00 -9.888388818425573490e+00 -9.903780051213853852e+00 -9.944366258753918331e+00
4.572102332615783027e+00 4.431234960978833293e+00 4.404762096312556885e+00 4.404762096312556885e+00 4.568053188987915014e+00 4.673699208246596015e+00 4.773971502039745296e+00 4.740880665484281664e+00 4.864128436312903148e+00 4.694998776011368946e+00 4.518321486277586452e+00 4.470354359416601753e+00 4.422823456572074541e+00 4.269440770012836062e+00 4.215625836116745795e+00 4.041574692137904989e+00 3.915821444733675882e+00 3.804210203368569410e+00 3.804210203368569410e+00 3.603620487270946526e+00 3.347421088414348045e+00 3.115426517472172918e+00 3.074700683742443985e+00 2.956860229705688514e+00 2.914840485692730354e+00 2.860921019103413787e+00 2.865701491203082263e+00 2.872470305696709136e+00 2.930878389379270033e+00 2.975209928443883101e+00 2.975209928443883101e+00 2.879052358351206653e+00 2.677011523979635488e+00 2.512308164711853031e+00 2.551755577689344356e+00 2.311997041467286351e+00 2.115239899136399426e+00 1.892022734283854035e+00 1.828133619881590288e+00 1.629010476429641363e+00 1.331690177521852370e+00 1.060822656275650644e+00 1.060822656275650644e+00 7.118377449302109028e-01 3.612559107367255273e-01 3.095802494349832179e-02 -5.321707818854599925e-02 -1.342360135933989562e-01 -1.069663807758779450e-01 -2.390880965767133992e-01 -6.134404229002959896e-01 -1.088872651953625148e+00 -1.718430064475268582e+00 -1.936494613395248976e+00 -2.420881805057792047e+00 -3.190524175661592299e+00 -3.747533355854674397e+00 -3.747533355854674397e+00 -3.844788646277384814e+00 -3.970100243157133502e+00 -4.088066646216272026e+00 -4.101841986249577410e+00 -4.199452878634303055e+00 -4.130435497132237899e+00 -3.928661216642333365e+00 -3.823178092966855068e+00 -3.595817622014302994e+00 -3.232739497254874639e+00 -3.055582295883993105e+00 -3.055582295883993105e+00 -2.973416374442970689e+00 -2.803782742911723247e+00 -2.754494045117743539e+00 -2.750698158048234809e+00 -3.192542664049130341e+00 -3.946676012725193416e+00 -4.684181916766339882e+00 -4.823348852958139865e+00 -5.330221783974931071e+00 -5.744752578008158750e+00 -6.119236759684101301e+00 -6.119236759684101301e+00 -6.286392351286418823e+00 -6.554397833476405921e+00 -6.771581239467869828e+00 -6.862941207244541708e+00 -7.039515263907604847e+00 -7.187651099410198086e+00 -7.267141514301886041e+00 -7.427405703729877295e+00 -7.586425288907271636e+00 -7.767823157151379831e+00 -7.777473986299016318e+00 -8.002637252734841056e+00 -8.007481349720096730e+00 -8.214980040175843712e+00 -8.214980040175843712e+00 -8.384309883662055540e+00 -8.570673605481896828e+00 -8.613724409636290602e+00 -8.655846890495684676e+00 -8.833949219187733348e+00 -8.819769704055866910e+00 -8.953123841101488622e+00 -9.014749047593616282e+00 -9.046749594913784165e+00 -9.169688198214213770e+00 -9.353959756112415036e+00 -9.353959756112415036e+00 -9.496772258049825055e+00 -9.617444843222678230e+00 -9.663763213334792823e+00 -9.718155642753874446e+00 -9.848577195865885869e+00 -9.903780051213853852e+00 -9.908125349498407175e+00
4.356786201762571586e+00 4.118856047590442770e+00 4.220110298722412168e+00 4.268204282946503447e+00 4.121948682253606222e+00 4.536096004678209503e+00 4.676066427232369094e+00 4.794009426364344684e+00 4.794009426364344684e+00 4.789279201162876198e+00 4.615483775834109181e+00 4.470354359416601753e+00 4.441649082063894305e+00 4.352472227167402785e+00 4.215625836116745795e+00 4.050340177141671383e+00 4.132334895732326707e+00 3.959967468966091531e+00 3.835721764334659056e+00 3.553875439609921472e+00 3.553875439609921472e+00 3.277039990128684188e+00 3.101803240316262311e+00 2.956860229705688514e+00 2.959210846588531396e+00 2.868319116320716233e+00 2.865701491203082263e+00 2.879198637864335275e+00 2.960697415571553304e+00 2.986309358984589046e+00 2.977362772536837010e+00 2.998521992977256190e+00 2.950625233124072544e+00 2.685396574474516740e+00 2.492922782513728119e+00 2.492922782513728119e+00 2.247788470467380062e+00 2.031473559089937542e+00 1.828133619881590288e+00 1.803533962551675973e+00 1.538209258821532366e+00 1.296901028031808067e+00 9.471521601823839065e-01 8.633789003775216297e-01 6.234855023844545485e-01 3.019313636806030265e-01 -1.448581652401439157e-01 -1.448581652401439157e-01 -1.431740004291145660e-02 -2.427361305215995080e-01 -6.134404229002959896e-01 -8.617572329418488053e-01 -1.513961558216351255e+00 -1.936494613395248976e+00 -2.502425970718871184e+00 -2.880126275799877344e+00 -3.451330665224795258e+00 -3.737030595367607511e+00 -3.815342515173017812e+00 -3.815342515173017812e+00 -3.959854364902614776e+00 -4.144092482084536400e+00 -4.144092482084536400e+00 -4.176131699801461927e+00 -4.025298541195547308e+00 -3.823178092966855068e+00 -3.752273023916226968e+00 -3.354051845831829581e+00 -3.126834356037394347e+00 -3.012506244944366696e+00 -2.982884156366353068e+00 -2.862993618865643519e+00 -2.758289893523473424e+00 -2.850140255242624043e+00 -2.850140255242624043e+00 -3.478415375134164655e+00 -4.321709282125643981e+00 -4.823348852958139865e+00 -5.048483842368646890e+00 -5.457256702416438898e+00 -5.718629901778824909e+00 -6.028196006674934715e+00 -6.056161646271501553e+00 -6.373216332408484952e+00 -6.612147277052899952e+00 -6.898811315973033764e+00 -6.917625549497206094e+00 -7.076844536105385330e+00 -7.336343705835472129e+00 -7.500836081143306799e+00 -7.500836081143306799e+00 -7.698428978095959607e+00 -7.845188477367964985e+00 -7.952766233585963462e+00 -8.017682006469188494e+00 -8.248416225361014043e+00 -8.300629106860061057e+00 -8.469958950346271109e+00 -8.581332160786413255e+00 -8.608582294707293414e+00 -8.742318914029166166e+00 -8.825313392943806790e+00 -8.857911150467725037e+00 -8.974388237647705324e+00 -9.088769550941943720e+00 -9.088769550941943720e+00 -9.221926785827783135e+00 -9.378733778423992362e+00 -9.453960496251205825e+00 -9.502083375603787019e+00 -9.605574167084970583e+00 -9.631419835081700853e+00 -9.779736936581704398e+00 -9.804396681520385570e+00 -9.859893962424948199e+00 -9.849327326742598032e+00
3.898355881126442490e+00 3.898355881126442490e+00 3.698107711991974522e+00 3.709932664081077025e+00 4.121948682253606222e+00 3.952447260976014398e+00 4.201444435264381383e+00 4.539888022092853248e+00 4.728949185157517832e+00 4.686633350605744042e+00 4.746726464456624939e+00 4.597156436522779721e+00 4.474811912564740091e+00 4.474811912564740091e+00 4.447562458098337501e+00 4.361407954186276470e+00 4.132334895732326707e+00 4.218866511135537678e+00 4.110827586951557144e+00 3.825407847428168751e+00 3.508215130357942524e+00 3.443622903103130461e+00 3.224903809190924786e+00 3.099322224635189027e+00 2.969781340168908379e+00 2.969781340168908379e+00 2.884375156266248297e+00 2.916823045263122083e+00 2.960697415571553304e+00 2.998387861600173565e+00 3.044748515712613290e+00 2.998521992977256190e+00 2.866954897131408497e+00 2.856240443618704994e+00 2.738752560808469294e+00 2.451573464866808827e+00 2.205810683069204803e+00 2.205810683069204803e+00 2.014492059038600402e+00 1.770539649921603953e+00 1.770539649921603953e+00 1.484527741502151610e+00 1.137624953073403056e+00 8.633789003775216297e-01 8.073670180930666573e-01 5.053950634198779435e-01 1.894466067966355804e-01 -9.562792143087617269e-02 -6.464151498297160403e-02 -7.084093605751759504e-02 -4.225121197242124316e-01 -1.005071610661022241e+00 -1.005071610661022241e+00 -1.647230779877331353e+00 -2.340535954522253270e+00 -3.187998887961929650e+00 -3.187998887961929650e+00 -3.463377078492696715e+00 -3.630453309940965045e+00 -3.804136049056893398e+00 -3.841975112549199434e+00 -4.130228475045838898e+00 -4.214226421844547765e+00 -4.194671422018600992e+00 -4.104684536532104744e+00 -3.961582967151312307e+00 -3.596757555590087030e+00 -3.248126289724063476e+00 -3.248126289724063476e+00 -3.054324366939964897e+00 -2.887059572638448479e+00 -2.787621163054475382e+00 -2.753415970424340387e+00 -2.807280632317121771e+00 -2.960746809345954134e+00 -3.173171843705613338e+00 -3.964673209201434290e+00 -4.456925081948746481e+00 -5.064033120935258481e+00 -5.097015247782474390e+00 -5.547302787704378346e+00 -5.792739653872674310e+00 -6.111576115073453330e+00 -6.111576115073453330e+00 -6.425692665912340118e+00 -6.695234889711998427e+00 -6.917625549497206094e+00 -7.002960725414627774e+00 -7.234686024481049138e+00 -7.360180208249906819e+00 -7.537674646655289301e+00 -7.649632763094330379e+00 -7.751523794863429906e+00 -7.989099307830954011e+00 -8.151219803512505635e+00 -8.151219803512505635e+00 -8.307503644943972532e+00 -8.471927240228499301e+00 -8.581332160786413255e+00 -8.603440179778292674e+00 -8.751139597538912795e+00 -8.825313392943806790e+00 -8.958962913670438510e+00 -8.995652634193922026e+00 -9.047822869987871996e+00 -9.182535739439234845e+00 -9.322250442340134668e+00 -9.322250442340134668e+00 -9.462650032454899218e+00 -9.546827836306635007e+00 -9.546827836306635007e+00 -9.614356283942353087e+00 -9.755417821122653876e+00 -9.804396681520385570e+00 -9.813107595227457125e+00 -9.788239788842323819e+00
3.606172858876313558e+00 3.409566712334466398e+00 3.383357028799935939e+00 3.383357028799935939e+00 3.451223283493437322e+00 3.752502141309691730e+00 4.201444435264381383e+00 4.177785208013773399e+00 4.439415370322147503e+00 4.686633350605744042e+00 4.739254037655179275e+00 4.747861694742128158e+00 4.676007478867641787e+00 4.618930034433329723e+00 4.701441357767661700e+00 4.556606939389546085e+00 4.423053724148457988e+00 4.298979015100252710e+00 4.298979015100252710e+00 4.060415316501472027e+00 3.672544241081215688e+00 3.443622903103130461e+00 3.391880387404592412e+00 3.256692322488496050e+00 3.064466610450390149e+00 2.929498468364941210e+00 2.872638480066011191e+00 2.877075438776926397e+00 2.930103430003873299e+00 3.043535917413375813e+00 3.084924654529510590e+00 3.061586456020118252e+00 3.027898240497900684e+00 2.903053076538068211e+00 2.903053076538068211e+00 2.639922352999130695e+00 2.406745528572219683e+00 2.231245854770771420e+00 2.188781791712656855e+00 1.955925896861085089e+00 1.723456045206038567e+00 1.415519378824170227e+00 1.323657148822884544e+00 1.048786668702201830e+00 7.314362250841969226e-01 4.380440520102397706e-01 4.380440520102397706e-01 6.807530980728705716e-03 1.345129188278290991e-02 1.345129188278290991e-02 -2.540863799796717060e-01 -6.832564168994632592e-01 -1.187567582483124218e+00 -1.335032596000361060e+00 -2.115081382584313108e+00 -2.620168917877025994e+00 -3.223986444012020502e+00 -3.190017721371550152e+00 -3.427561019392254771e+00 -3.653426205735594845e+00 -3.953405424927491918e+00 -3.953405424927491918e+00 -4.221295288152305147e+00 -4.267911925544487062e+00 -4.104684536532104744e+00 -4.081914946303290215e+00 -3.732434709361438507e+00 -3.522006441625543882e+00 -3.157034828795967307e+00 -3.064694977807644438e+00 -2.979325530979491710e+00 -2.839709125546868052e+00 -2.757031944460302419e+00 -2.757031944460302419e+00 -2.809423455441450557e+00 -3.348847126038792865e+00 -3.964673209201434290e+00 -4.089394369392086226e+00 -4.713275435873439889e+00 -5.097015247782474390e+00 -5.657025768742109939e+00 -5.500953478369299710e+00 -5.816098987437541723e+00 -6.189496165350602652e+00 -6.552691930594593650e+00 -6.552691930594593650e+00 -6.771381798087112713e+00 -7.078196033087370331e+00 -7.078196033087370331e+00 -7.292200013049654039e+00 -7.546955447612178070e+00 -7.649632763094330379e+00 -7.738510745294238546e+00 -8.035259929365896170e+00 -8.072698001713106919e+00 -8.241086045594377296e+00 -8.347077839506727770e+00 -8.377887224939017941e+00 -8.580393845731444813e+00 -8.702826434922963372e+00 -8.702826434922963372e+00 -8.816569754237974621e+00 -8.982376086148592620e+00 -8.995652634193922026e+00 -9.066885120777953944e+00 -9.179517373093231569e+00 -9.274165373441354276e+00 -9.403507800735571465e+00 -9.427562535836409907e+00 -9.507394493157750759e+00 -9.593703490947261159e+00 -9.646903626649198316e+00 -9.646903626649198316e+00 -9.760216167174888824e+00 -9.793142707979258788e+00 -9.788239788842323819e+00
2.840841914921811817e+00 2.691665546093636507e+00 2.746487843923213212e+00 3.085941279343046517e+00 2.792372192462079461e+00 3.114003982956426331e+00 3.661191393279320749e+00 4.147305899035585774e+00 4.122812345502840259e+00 4.583987500048612773e+00 4.844013013566188519e+00 4.846989514109592889e+00 4.846989514109592889e+00 4.874754072739029276e+00 4.820455329742633133e+00 4.664548203664079296e+00 4.651400345204718789e+00 4.468047812058289381e+00 4.385764866021961694e+00 4.036804522931086048e+00 3.847930293961489223e+00 3.600145848371622659e+00 3.350103944253358002e+00 3.277770967500159394e+00 3.277770967500159394e+00 2.989814686764213469e+00 2.878212597864863387e+00 2.878212597864863387e+00 2.879963175619523419e+00 3.018634235207219962e+00 3.084924654529510590e+00 3.079216672968251078e+00 3.077915037600759796e+00 3.019250404996001613e+00 2.898148791405242619e+00 2.855988435378805423e+00 2.604335175872290353e+00 2.391582847438046500e+00 2.175378657301182628e+00 2.175378657301182628e+00 1.901639472379181850e+00 1.621597959548096490e+00 1.323657148822884544e+00 1.242327909953998111e+00 9.011853340760023201e-01 6.446730436717406088e-01 3.258925407670540397e-01 1.713480481044644677e-01 -1.142961079130987018e-01 -1.222962015380605998e-02 -2.354431580260997747e-01 -2.354431580260997747e-01 -8.315308585602543268e-01 -1.563903947403568306e+00 -2.115081382584313108e+00 -2.280893517336505916e+00 -2.955917464747169987e+00 -3.190017721371550152e+00 -3.426046851135406079e+00 -3.422687454030521437e+00 -3.706975709234049177e+00 -4.083310960026585335e+00 -4.145845054057146761e+00 -4.254602719121699295e+00 -4.158137488705520468e+00 -3.984208978599164563e+00 -3.984208978599164563e+00 -3.669822968876902625e+00 -3.278674009318048199e+00 -3.064694977807644438e+00 -3.032647192975518990e+00 -2.871034672554177103e+00 -2.777249294039751071e+00 -2.753505603097035070e+00 -2.733300901916529746e+00 -2.920368212275843867e+00 -3.615584546905259877e+00 -4.287347762466662715e+00 -4.287347762466662715e+00 -4.773839110606499681e+00 -5.359315664341655960e+00 -5.500953478369299710e+00 -5.624512746369919824e+00 -6.060896068321548924e+00 -6.237549070508557669e+00 -6.508692843788133509e+00 -6.600280062249692214e+00 -6.897888071988967695e+00 -7.144829109926162047e+00 -7.370690577448778313e+00 -7.370690577448778313e+00 -7.625171204270984937e+00 -7.865149168552451719e+00 -8.035259929365896170e+00 -8.103057191390158565e+00 -8.283216649163033907e+00 -8.347077839506727770e+00 -8.403635655209356514e+00 -8.578996666841597118e+00 -8.605133565150271835e+00 -8.738937251572075127e+00 -8.772404546444843021e+00 -8.865692208065496516e+00 -8.964612660474156058e+00 -9.067016771589758051e+00 -9.067016771589758051e+00 -9.210933136790593778e+00 -9.317297374522709674e+00 -9.427562535836409907e+00 -9.406204667092943339e+00 -9.484920741365229446e+00 -9.566255940295551596e+00 -9.647636161659255194e+00 -9.648228594501949473e+00 -9.738438640280385528e+00 -9.724684163120839386e+00
2.485201892330962892e+00 2.374121995547487707e+00 2.437653004963152625e+00 2.554333777249435666e+00 2.696593611904497312e+00 2.696593611904497312e+00 3.157965515517252797e+00 3.730263038700418310e+00 4.122812345502840259e+00 4.110322734962507774e+00 4.553067846288458398e+00 4.750792290907817517e+00 4.875143070671533074e+00 4.871860811365199773e+00 4.832502305865719272e+00 4.772516629463245508e+00 4.593122413792521286e+00 4.593122413792521286e+00 4.448387882849193176e+00 4.196785146270570976e+00 3.847930293961489223e+00 3.830558528456073475e+00 3.553514508008443151e+00 3.415410713761572126e+00 3.280280685648117256e+00 3.162651890181056302e+00 2.975430208988401937e+00 2.922744945675918249e+00 2.968580898126872647e+00 2.968580898126872647e+00 3.044891924015043827e+00 3.066152071914944877e+00 3.077915037600759796e+00 3.104068902268118713e+00 3.042793961974006756e+00 2.855988435378805423e+00 2.819840660282835199e+00 2.612079636921989856e+00 2.383565446420641276e+00 2.133288349383274163e+00 2.093941192936224382e+00 1.852186641415155988e+00 1.546250557066603637e+00 1.177974514978069598e+00 1.177974514978069598e+00 8.302076044030186619e-01 4.766827231275733157e-01 1.713480481044644677e-01 1.087546965017967132e-01 4.880193177378991387e-03 -1.098602792544565859e-01 -3.926756899583954130e-01 -6.059347003158301881e-01 -1.105866303848164200e+00 -1.685341472262194884e+00 -2.454338623395589725e+00 -2.454338623395589725e+00 -2.913592496646460361e+00 -3.165894828019979013e+00 -3.422687454030521437e+00 -3.656414008391625003e+00 -3.995226686851281350e+00 -4.145845054057146761e+00 -4.221010865824974090e+00 -4.104618136753752644e+00 -4.062611924836351029e+00 -3.816500082229711488e+00 -3.550557539450909683e+00 -3.550557539450909683e+00 -3.186951467910840385e+00 -2.987901029419969046e+00 -2.871034672554177103e+00 -2.805648361173251892e+00 -2.667770635443897920e+00 -2.733300901916529746e+00 -2.784251912958302100e+00 -3.283448013333448490e+00 -3.751869541916667217e+00 -4.429709244101585952e+00 -4.499558435395939249e+00 -4.975993200265188321e+00 -5.264731243093551782e+00 -5.837742643119676167e+00 -5.837742643119676167e+00 -6.045771699998255144e+00 -6.308210356669256669e+00 -6.600280062249692214e+00 -6.724146205434897716e+00 -7.083113659241271343e+00 -7.246538512773046392e+00 -7.568060394245155642e+00 -7.651917868644764198e+00 -7.765028099609153855e+00 -8.065837350663001004e+00 -8.183055290796790615e+00 -8.183055290796790615e+00 -8.337271240447867271e+00 -8.474719562351168634e+00 -8.577311235028282965e+00 -8.577311235028282965e+00 -8.701991741288134463e+00 -8.790972034423367276e+00 -8.885287946162032213e+00 -8.886695987863120649e+00 -8.968839330494073891e+00 -9.062651386909172047e+00 -9.200807139547649172e+00 -9.208689495789505131e+00 -9.310599709948869318e+00 -9.384846798349478547e+00 -9.368108952852470139e+00 -9.459634923803264428e+00 -9.531084408919715756e+00 -9.632811298407906619e+00 -9.632811298407906619e+00 -9.648695699701193007e+00
2.355129882082200865e+00 2.374121995547487707e+00 2.387265821856929371e+00 2.393444994657325520e+00 2.518738632279392320e+00 2.753582207289481332e+00 3.193412593872967609e+00 3.193412593872967609e+00 3.610749377020503470e+00 4.134419790499793024e+00 4.553067846288458398e+00 4.553420757867982616e+00 4.868048711166548692e+00 4.871860811365199773e+00 4.867231347402695363e+00 4.795664524338094203e+00 4.715886201849669668e+00 4.534502808037228050e+00 4.504134187134358314e+00 4.427136864994404064e+00 4.013242037963321351e+00 3.780505188223784785e+00 3.780505188223784785e+00 3.570404126662042543e+00 3.422912605090533411e+00 3.162651890181056302e+00 3.162918921769263925e+00 3.006441802054227175e+00 2.933601220265078968e+00 2.963557946271405896e+00 3.003896898654361713e+00 3.053166741087950609e+00 3.094819711845020915e+00 3.107184309356877616e+00 3.107184309356877616e+00 3.036745747763742287e+00 2.822109661963870586e+00 2.612079636921989856e+00 2.585480128564043856e+00 2.308208748774776886e+00 2.093941192936224382e+00 1.837104561035156181e+00 1.781188217691842546e+00 1.471242154498395571e+00 1.111416823082431948e+00 7.705054771120166679e-01 7.705054771120166679e-01 4.066065097786671911e-01 1.459052639043847133e-01 1.459052639043847133e-01 -1.127216548612727520e-01 -3.641500290292888908e-01 -6.059347003158301881e-01 -6.190820830808893005e-01 -1.352784165626588209e+00 -1.845870818488404286e+00 -2.427195388905307283e+00 -2.424828939130273753e+00 -2.869316820329127715e+00 -3.342600629250970012e+00 -3.812768789793417046e+00 -3.812768789793417046e+00 -4.053889830715188936e+00 -4.146003536068623596e+00 -4.104618136753752644e+00 -4.014353297030980983e+00 -3.869501177165624473e+00 -3.686234586421174519e+00 -3.463428204974771774e+00 -3.372767281447678123e+00 -3.068753576548170159e+00 -2.903136291523022550e+00 -2.698392312665257364e+00 -2.586819026298797120e+00 -2.626150138225818331e+00 -2.827062266445965477e+00 -3.417451287525285153e+00 -3.417451287525285153e+00 -4.173903121730299759e+00 -4.661647197405432763e+00 -4.999521445210366011e+00 -5.023608940096721653e+00 -5.744098798023509644e+00 -5.957613283578181651e+00 -5.836928949377707454e+00 -6.127543152195190856e+00 -6.385704786803298560e+00 -6.852980764472194508e+00 -7.020402461523531201e+00 -7.207870174607696967e+00 -7.570285942480206032e+00 -7.799082284874685911e+00 -7.799082284874685911e+00 -8.045533336626171206e+00 -8.231428033793434906e+00 -8.294110940221118611e+00 -8.362139626699669037e+00 -8.489922378595315067e+00 -8.507105520125920251e+00 -8.619049605048417106e+00 -8.659543610557769000e+00 -8.713921708842987002e+00 -8.802273319515128591e+00 -8.881858690391588596e+00 -8.881858690391588596e+00 -8.968885876533462920e+00 -9.103788810735192527e+00 -9.208689495789505131e+00 -9.188097792538224340e+00 -9.267883972461937958e+00 -9.368108952852470139e+00 -9.412220206597396555e+00 -9.414532656180176318e+00 -9.534468149644775181e+00 -9.574328227750385167e+00 -9.596585215104905586e+00
2.300373992936902035e+00 2.272501909031298339e+00 2.271970201400568712e+00 2.393444994657325520e+00 2.309510755091762846e+00 2.423370891971853069e+00 2.704609401234157051e+00 3.076435169405627779e+00 3.001553519957875338e+00 3.547094433238823452e+00 4.169806695113825512e+00 4.635483685401320386e+00 4.635483685401320386e+00 4.902680675720635151e+00 4.830786496645226968e+00 4.795664524338094203e+00 4.780122178529540022e+00 4.600957804016166719e+00 4.504134187134358314e+00 4.316355972120590856e+00 4.196692341965796658e+00 4.071902394916813606e+00 3.773294098271392727e+00 3.725352315058197306e+00 3.610305402247022677e+00 3.338752406912343318e+00 3.159158952701905942e+00 3.159158952701905942e+00 3.003512811919076597e+00 2.915192402129101801e+00 3.003896898654361713e+00 3.022380818170157468e+00 3.113466387534205015e+00 3.141708766590906698e+00 3.158010408461916718e+00 3.168502961193279344e+00 3.064900762154727509e+00 2.842303466131443024e+00 2.579083746862987248e+00 2.483628221195803398e+00 2.302116066347354550e+00 2.052611162522215871e+00 1.690231248711117074e+00 1.690231248711117074e+00 1.321648312088861577e+00 9.503933480740072159e-01 7.037968266236723780e-01 6.096260750308983845e-01 2.524080389475187314e-01 2.474129499173364360e-02 -2.080420373783939958e-01 -3.006602385279268930e-01 -4.290202418655590932e-01 -7.723309375855614833e-01 -1.492807242705287418e+00 -1.492807242705287418e+00 -1.985791951550294865e+00 -2.727740868868640867e+00 -3.028787250110315021e+00 -3.299248372251954109e+00 -3.753662113192524075e+00 -3.922941157066757611e+00 -3.961481460363927454e+00 -4.071336725177171267e+00 -4.064076132071769543e+00 -3.990134320870604157e+00 -3.932892294726199278e+00 -3.838730967608534606e+00 -3.642836744205754318e+00 -3.257549025445649615e+00 -3.257549025445649615e+00 -2.932900611811082747e+00 -2.738863186918147896e+00 -2.586819026298797120e+00 -2.487755538176473546e+00 -2.605561276661207515e+00 -2.951311479761637102e+00 -3.712405169869825716e+00 -3.874607803195873501e+00 -4.225277760185377929e+00 -4.639727226079076949e+00 -5.250778689664858945e+00 -5.250778689664858945e+00 -5.929608710926665083e+00 -5.918807180882013519e+00 -6.127543152195190856e+00 -6.227492174224745547e+00 -6.695006071979798357e+00 -7.020402461523531201e+00 -7.392311998215696178e+00 -7.566045341271302682e+00 -7.672361383759577436e+00 -7.937132350368777622e+00 -8.152212219267568116e+00 -8.152212219267568116e+00 -8.305005231279201539e+00 -8.417788532287662662e+00 -8.417788532287662662e+00 -8.461233192174793416e+00 -8.584550017220157869e+00 -8.659543610557769000e+00 -8.655438871241129206e+00 -8.721641044405886944e+00 -8.808779315252088793e+00 -8.884580812574984776e+00 -8.881416773213189231e+00 -8.987199019788063126e+00 -9.100081617056298811e+00 -9.172279015317862161e+00 -9.172279015317862161e+00 -9.228861057176562355e+00 -9.293356705124393713e+00 -9.414532656180176318e+00 -9.420707704787599113e+00 -9.464436307616463040e+00 -9.570636816748475439e+00
2.246299583683496692e+00 2.185044773742607305e+00 2.217981010246403262e+00 2.229855835468625980e+00 2.232331883289258023e+00 2.178880735734758822e+00 2.323619389090756826e+00 2.427962655173183659e+00 2.975772331949571026e+00 2.975772331949571026e+00 3.660852179167610743e+00 4.267599737075477684e+00 4.795078670749041372e+00 4.780225728417170750e+00 4.933541296038884028e+00 4.811484322811765857e+00 4.725590025323826993e+00 4.707158934060460709e+00 4.555080162259040222e+00 4.371423422475827714e+00 4.290259699324555420e+00 4.290259699324555420e+00 3.994374351069386098e+00 3.752597478418235433e+00 3.531332219939159245e+00 3.499502391216045449e+00 3.322119874046681076e+00 3.092789426167153355e+00 2.925759897805845888e+00 2.951504766748700437e+00 2.962702360768036947e+00 3.068773387434283073e+00 3.170155930913379549e+00 3.170155930913379549e+00 3.225558735801823396e+00 3.198284827287330323e+00 3.198284827287330323e+00 3.040603957874094210e+00 2.787214721346038981e+00 2.483628221195803398e+00 2.421086342778976608e+00 2.191039676442268380e+00 2.012624560313049038e+00 1.623621940537885111e+00 1.535428104476541655e+00 1.251097498677464559e+00 8.796233175198782117e-01 5.328634522741511059e-01 5.328634522741511059e-01 1.390483361560697906e-01 -1.548276723601306193e-01 -3.006602385279268930e-01 -3.438996703957056256e-01 -4.978713735608705782e-01 -9.965981670809475057e-01 -1.525945286546002144e+00 -1.606042643642102696e+00 -2.206161360163318985e+00 -3.053943178348189846e+00 -3.491084184677588631e+00 -3.491084184677588631e+00 -3.771641426894044358e+00 -3.981698938027225854e+00 -4.071336725177171267e+00 -3.949263880324950016e+00 -3.959867815810489411e+00 -3.932892294726199278e+00 -3.807732167612682517e+00 -3.816757303080708041e+00 -3.567949539346921384e+00 -3.168093797559931701e+00 -3.051414884828021368e+00 -2.885217338689533229e+00 -2.590566410648599049e+00 -2.487624334289601613e+00 -2.487624334289601613e+00 -2.693718220313940037e+00 -3.390205071815408644e+00 -3.874607803195873501e+00 -3.956336951118100576e+00 -4.412528427068001413e+00 -4.783400364785621584e+00 -5.601816274899072745e+00 -5.741477681198285055e+00 -5.698749630794454291e+00 -5.968980641583522484e+00 -6.438498370416762207e+00 -6.438498370416762207e+00 -6.964305143800111786e+00 -7.343890494407080638e+00 -7.566045341271302682e+00 -7.618842589653028519e+00 -7.907105525113040656e+00 -8.081278786524663360e+00 -8.261617294230312325e+00 -8.251671525663192952e+00 -8.396088578164988547e+00 -8.368037807242693304e+00 -8.501724915842222785e+00 -8.501724915842222785e+00 -8.601060772955912981e+00 -8.651334131924487636e+00 -8.721641044405886944e+00 -8.730862642641055160e+00 -8.801345881690933126e+00 -8.881416773213189231e+00 -9.006770481922734106e+00 -8.991473738323096043e+00 -9.063592496506011287e+00 -9.150720668533375957e+00 -9.089613161500656346e+00 -9.246392890818688315e+00 -9.297980903440638656e+00 -9.387068381548594687e+00 -9.387068381548594687e+00 -9.461593840664285437e+00
2.186835421817568736e+00 2.169923356388278712e+00 2.174775661362802648e+00 2.172261151803554391e+00 2.180935507317264932e+00 2.178880735734758822e+00 2.235174023637703566e+00 2.322075818586039730e+00 2.612665414738407854e+00 3.049751519623519869e+00 3.134899757044142810e+00 3.691326447065525596e+00 4.190204625652015125e+00 4.684605536318954933e+00 4.684605536318954933e+00 4.976496142364043251e+00 4.835540214847972251e+00 4.707158934060460709e+00 4.692857975878739651e+00 4.544794020755714925e+00 4.369982504217470698e+00 4.202263726280282441e+00 4.317932146738284516e+00 3.935436593761322932e+00 3.723443389023071148e+00 3.484607444158255962e+00 3.484607444158255962e+00 3.278856724842857950e+00 3.100151058464541087e+00 2.951504766748700437e+00 3.048081727144508424e+00 3.023357438842281919e+00 3.110417350922260127e+00 3.190229743873498336e+00 3.186045033424028450e+00 3.191706176949882678e+00 3.150972708409186307e+00 3.028132125169205935e+00 3.028132125169205935e+00 2.741679732554038740e+00 2.496770278147569133e+00 2.191039676442268380e+00 2.204865895238026230e+00 1.833321145605690150e+00 1.535428104476541655e+00 1.169341221054902791e+00 1.109105488666084049e+00 8.283333471167680928e-01 4.300442939969644218e-01 3.322373746687367624e-01 6.293113530884755780e-02 -1.897154279537777433e-01 -3.737668437267473998e-01 -3.737668437267473998e-01 -7.115159871724873186e-01 -1.049038210764936530e+00 -1.606042643642102696e+00 -1.844521680175640110e+00 -2.526172133998605851e+00 -3.046999831563340422e+00 -3.449605775148755882e+00 -3.436881766330944110e+00 -3.618517778240883942e+00 -3.854383281034708730e+00 -3.826081669364488569e+00 -3.826081669364488569e+00 -3.885619426499070883e+00 -3.917371561719790840e+00 -3.816757303080708041e+00 -3.794091381205242364e+00 -3.334666425997472761e+00 -3.051414884828021368e+00 -2.791432934951937561e+00 -2.644486205852804694e+00 -2.454965452587769992e+00 -2.444433269458061719e+00 -2.833673989954740513e+00 -2.833673989954740513e+00 -3.551171486598259541e+00 -4.019632598347081753e+00 -4.412528427068001413e+00 -4.590134203721442319e+00 -5.086042944408793787e+00 -5.741477681198285055e+00 -5.477634395575988968e+00 -5.950846431791569913e+00 -6.142674801137312457e+00 -6.675925626378391264e+00 -6.936195954909031514e+00 -7.091826754587646775e+00 -7.381143891693050740e+00 -7.662059944802770417e+00 -7.662059944802770417e+00 -7.930272672249532917e+00 -8.144399380011467571e+00 -8.251671525663192952e+00 -8.326476612180671921e+00 -8.327461845999533097e+00 -8.427720482576859240e+00 -8.546682674670698532e+00 -8.542577935354056962e+00 -8.596956033639273187e+00 -8.641764250903605671e+00 -8.703132973732181199e+00 -8.703132973732181199e+00 -8.777144820381728607e+00 -8.909752153110277462e+00 -8.931016877596116288e+00 -8.931016877596116288e+00 -9.014749623150759561e+00 -9.134819088509612328e+00 -9.177094454851548733e+00 -9.180959538786742868e+00 -9.272811732439828702e+00 -9.354544387482539136e+00 -9.431709188123985399e+00
2.181847705583309871e+00 2.174152338626917924e+00 2.159303229623549925e+00 2.164754309691602874e+00 2.164754309691602874e+00 2.175737918018868733e+00 2.195577670775066270e+00 2.322075818586039730e+00 2.435591485336214390e+00 2.674340647003332183e+00 3.134899757044142810e+00 3.694902753056935829e+00 3.564268449998124311e+00 4.166403707511070920e+00 4.684904136346986547e+00 4.919173619847430956e+00 4.919173619847430956e+00 4.886441434685849572e+00 4.760045015088937959e+00 4.544794020755714925e+00 4.534880992366263186e+00 4.439625230295942693e+00 4.317932146738284516e+00 4.206010505270231903e+00 3.888525008171015873e+00 3.672536642398653406e+00 3.501576657015922578e+00 3.506115823729097247e+00 3.298285539932095389e+00 3.120992113373079135e+00 3.037030073905952587e+00 3.037030073905952587e+00 3.089556429088228029e+00 3.130265229585664777e+00 3.186045033424028450e+00 3.186946967525253527e+00 3.207299412345865797e+00 3.136823325642492222e+00 2.981916378967209624e+00 2.966534987375659238e+00 2.668392333187571630e+00 2.374385601896397358e+00 2.139814596751865139e+00 2.139814596751865139e+00 1.770506051192395791e+00 1.393204538248349111e+00 1.109105488666084049e+00 1.007997781667241188e+00 6.082571472317495065e-01 3.322373746687367624e-01 5.130462623589491372e-03 -7.764449643464316209e-02 -2.759527170551489550e-01 -4.120017526384028850e-01 -6.258448180520298498e-01 -6.258448180520298498e-01 -1.207902653628016632e+00 -1.996232932593172249e+00 -1.996232932593172249e+00 -2.597090186002455781e+00 -3.038758693658943688e+00 -3.436881766330944110e+00 -3.249122550093042072e+00 -3.542773235240974650e+00 -3.710295686466654530e+00 -3.816005647820306823e+00 -3.792105426911521970e+00 -3.864920635088163969e+00 -3.929976361032653021e+00 -3.664042447858582463e+00 -3.664042447858582463e+00 -3.233885727134558685e+00 -2.840307994688638260e+00 -2.644486205852804694e+00 -2.443269743375919401e+00 -2.323878072236212677e+00 -2.581839950875758571e+00 -3.032582646908432711e+00 -3.239755229280426807e+00 -3.753381081040604972e+00 -4.287501092762607158e+00 -4.774568051369135091e+00 -4.615505394638973691e+00 -5.261477414409663211e+00 -5.596471641488854232e+00 -6.112110561674054310e+00 -6.112110561674054310e+00 -6.710088659477642992e+00 -6.986570494725611979e+00 -7.093538801112163839e+00 -7.141536891027914891e+00 -7.422231834431509689e+00 -7.718572242081688017e+00 -7.912543162557572174e+00 -7.990507362975007410e+00 -8.131239119235202040e+00 -8.258254948836032838e+00 -8.231022929175873415e+00 -8.345912487320170214e+00 -8.484882880264610350e+00 -8.538473196037415391e+00 -8.538473196037415391e+00 -8.578248388745526753e+00 -8.614386354050786565e+00 -8.718110950806883253e+00 -8.693849259941467622e+00 -8.793988798891705372e+00 -8.890537631295956089e+00 -8.935497197248754020e+00 -8.886470077788933608e+00 -8.950365265824748562e+00 -9.071902376334003648e+00 -9.193186815073250528e+00 -9.193186815073250528e+00 -9.244857845276573727e+00 -9.353210397943616528e+00
2.181847705583309871e+00 2.154610141309678983e+00 2.142027224258510998e+00 2.152297683263534100e+00 2.157923893930224324e+00 2.158440937421977956e+00 2.173591995608540994e+00 2.200976919732298143e+00 2.424729411663485212e+00 2.424729411663485212e+00 2.606494323784536604e+00 3.085357375318850792e+00 3.564268449998124311e+00 3.588481871269999068e+00 4.189119004365793764e+00 4.616384333201374091e+00 5.131462291880364290e+00 5.004436435929969562e+00 4.817828037132603214e+00 4.727046728336840253e+00 4.610121625424620895e+00 4.610121625424620895e+00 4.633386921485972643e+00 4.030643903097086422e+00 3.888525008171015873e+00 3.866856372930968178e+00 3.681936500482958063e+00 3.506115823729097247e+00 3.256342904437801167e+00 3.295557872921246023e+00 3.159424086491326555e+00 2.990776485725744394e+00 3.037274117362286141e+00 3.037274117362286141e+00 3.135917848682427067e+00 3.215389957670701904e+00 3.215389957670701904e+00 3.233042693410889790e+00 3.175969579667621723e+00 2.966534987375659238e+00 2.955588923489512965e+00 2.657329852956210825e+00 2.380345217391391266e+00 2.089765094547195723e+00 2.047326732796764581e+00 1.636983707596554982e+00 1.305738807156082038e+00 8.899211907288732126e-01 7.864700004665348132e-01 5.169009373904809301e-01 1.777237427177331131e-01 -1.883397242842762276e-01 -1.883397242842762276e-01 -2.197312535962951952e-01 -2.579386334384298207e-01 -6.628586323794946056e-01 -8.494666577132010676e-01 -1.601937686839888020e+00 -2.075159515544011235e+00 -2.669111210900016129e+00 -2.678091757889744073e+00 -3.082674615467082102e+00 -3.234956726643308578e+00 -3.489954137294320358e+00 -3.489954137294320358e+00 -3.645492708773230284e+00 -3.801339316050106554e+00 -3.864939095796026791e+00 -3.833292829713231598e+00 -3.737741219859750608e+00 -3.522494214059297857e+00 -3.429785516554279656e+00 -2.966953484964659271e+00 -2.669886134835915747e+00 -2.243642190356585964e+00 -2.197455022070272435e+00 -2.326194159687402063e+00 -2.726367641209495041e+00 -3.381348542323693085e+00 -3.381348542323693085e+00 -4.162473758457212014e+00 -4.514069674749674910e+00 -4.615505394638973691e+00 -4.694975186559831926e+00 -5.400448759872923610e+00 -5.946463281135254242e+00 -6.329955896236380219e+00 -6.665555627228937574e+00 -6.904494234990275814e+00 -6.869979978359801898e+00 -7.203829121772033162e+00 -7.203829121772033162e+00 -7.481575174466840394e+00 -7.730771974512990141e+00 -7.990507362975007410e+00 -8.010021974687544954e+00 -8.123715409944860966e+00 -8.231022929175873415e+00 -8.331488777494199027e+00 -8.386699240013303580e+00 -8.379526811524376839e+00 -8.534022568815247567e+00 -8.581713436233762593e+00 -8.581713436233762593e+00 -8.634876019922831603e+00 -8.664448790069762651e+00 -8.664448790069762651e+00 -8.794845286263711870e+00 -8.817971743318821609e+00 -8.886470077788933608e+00 -8.830242116210888170e+00 -8.969886121247929722e+00 -9.062375591817870557e+00 -9.160937788783153124e+00 -9.139145230104288586e+00 -9.243507888495901881e+00
2.178712126808808769e+00 2.133805524093882688e+00 2.142027224258510998e+00 2.132334214723513810e+00 2.132703546119857574e+00 2.158440937421977956e+00 2.163245741844793013e+00 2.151865976031035022e+00 2.181202562130598377e+00 2.316102078767794392e+00 2.240690401362151807e+00 2.554836615051377269e+00 2.948383582655567547e+00 3.606807901094702284e+00 3.692934294497751679e+00 4.177941809806492657e+00 4.646043251318543454e+00 4.874697050572387447e+00 4.874697050572387447e+00 4.845160209178436261e+00 4.751077927025846748e+00 4.677720829257989266e+00 4.870202677590096840e+00 4.199050758597073774e+00 4.019331726029332863e+00 3.856633011852237836e+00 3.848896345965632904e+00 3.721427681132368104e+00 3.445852254336815523e+00 3.313665158366630337e+00 3.313665158366630337e+00 2.999284982758936735e+00 3.015246167309062919e+00 3.042709616249909210e+00 3.081570312354343422e+00 3.192060566325155779e+00 3.260335905810436863e+00 3.284688113170648904e+00 3.285927690981944593e+00 3.187636200437222289e+00 2.953697025635633189e+00 2.541881204507253855e+00 2.541881204507253855e+00 2.321135864876600063e+00 1.970289868946259793e+00 1.970289868946259793e+00 1.521744764120323445e+00 1.013157110751281342e+00 7.864700004665348132e-01 7.257445530119510657e-01 3.720202131681475954e-01 7.161144969210046785e-02 -2.072058303997300899e-01 -1.923306896418078837e-01 -1.884885606862871654e-01 -4.032306415558915003e-01 -1.125638531672585652e+00 -1.125638531672585652e+00 -1.712081023030722182e+00 -2.439365899621104283e+00 -2.678091757889744073e+00 -2.810857723927874474e+00 -3.168232220405357236e+00 -3.316080217278527975e+00 -3.449320740761084636e+00 -3.442672755333914481e+00 -3.709923575835340159e+00 -3.745461434115350041e+00 -3.794709734797610867e+00 -3.794709734797610867e+00 -3.647737048532861071e+00 -3.331239743574669454e+00 -2.966953484964659271e+00 -2.897574701659767271e+00 -2.304091303878541552e+00 -2.197455022070272435e+00 -2.336596921982335928e+00 -2.466017568092012446e+00 -2.911828732337381709e+00 -3.508377987368266115e+00 -4.137699938721024928e+00 -4.137699938721024928e+00 -4.319514116480832833e+00 -5.033758321928413437e+00 -5.033758321928413437e+00 -5.777340248586782856e+00 -6.146069662902942987e+00 -6.665555627228937574e+00 -6.576026636644960455e+00 -6.653114552785325486e+00 -6.920911938140314135e+00 -7.202118146801057108e+00 -7.277121570560209030e+00 -7.548641913783797897e+00 -7.804490220503237374e+00 -8.018243099724418954e+00 -8.018243099724418954e+00 -8.141297711507711199e+00 -8.284823552747537789e+00 -8.386699240013303580e+00 -8.413207418027198514e+00 -8.493028332207158471e+00 -8.530441415823510454e+00 -8.530190548030221365e+00 -8.542905417299833104e+00 -8.605446313611379239e+00 -8.672448471355741262e+00 -8.702854828529368092e+00 -8.702854828529368092e+00 -8.796636922977834061e+00 -8.880320156790270758e+00 -8.969886121247929722e+00 -8.976385330809241836e+00 -9.049003094537074077e+00 -9.139145230104288586e+00 -9.270047281449908638e+00
2.186040058383845519e+00 2.139431296015429584e+00 2.120764874325606897e+00 2.099753016058170552e+00 2.084554454349372588e+00 2.118873290105783624e+00 2.120666914901313316e+00 2.148823508877008681e+00 2.148823508877008681e+00 2.190003345058193940e+00 2.421349844725684708e+00 2.650148036851288413e+00 2.623175138764136438e+00 3.162605528318268355e+00 3.692934294497751679e+00 4.272561930059651125e+00 4.345491932929419931e+00 4.811370022918877609e+00 4.768992706512701574e+00 4.737555055117468328e+00 4.737555055117468328e+00 4.764046937014399852e+00 4.610689124188554366e+00 4.610689124188554366e+00 4.239865683227819204e+00 3.947812274373888819e+00 3.848896345965632904e+00 3.915944590919406831e+00 3.705919685403223252e+00 3.506243616184310241e+00 3.244803411942517535e+00 3.178643793626660496e+00 3.127721419824143645e+00 3.071987531342200040e+00 3.121515963171588304e+00 3.121515963171588304e+00 3.228210318472925167e+00 3.291237371848596993e+00 3.285927690981944593e+00 3.316211715645057900e+00 3.156762736901808530e+00 2.884365737781634742e+00 2.570737664223043062e+00 2.602349729817328594e+00 2.267277204143925307e+00 1.863975385105964833e+00 1.399827622766183888e+00 1.399827622766183888e+00 1.001765050345046593e+00 6.372676162621456752e-01 3.720202131681475954e-01 2.476634381996882794e-01 -1.647569412645434328e-01 -1.923306896418078837e-01 -1.407095381576846382e-01 -3.319624006980737563e-01 -5.944835040962807016e-01 -1.173438414603352520e+00 -1.408488685537076623e+00 -1.897968034507289126e+00 -2.574833323080094161e+00 -2.838489195104987761e+00 -2.838489195104987761e+00 -3.138366010594420885e+00 -3.227635699882890119e+00 -3.442672755333914481e+00 -3.501023272814822729e+00 -3.631559593693134858e+00 -3.702128516543379266e+00 -3.723312770298381036e+00 -3.683927691621358136e+00 -3.616631663725998980e+00 -3.258529652441829239e+00 -2.765489246236282561e+00 -2.765489246236282561e+00 -2.245566908355401736e+00 -2.150236839117124710e+00 -2.466017568092012446e+00 -2.640006575169531633e+00 -3.216287754586178771e+00 -3.779536134576805928e+00 -4.160340886502796209e+00 -4.166888637658530570e+00 -4.595868912885320512e+00 -5.246288832107616429e+00 -5.908446826446535738e+00 -5.908446826446535738e+00 -6.159814228115696011e+00 -6.460612867675652460e+00 -6.653114552785325486e+00 -6.698015673475244292e+00 -7.018931877738470604e+00 -7.277121570560209030e+00 -7.328913240418470920e+00 -7.642923312602128760e+00 -7.835907484512274479e+00 -8.027876894352743875e+00 -8.065358295438979752e+00 -8.226328960766650766e+00 -8.327332044586464477e+00 -8.471413105628631257e+00 -8.471413105628631257e+00 -8.489043128141059213e+00 -8.454115742288781377e+00 -8.542905417299833104e+00 -8.512006531665790021e+00 -8.567181777561170719e+00 -8.708203588388588656e+00 -8.725332657998833952e+00 -8.731533688043711550e+00 -8.765564635076591671e+00 -8.880316656590466096e+00 -8.978092357244126021e+00 -8.978092357244126021e+00 -9.029945002376155827e+00 -9.169967906373541311e+00
2.145812369471834735e+00 2.145812369471834735e+00 2.052808446745637561e+00 2.049765270368871128e+00 2.084554454349372588e+00 2.068720806029393788e+00 2.070409208877237006e+00 2.097986888732792377e+00 2.180526582473409913e+00 2.178349242407009001e+00 2.211568869455669883e+00 2.424254523869472155e+00 2.699035029708555022e+00 2.699035029708555022e+00 3.219071165785476474e+00 3.846486550087911738e+00 4.345491932929419931e+00 4.428408892099097827e+00 4.641665883833869799e+00 4.738182617147752573e+00 4.750084296989831145e+00 4.792994753725254853e+00 4.831105218875893392e+00 4.441622636338752983e+00 4.277376366664779717e+00 4.277376366664779717e+00 3.982015954940543612e+00 3.972522636548031727e+00 3.705919685403223252e+00 3.754507073306976306e+00 3.504772892369004911e+00 3.178643793626660496e+00 3.223091130227878409e+00 3.151379013781532734e+00 3.064658765107550309e+00 3.145754118607622551e+00 3.190273308098869887e+00 3.257698730332954096e+00 3.304410568581175767e+00 3.306043813766580186e+00 3.306043813766580186e+00 3.081373668844388902e+00 2.840364245612730265e+00 2.602349729817328594e+00 2.516201241630672492e+00 2.092172270256404509e+00 1.747213497736491039e+00 1.305612682432882421e+00 1.233141441473721844e+00 9.331836352984835825e-01 5.276666495151962621e-01 1.035403522844477592e-01 1.035403522844477592e-01 -2.447282497467632156e-01 -8.714739880862107380e-02 -3.319624006980737563e-01 -3.771036691584883083e-01 -9.687594303493749504e-01 -1.408488685537076623e+00 -2.151522825311467990e+00 -2.302356637098335490e+00 -2.588824776424258900e+00 -2.814140978800351967e+00 -3.044976550635025259e+00 -3.044976550635025259e+00 -3.202976881803632381e+00 -3.488642058487280817e+00 -3.631559593693134858e+00 -3.613278452830697596e+00 -3.724870104948491800e+00 -3.683927691621358136e+00 -3.751458574871090246e+00 -3.585065139091691222e+00 -3.208416638527179288e+00 -2.639136696594654552e+00 -2.396915851228866412e+00 -2.051019503200989025e+00 -2.223676265550854847e+00 -2.807921494003650764e+00 -2.807921494003650764e+00 -3.377506676616264247e+00 -3.890910295278678710e+00 -4.166888637658530570e+00 -4.460363402146403367e+00 -5.165359079720246882e+00 -5.553569206420366555e+00 -5.902061392856429833e+00 -5.804711277966382532e+00 -6.135722886097300766e+00 -6.434046557997417537e+00 -6.738145292148413290e+00 -6.820178964424147061e+00 -7.070461213737673667e+00 -7.384632035889286961e+00 -7.670987410398657502e+00 -7.670987410398657502e+00 -7.929787294967737488e+00 -8.159499611776647399e+00 -8.261597938556086262e+00 -8.334673730363824973e+00 -8.449732443410722382e+00 -8.469387785775889910e+00 -8.431684346767216454e+00 -8.378040936547339612e+00 -8.439240724463846988e+00 -8.496594953507536019e+00 -8.465370135040362953e+00 -8.599521072185535076e+00 -8.632693572678844518e+00 -8.711080988624621213e+00 -8.711080988624621213e+00 -8.795725112102092069e+00 -8.873964608645538377e+00 -8.949563016057467735e+00 -8.920744774648024844e+00 -9.064109163318638807e+00
2.216557445445839214e+00 2.062124268248035630e+00 2.018280144716055435e+00 2.018280144716055435e+00 2.034081574262502912e+00 2.043419545146352601e+00 2.070409208877237006e+00 2.044441289482385127e+00 2.169259949913378449e+00 2.178349242407009001e+00 2.177590641708044839e+00 2.205411332310673878e+00 2.368494860277777114e+00 2.716277839346699530e+00 2.742066904184550236e+00 3.289852897650306307e+00 3.933605868082397539e+00 4.482379192187412542e+00 4.482379192187412542e+00 4.649918993353821861e+00 4.748803738239795180e+00 4.792994753725254853e+00 4.767986840670118909e+00 4.696832014612131623e+00 4.477667994767339010e+00 4.110844534572945186e+00 4.082439742455061804e+00 4.039477052237905319e+00 3.995505461514975210e+00 3.769791878297766630e+00 3.769791878297766630e+00 3.382309213291826655e+00 3.254703808332572557e+00 3.151379013781532734e+00 3.055510828579374838e+00 3.103519958523015099e+00 3.190273308098869887e+00 3.275036904554365247e+00 3.301623343179399761e+00 3.337875959494284395e+00 3.355850446405733045e+00 3.097873142603952079e+00 3.097873142603952079e+00 2.808569915452358678e+00 2.441220559304576376e+00 2.441220559304576376e+00 1.977571248214651689e+00 1.595780814089078348e+00 1.233141441473721844e+00 1.098793688821228631e+00 6.897632351255514882e-01 4.536915237753744723e-01 -6.394309305886478056e-02 -2.061999771667961112e-01 -1.636483099403812091e-01 -1.221282974348378014e-01 -3.992457643452009819e-01 -5.916003782143693934e-01 -1.143822613622581752e+00 -1.774171766576535081e+00 -2.299711890531381364e+00 -2.299711890531381364e+00 -2.763079006514427949e+00 -2.778116526536845043e+00 -2.957304485081299283e+00 -2.975730122296912139e+00 -3.326899936431754856e+00 -3.531048219811509625e+00 -3.617156321898663318e+00 -3.675595844217205865e+00 -3.711763162614550193e+00 -3.798245693170092530e+00 -3.503474288380744373e+00 -3.503474288380744373e+00 -2.991171232218145626e+00 -2.285228957828213670e+00 -2.011415797493203872e+00 -2.069227521975933293e+00 -2.510175118628556579e+00 -2.895053625482358228e+00 -3.521426154176615420e+00 -3.617641340288284990e+00 -4.023668826398585807e+00 -4.794981120020969101e+00 -4.832194009362710041e+00 -5.297628973310598788e+00 -5.701863313886409657e+00 -5.818229589799710944e+00 -5.818229589799710944e+00 -6.241188103246966712e+00 -6.542360553341792340e+00 -6.820178964424147061e+00 -6.915616603673274909e+00 -7.318601030371242544e+00 -7.532647010718982017e+00 -7.847191924560363852e+00 -7.918928100606215104e+00 -8.031370843370346790e+00 -8.233865229948085229e+00 -8.465918558839424790e+00 -8.465918558839424790e+00 -8.392373662036881399e+00 -8.354670223028207943e+00 -8.378040936547339612e+00 -8.346115355422160320e+00 -8.396115504531834972e+00 -8.465370135040362953e+00 -8.604656739588875780e+00 -8.555857129518479098e+00 -8.625802635477061386e+00 -8.733994916407679554e+00 -8.764044731034800861e+00 -8.764044731034800861e+00 -8.850122937577864946e+00 -8.980963677445007676e+00 -9.064109163318638807e+00
2.211979988702641453e+00 2.046729543373878801e+00 2.029303704807270847e+00 2.007609907886529932e+00 2.015667917290385081e+00 2.019730962912375638e+00 2.019907735546988992e+00 2.160094263120018176e+00 2.160094263120018176e+00 2.172270520065662680e+00 2.177869889518230018e+00 2.205411332310673878e+00 2.195475484021866208e+00 2.436290985642757700e+00 2.742066904184550236e+00 3.407255136313937172e+00 3.516550114847508013e+00 4.035615936001772930e+00 4.480872514451626820e+00 4.417817267081368904e+00 4.651396963029059251e+00 4.774744571872854948e+00 4.722724987060765045e+00 4.722724987060765045e+00 4.653997706072159346e+00 4.326213974556992525e+00 4.191233622819146909e+00 4.191233622819146909e+00 4.220449927888844321e+00 4.038625034270956426e+00 3.780928942188593211e+00 3.666361629675271239e+00 3.392967921797908737e+00 3.253658973611875282e+00 3.074513657982276271e+00 3.187649121345449643e+00 3.166568744162945759e+00 3.248788858730468299e+00 3.328815245220104302e+00 3.328815245220104302e+00 3.380929106870979695e+00 3.229251236026476235e+00 3.084188077042929077e+00 3.032016062822063596e+00 2.666191207314731138e+00 2.320068106322966006e+00 1.977850053604722769e+00 1.848840908044413256e+00 1.443937652169136721e+00 9.905522037424984161e-01 6.308919645484728500e-01 6.308919645484728500e-01 1.508089644768620119e-01 9.480042727737898745e-03 -6.526202142030324005e-02 -5.551905368805758190e-02 -3.007934944571211133e-01 -5.916003782143693934e-01 -8.992143526193667746e-01 -1.459571630921020269e+00 -1.934229356595278393e+00 -2.444373930284197360e+00 -2.616259116625285319e+00 -2.652026248235097139e+00 -2.897712095139850064e+00 -3.108146515102474083e+00 -3.108146515102474083e+00 -3.419722379220245578e+00 -3.515793341971706898e+00 -3.675595844217205865e+00 -3.652356423608547065e+00 -3.765679429740099948e+00 -3.765402409572625064e+00 -3.475847887625673316e+00 -3.409698742874478938e+00 -2.866539945391730182e+00 -2.160596181442837160e+00 -2.150359644364852496e+00 -2.150359644364852496e+00 -2.572404608241490642e+00 -3.227827069221849143e+00 -3.617641340288284990e+00 -3.888494989946657654e+00 -4.371850354144318551e+00 -4.832194009362710041e+00 -5.407303339445174828e+00 -5.539845579336230230e+00 -5.664239282608479975e+00 -5.949260381941924081e+00 -6.315395848350240371e+00 -6.315395848350240371e+00 -6.685022234587285617e+00 -7.100733636507445823e+00 -7.100733636507445823e+00 -7.513487610499280933e+00 -7.800209806505166377e+00 -7.918928100606215104e+00 -8.031475629286758178e+00 -8.197382331792661958e+00 -8.299445064522080528e+00 -8.335205463418240868e+00 -8.266242718195062622e+00 -8.335014880663040415e+00 -8.302144498286073926e+00 -8.332483117664057914e+00 -8.332483117664057914e+00 -8.387978172773514984e+00 -8.498932189975162643e+00 -8.555857129518479098e+00 -8.533096450729667382e+00 -8.635326295425272747e+00 -8.721295686753107290e+00 -8.776614071128767236e+00 -8.750682859098260380e+00 -8.817733830576059972e+00 -8.965188587898746064e+00
2.158758635245659363e+00 2.110322200779729762e+00 2.061843427719820099e+00 2.002849152588285442e+00 1.996668161828597965e+00 1.996668161828597965e+00 2.016590750981527069e+00 2.100974110091042846e+00 2.143650525998646472e+00 2.105461866051455466e+00 2.123924868127119225e+00 2.170478155487295169e+00 2.236708455702113074e+00 2.385030214182900288e+00 2.599820960663230984e+00 3.035546698015467726e+00 3.612093928874728466e+00 3.612093928874728466e+00 4.094145380074273533e+00 4.340453775943402093e+00 4.622458787520975498e+00 4.601837612929370991e+00 4.675420389198906790e+00 4.765147082271814938e+00 4.633160737151754027e+00 4.568735980955750620e+00 4.285770157538758340e+00 4.469354913148349873e+00 4.180892643023259581e+00 4.180892643023259581e+00 4.045210171988586900e+00 3.595989646841011300e+00 3.595989646841011300e+00 3.432412638317181131e+00 3.230809002799146512e+00 3.187649121345449643e+00 3.209303707121295091e+00 3.201339422872158558e+00 3.267431330996863448e+00 3.340125609936796192e+00 3.354995342488738430e+00 3.313888432947623475e+00 3.212403249381913461e+00 2.994388006760967613e+00 2.994388006760967613e+00 2.640229494334402460e+00 2.251092471602370804e+00 1.848840908044413256e+00 1.798970731125480116e+00 1.236769296350343827e+00 8.800758847851697375e-01 5.034512421459245157e-01 3.866979220390833749e-01 4.065309822452532751e-02 -1.050275741046241135e-01 -7.837458339218855707e-02 -7.837458339218855707e-02 -4.239675276902140633e-01 -9.776509138681510613e-01 -1.459571630921020269e+00 -1.702958829559341414e+00 -2.306977746987875388e+00 -2.616259116625285319e+00 -2.769326914704270948e+00 -2.894860487893910150e+00 -2.938930335662317539e+00 -3.187300225035018642e+00 -3.403263444154938533e+00 -3.403263444154938533e+00 -3.599340760278316065e+00 -3.739298804327208181e+00 -3.739298804327208181e+00 -3.816360293818614302e+00 -3.708735890273129776e+00 -3.409698742874478938e+00 -3.340802015978045159e+00 -2.843533909693815254e+00 -2.191222244442921241e+00 -2.204906992718198122e+00 -2.265526560185030736e+00 -2.769316283741743767e+00 -3.331387412529848380e+00 -3.990251002103494038e+00 -3.990251002103494038e+00 -4.389110734120137636e+00 -5.086020406471077671e+00 -5.539845579336230230e+00 -5.457222812554205049e+00 -5.775459310245341982e+00 -6.069415355477481455e+00 -6.390111353809917460e+00 -6.536758778861699426e+00 -6.796639770829107974e+00 -7.283562429636714519e+00 -7.651541511803662488e+00 -7.651541511803662488e+00 -7.918649976033299787e+00 -8.099547023163006898e+00 -8.197382331792661958e+00 -8.231391072892133565e+00 -8.211686979552844434e+00 -8.266242718195062622e+00 -8.277656099289201208e+00 -8.222729857795473052e+00 -8.252989986380473653e+00 -8.301337985842327072e+00 -8.299840389762415782e+00 -8.379187213035203641e+00 -8.492585108374910874e+00 -8.563604680570435335e+00 -8.563604680570435335e+00 -8.636259147752733512e+00 -8.691452397077105374e+00 -8.750682859098260380e+00 -8.750070813586566132e+00 -8.883184578003049836e+00
2.166003418269660585e+00 2.110322200779729762e+00 2.012383612845736636e+00 1.992656399782843479e+00 1.988537505740587186e+00 1.989864057272562547e+00 2.004651620269905177e+00 2.004651620269905177e+00 2.071447750068998506e+00 2.078115206641824919e+00 2.078115206641824919e+00 2.186394813038568863e+00 2.198668612280016532e+00 2.385030214182900288e+00 2.360892557013589688e+00 2.684948630208266795e+00 3.098618747845937715e+00 3.688000656033882496e+00 3.709028506993778507e+00 4.053128017410871919e+00 4.365739991121922792e+00 4.582467534750092497e+00 4.582467534750092497e+00 4.737214564702626696e+00 4.797091048502328370e+00 4.568735980955750620e+00 4.515420567052263578e+00 4.510433057661535905e+00 4.365260524424936506e+00 4.288402490525905719e+00 4.312400076729868914e+00 3.913386488138419939e+00 3.596106956531898380e+00 3.384354589894062570e+00 3.384354589894062570e+00 3.336125085431728365e+00 3.150194853006532014e+00 3.201339422872158558e+00 3.233169173496095450e+00 3.302459397785668216e+00 3.354995342488738430e+00 3.311542003364613240e+00 3.340618421720898290e+00 3.238439960856365651e+00 3.019155365454156303e+00 2.970804615610563637e+00 2.588297562209237235e+00 2.138141816155410879e+00 1.621268153881648022e+00 1.621268153881648022e+00 1.087322699344802412e+00 7.062055704774801157e-01 3.866979220390833749e-01 2.906225595238884352e-01 -1.181333545717289935e-01 -1.344056855671514061e-01 -2.470546036350621810e-01 -2.467593774075697577e-01 -5.388436540056661395e-01 -1.179055273749748389e+00 -1.852238390805445167e+00 -1.852238390805445167e+00 -2.474087550894668031e+00 -2.780533175568469684e+00 -2.894860487893910150e+00 -2.920028493133038250e+00 -3.055923894069268787e+00 -3.269329131158506208e+00 -3.418483046288012250e+00 -3.498120210100923000e+00 -3.568177787177747806e+00 -3.783169032524273057e+00 -3.840186098607214049e+00 -3.840186098607214049e+00 -3.652125684655174176e+00 -3.290413987861631639e+00 -2.843533909693815254e+00 -2.613296255981155003e+00 -2.343733896076795720e+00 -2.265526560185030736e+00 -2.736848814422338627e+00 -3.238598392652771274e+00 -3.714908099035675093e+00 -3.961294810796684107e+00 -3.979308021832469677e+00 -4.510247691561724892e+00 -5.328610103193918590e+00 -5.514726626469872883e+00 -5.514726626469872883e+00 -5.922019749730561777e+00 -6.236387760862490026e+00 -6.536758778861699426e+00 -6.605983740202479026e+00 -7.124411772009212385e+00 -7.490352843116259152e+00 -7.732093248088073523e+00 -7.733664711043926054e+00 -7.971817897839752476e+00 -8.077189423978193616e+00 -8.174847602182609307e+00 -8.005464285634516841e+00 -8.074398279910083076e+00 -8.108962187148772927e+00 -8.156567133960328064e+00 -8.156567133960328064e+00 -8.198001948492427360e+00 -8.282261598980117157e+00 -8.392218307803299027e+00 -8.355699241156381518e+00 -8.474511390923693099e+00 -8.545832720612551725e+00 -8.592629474695939962e+00 -8.638529922920515247e+00 -8.681218816135457317e+00 -8.818827866967238194e+00 -8.887240210129856877e+00
2.331365542864039408e+00 2.107020638343921615e+00 2.015644789366590306e+00 1.992656399782843479e+00 1.982117450206077436e+00 1.972783962199571306e+00 1.998675077959960245e+00 2.012933504794321760e+00 2.012999795369332823e+00 2.041350718318474478e+00 2.117494359502067436e+00 2.183056349778398797e+00 2.183056349778398797e+00 2.202623377841312013e+00 2.336754899844279532e+00 2.684948630208266795e+00 2.680687380844366974e+00 3.267240878752190270e+00 3.709028506993778507e+00 3.741204124377402795e+00 4.154371641020927264e+00 4.428368559303215157e+00 4.647487871629718548e+00 4.705582435967658128e+00 4.809153355512641781e+00 4.737887392434762646e+00 4.641083279871068612e+00 4.641083279871068612e+00 4.498723956656008660e+00 4.454848110865281541e+00 4.312400076729868914e+00 4.074800338988636028e+00 3.830064535433706396e+00 3.611166303022487423e+00 3.395030981405882997e+00 3.496112450306780417e+00 3.287106665655541438e+00 3.152017897687416248e+00 3.232300109262571830e+00 3.232300109262571830e+00 3.332591702336249906e+00 3.381852591848388823e+00 3.340618421720898290e+00 3.426842673348857726e+00 3.261290450955589115e+00 2.970804615610563637e+00 2.433815964850244207e+00 2.434910369773955363e+00 2.026721106400651617e+00 1.501839777559205391e+00 9.677101238428370555e-01 9.677101238428370555e-01 6.225868796013047657e-01 1.470507898512433687e-01 -1.181333545717289935e-01 -3.338865191870424853e-01 -1.226004137923074055e-01 -2.467593774075697577e-01 -2.458610611125306433e-01 -9.147715401385009271e-01 -1.370370307213439443e+00 -2.076941259306146037e+00 -2.302015919329247318e+00 -2.655424319447507120e+00 -2.858367364005744538e+00 -2.920384686239843930e+00 -2.920384686239843930e+00 -3.175348426566305449e+00 -3.342377729429825806e+00 -3.503215377924960627e+00 -3.503215377924960627e+00 -3.688902810349590222e+00 -3.775818583195922340e+00 -3.757705503263099267e+00 -3.687662155728777869e+00 -3.407931620331364098e+00 -3.149047204585535553e+00 -2.488554617005398928e+00 -2.728615318916738364e+00 -2.646442069695141619e+00 -3.029360552906037896e+00 -3.552710425956404627e+00 -3.552710425956404627e+00 -3.649706223347561451e+00 -4.144486817298187908e+00 -4.695446485474695564e+00 -4.906066373542648407e+00 -5.375780270816781226e+00 -5.671197012925533798e+00 -6.061028140975409428e+00 -6.105573893615877878e+00 -6.353697114217715658e+00 -6.786493411930879738e+00 -6.831257105313589761e+00 -7.175376946995877248e+00 -7.444624813190814372e+00 -7.704139200954935873e+00 -7.704139200954935873e+00 -7.812987451576665521e+00 -7.926268973567500709e+00 -8.005464285634516841e+00 -7.868698524700824315e+00 -7.934245639439764020e+00 -8.072582969570767375e+00 -8.115001163319398358e+00 -8.080655470170245991e+00 -8.172549969531544889e+00 -8.262563067949848516e+00 -8.344570215312522521e+00 -8.344570215312522521e+00 -8.469074160126302431e+00 -8.546265615925172199e+00 -8.638529922920515247e+00 -8.619233510769610973e+00 -8.760015224656624966e+00 -8.828831486306109255e+00
2.186680720680644008e+00 2.081749578976716197e+00 2.050911135203467239e+00 1.988692291919256006e+00 1.953710363780869930e+00 1.953710363780869930e+00 1.978264328296747587e+00 1.989670826621425137e+00 2.012999795369332823e+00 1.992267363347862918e+00 2.092000268208500380e+00 2.182798345669690665e+00 2.176144042568253223e+00 2.192318594432639323e+00 2.204396664783197846e+00 2.405469189690255138e+00 2.780030086384221111e+00 2.780030086384221111e+00 3.300305411432914671e+00 3.816030295520710602e+00 4.154371641020927264e+00 4.258698821223298125e+00 4.624463284036192334e+00 4.705582435967658128e+00 4.844743100192600238e+00 4.988351403461601663e+00 4.763651970309312311e+00 4.619556206482012151e+00 4.526680262776842767e+00 4.526680262776842767e+00 4.501144548497118869e+00 4.104565275730009510e+00 4.104565275730009510e+00 3.807209145092801172e+00 3.594888488991474951e+00 3.496112450306780417e+00 3.482156086126651395e+00 3.290095413073120589e+00 3.307698730904352402e+00 3.311981735001063409e+00 3.345829084811179577e+00 3.340503414117837355e+00 3.406204894066321653e+00 3.370287359175259123e+00 3.313130747420249822e+00 3.140420784875795235e+00 2.710340722331860519e+00 2.309914804777696951e+00 2.309914804777696951e+00 1.736755077547924131e+00 1.183749476566986258e+00 8.972194040893892719e-01 8.168106811663951028e-01 3.310331361629875735e-01 -2.632043699884256682e-02 -9.146000893199347781e-02 -1.738472119991046894e-01 -2.147720109821658341e-01 -4.179661601274544114e-01 -1.075534855547039426e+00 -1.075534855547039426e+00 -1.738958209096769680e+00 -2.383279928782364721e+00 -2.596201211175087842e+00 -2.765302671787530642e+00 -2.931654008152362767e+00 -3.021738321102586333e+00 -3.129650949820083294e+00 -3.276390094640697193e+00 -3.410205420162493617e+00 -3.570952168892395751e+00 -3.581508757016128364e+00 -3.716938357485747968e+00 -3.723845196429455218e+00 -3.665493299821088513e+00 -3.665493299821088513e+00 -3.366153354240466467e+00 -2.941332979380169022e+00 -2.728615318916738364e+00 -3.034042899345803956e+00 -3.149628552269718718e+00 -3.266944719044588830e+00 -3.520017802614881397e+00 -3.346775989669171558e+00 -3.622756283265354593e+00 -4.278324401772936270e+00 -5.005807325772392957e+00 -5.005807325772392957e+00 -5.589459650460336881e+00 -5.870546134109705605e+00 -6.105573893615877878e+00 -6.187696637906142882e+00 -6.530092608512472196e+00 -6.831257105313589761e+00 -7.147452648255052665e+00 -7.159205072865410635e+00 -7.461808361432504810e+00 -7.626203158087440315e+00 -7.720876745869855284e+00 -7.720876745869855284e+00 -7.789487711504633261e+00 -7.804227640028175372e+00 -7.934245639439764020e+00 -7.906384289489102102e+00 -7.982229630994456926e+00 -8.080655470170245991e+00 -8.084890017494824832e+00 -8.165340377526836946e+00 -8.257042231407734079e+00 -8.386161022002198706e+00 -8.382449343143949960e+00 -8.495652135606144739e+00 -8.585607448763926897e+00 -8.688738276076895417e+00 -8.688738276076895417e+00 -8.774478394609165122e+00
2.225840031748699488e+00 2.081749578976716197e+00 2.019119144184874148e+00 1.980190225425143780e+00 1.961281546701134859e+00 1.773077621383109204e+00 1.592579067143121030e+00 1.485619607305942447e+00 1.992391043220497648e+00 2.017598439782191111e+00 2.035387636220625573e+00 2.198095223813505417e+00 2.179617892581061422e+00 2.206913397561364398e+00 2.206913397561364398e+00 2.338066323552786763e+00 2.569903675043916813e+00 2.863763336495130485e+00 2.894396947572057677e+00 3.390451405117641315e+00 3.847852661553856635e+00 4.226387586451229694e+00 4.320371469733105485e+00 4.636018032861797700e+00 4.787245021844267256e+00 4.845016065591578602e+00 4.845016065591578602e+00 4.706336389258461317e+00 4.665604683179704004e+00 4.493611954182877177e+00 4.594423401594124101e+00 4.340819838426694943e+00 4.170716034084004598e+00 3.785233184321846078e+00 3.806524507263462365e+00 3.693082027057136507e+00 3.554549375071349715e+00 3.332341072911646052e+00 3.332341072911646052e+00 3.362572956471990615e+00 3.342672720545445397e+00 3.340503414117837355e+00 3.327068093568549045e+00 3.363778825265156147e+00 3.313130747420249822e+00 3.261467758310925280e+00 2.986870919634421639e+00 2.706054907608118398e+00 2.159345916141550248e+00 2.007406861864981629e+00 1.584816023271355512e+00 1.111195920502201284e+00 6.695820674475290168e-01 6.695820674475290168e-01 2.161905630571505366e-01 -1.000166372994875513e-01 -1.738472119991046894e-01 -2.910705563536132856e-01 -4.035617838701070492e-01 -6.406578962318197901e-01 -1.281065582888348375e+00 -1.459828477582547190e+00 -1.895872985034901870e+00 -2.443051814754990225e+00 -2.862660938579995040e+00 -2.862660938579995040e+00 -2.991759149043898169e+00 -3.184716327112276701e+00 -3.276390094640697193e+00 -3.336581899500667525e+00 -3.474409569978699874e+00 -3.581508757016128364e+00 -3.676691432446240970e+00 -3.686557329642286440e+00 -3.687279967681792670e+00 -3.555570117045495859e+00 -3.331236454856798090e+00 -3.331236454856798090e+00 -3.127092573563269085e+00 -3.196735520442316236e+00 -3.196735520442316236e+00 -3.295291045436406829e+00 -3.263689510300261443e+00 -3.346775989669171558e+00 -3.298530416962937029e+00 -3.861952968313355772e+00 -4.483522643891378223e+00 -5.239060965048245144e+00 -5.504287168174784028e+00 -5.738521000408256967e+00 -5.931086848904762121e+00 -6.284708966292159360e+00 -6.284708966292159360e+00 -6.604424621480418089e+00 -6.859962725583079290e+00 -7.159205072865410635e+00 -7.189183603967370217e+00 -7.367563510600376731e+00 -7.551168080162297791e+00 -7.677690344952391222e+00 -7.573511137374747904e+00 -7.662998769491565554e+00 -7.754785664338324835e+00 -7.872550755572026659e+00 -7.872550755572026659e+00 -7.972572257166724796e+00 -8.072204204320302168e+00 -8.165340377526836946e+00 -8.154643565158487206e+00 -8.297810653080704313e+00 -8.382449343143949960e+00 -8.499901757154407989e+00 -8.524942825457912932e+00 -8.590851875926823311e+00 -8.701322331644576025e+00 -8.716968395541712766e+00
2.213152926292844214e+00 2.090851944815774743e+00 1.999613659593127535e+00 1.900220483203631794e+00 1.900220483203631794e+00 1.631532757447708315e+00 1.178492834815689116e+00 1.485619607305942447e+00 1.020775968717591908e+00 1.264373434609111113e+00 2.035387636220625573e+00 2.171979948928184356e+00 2.195160273153931030e+00 2.205128820047207228e+00 2.206831721934729096e+00 2.359573197151233259e+00 2.359573197151233259e+00 2.563509142123435502e+00 2.886842654606928349e+00 2.886842654606928349e+00 3.424776009932600562e+00 3.853984810848170461e+00 4.320371469733105485e+00 4.317980433787211858e+00 4.583320307367475976e+00 4.877318359181029628e+00 4.777804091360009053e+00 4.796887322935639020e+00 4.724495133395587132e+00 4.587374111347806149e+00 4.425931398552814144e+00 4.425931398552814144e+00 4.508459358284873986e+00 3.991662856765426870e+00 3.806524507263462365e+00 3.881779402931233136e+00 3.841648041504152733e+00 3.443511625168465429e+00 3.387943263892779555e+00 3.419962939421913539e+00 3.359066467286109692e+00 3.334516025952235729e+00 3.328395773484755793e+00 3.328395773484755793e+00 3.357253174069805279e+00 3.248364127877578778e+00 2.986870919634421639e+00 2.977199445442280989e+00 2.429997700458607746e+00 2.007406861864981629e+00 1.472365120849098208e+00 1.352943910978230413e+00 1.008130998732070571e+00 5.586413683000224228e-01 4.469889400462879192e-01 1.097743691111049136e-01 -1.911600814363840217e-01 -3.751349466537760025e-01 -3.751349466537760025e-01 -4.347345730619213144e-01 -1.019850315351999992e+00 -1.459828477582547190e+00 -1.650745546825177934e+00 -2.396728451798102455e+00 -2.662794465539514377e+00 -2.909132596333427134e+00 -2.962079103680130832e+00 -3.084506937158446593e+00 -3.211646210130280732e+00 -3.372358204660134362e+00 -3.372358204660134362e+00 -3.476154196882377256e+00 -3.592663684784467293e+00 -3.686557329642286440e+00 -3.657408056919448036e+00 -3.703208613759627621e+00 -3.583259503895396936e+00 -3.371598987773897882e+00 -3.544059200080612371e+00 -3.363510191062340837e+00 -3.322908561039345621e+00 -3.228315079797864140e+00 -3.228315079797864140e+00 -3.076017383355819312e+00 -3.380187611660269820e+00 -3.861952968313355772e+00 -4.058011084126941448e+00 -4.984742878012163203e+00 -5.504287168174784028e+00 -5.762213024936377437e+00 -5.810806376480950775e+00 -6.021049043526534916e+00 -6.295609412338595057e+00 -6.357852364054693339e+00 -6.558137851128947204e+00 -6.878363375776656241e+00 -7.144638103172889387e+00 -7.144638103172889387e+00 -7.293303512481050355e+00 -7.422072828043769555e+00 -7.573511137374747904e+00 -7.459660961770084420e+00 -7.575325689236885651e+00 -7.739805097896150343e+00 -7.863803938950529648e+00 -7.887518436009534284e+00 -7.979068031113767390e+00 -8.068117687103825375e+00 -8.177916227974284524e+00 -8.208973891049103244e+00 -8.298377104538321447e+00 -8.453537898383640226e+00 -8.558768434485116927e+00 -8.558768434485116927e+00 -8.642629438632527084e+00 -8.727851784055904005e+00
2.213152926292844214e+00 2.088452034431136362e+00 1.988666746131847018e+00 1.929442152059040572e+00 1.813565712416981057e+00 1.582426096114578185e+00 1.400158358703272654e+00 5.915557615823808790e-01 5.714864373029285849e-01 5.714864373029285849e-01 4.396489355040364422e-01 7.340914107385764220e-01 2.195160273153931030e+00 2.211976870975682630e+00 2.209296828291285042e+00 2.220125634640984558e+00 2.359777263703612071e+00 2.290740987787206695e+00 2.505479079479355775e+00 2.964872514714572915e+00 3.500859359506732993e+00 3.500859359506732993e+00 3.915279089423568060e+00 4.278225896982354115e+00 4.583320307367475976e+00 4.570151102425550782e+00 4.763472693527562640e+00 4.796887322935639020e+00 4.768370553728627392e+00 4.696538624609430279e+00 4.645145086668092560e+00 4.495123793206321494e+00 4.703274023056433606e+00 4.346553310238328471e+00 4.030971788277912360e+00 3.865146805213928616e+00 3.865146805213928616e+00 3.595680964437538929e+00 3.459901047731787749e+00 3.419962939421913539e+00 3.413139940491282331e+00 3.324695955588442331e+00 3.265693883371416639e+00 3.357270291355052727e+00 3.386522711477256919e+00 3.372298792099836628e+00 3.279713608414170256e+00 2.847505774041975357e+00 2.847505774041975357e+00 2.265118452560863194e+00 1.703887958392644952e+00 1.352943910978230413e+00 1.223194498129040797e+00 7.639616140627633056e-01 4.469889400462879192e-01 8.320309101589810907e-03 -1.271565688871185429e-01 -3.673691017250607094e-01 -1.436081854513301947e-01 -5.830435798266901948e-01 -5.830435798266901948e-01 -1.303536816317955260e+00 -1.912330427797959365e+00 -2.396728451798102455e+00 -2.580983539546116479e+00 -2.823486937575423905e+00 -2.962079103680130832e+00 -3.053904363550968615e+00 -3.196308239226363757e+00 -3.280632238086261143e+00 -3.403145338443263501e+00 -3.437570209784073683e+00 -3.538293566974457960e+00 -3.603904254195844370e+00 -3.681191325082257659e+00 -3.681191325082257659e+00 -3.680588768583400228e+00 -3.653037557515368405e+00 -3.560620021194014662e+00 -3.560620021194014662e+00 -3.463394064584297105e+00 -3.269528767864251950e+00 -3.007361217985641932e+00 -3.042414776169401147e+00 -3.254414591877579976e+00 -3.510333862693245877e+00 -4.288276222650259761e+00 -4.527483404976210934e+00 -5.245245267946964773e+00 -5.521950357160582357e+00 -5.821192668024862016e+00 -5.821192668024862016e+00 -6.131965538186996412e+00 -6.393364151394447248e+00 -6.648342284155077664e+00 -6.704621473272566412e+00 -6.924960967009371693e+00 -7.123424232396137867e+00 -7.224835358948544339e+00 -7.218143388867800603e+00 -7.356937051932909810e+00 -7.436171174879450341e+00 -7.421628534950837519e+00 -7.581445087364762969e+00 -7.732605633485720276e+00 -7.881845340690757595e+00 -7.881845340690757595e+00 -7.970894996680813804e+00 -8.094589234305166414e+00 -8.208973891049103244e+00 -8.230832332392655104e+00 -8.407174039612876015e+00 -8.462957520092064811e+00 -8.571352490052797535e+00 -8.583936545620478142e+00 -8.657213448654063725e+00
2.209193128956957963e+00 2.041392803073349249e+00 1.988666746131847018e+00 1.861287578693328948e+00 1.750991314599481541e+00 1.582426096114578185e+00 1.285334276441717272e+00 5.194018206601985765e-01 4.541093078813557282e-01 3.438224828644831921e-01 1.904040449812069991e-01 1.013875594672047353e-01 1.342254868739429341e+00 2.214801462296394519e+00 2.214801462296394519e+00 2.208765529566030672e+00 2.223497367149009030e+00 2.290740987787206695e+00 2.295470500000468039e+00 2.730159887796891116e+00 3.056466905439204851e+00 3.481264521714193538e+00 3.489807739838380662e+00 3.936962471806941366e+00 4.325932060353134823e+00 4.541937598509820262e+00 4.541937598509820262e+00 4.807560796258391278e+00 4.792052635083547507e+00 4.696538624609430279e+00 4.690661466240949373e+00 4.590059344978962841e+00 4.703274023056433606e+00 4.197551882858260086e+00 4.252546633341792059e+00 4.085394808495456331e+00 4.026145004060857957e+00 3.580916254865951664e+00 3.580916254865951664e+00 3.506877110596886560e+00 3.343151966537844633e+00 3.343151966537844633e+00 3.276457964023199665e+00 3.324727516898863033e+00 3.386522711477256919e+00 3.379313908136866829e+00 3.410734574845757816e+00 3.068711227937985786e+00 2.700649484775665243e+00 2.496104474938892093e+00 1.969342096442715739e+00 1.571196497844201900e+00 1.028822325212429112e+00 9.961110712998517691e-01 6.619624819189403597e-01 2.401607897090048127e-01 -2.456432451060739097e-01 -2.456432451060739097e-01 -2.013253521295369497e-01 -3.374768339658378302e-01 -7.790338056589907190e-01 -9.836456658711438816e-01 -1.586085351265817733e+00 -2.143003564495947533e+00 -2.641400356023660301e+00 -2.770405837425119255e+00 -2.912880472428000189e+00 -3.131743814547717442e+00 -3.278219870603550579e+00 -3.278219870603550579e+00 -3.380032661090071500e+00 -3.533884788700554225e+00 -3.553723742226271742e+00 -3.610430285678217111e+00 -3.674309425480258628e+00 -3.695423436325463218e+00 -3.684903900424017387e+00 -3.653573696552392391e+00 -3.616379069768474341e+00 -3.529863165935807068e+00 -3.528532734354647982e+00 -3.381167717012226959e+00 -3.197383422241914630e+00 -3.116691924620847765e+00 -3.116691924620847765e+00 -3.492637755238888531e+00 -3.953218610376675102e+00 -4.527483404976210934e+00 -4.721484902500442615e+00 -5.166995297315533975e+00 -5.557733531162119434e+00 -5.903374665648089881e+00 -5.965988228125505444e+00 -6.171557710365461524e+00 -6.475659656508765849e+00 -6.772204362403110522e+00 -6.772204362403110522e+00 -6.920088684698544768e+00 -7.024857787648446816e+00 -7.218143388867800603e+00 -7.146086740658041947e+00 -7.281019678907627579e+00 -7.421628534950837519e+00 -7.592666223544758175e+00 -7.605999518914673629e+00 -7.741170554594490660e+00 -7.877758823474280803e+00 -7.985046964127155533e+00 -7.985046964127155533e+00 -8.120804510814057409e+00 -8.293017819169149263e+00 -8.407174039612876015e+00 -8.428798592893338437e+00 -8.512659597040748594e+00 -8.583936545620478142e+00 -8.597458501766414685e+00
