3.440899730836376236e+00 3.141229068752071640e+00 2.790910186633905887e+00 2.790910186633905887e+00 2.594445581318873373e+00 2.374014893726275055e+00 2.289058310363865978e+00 2.153339517164013284e+00 1.910663286784458181e+00 1.701946331475969743e+00 1.673136828044081703e+00 1.567255004400960328e+00 1.387737449933171607e+00 1.325004937837855667e+00 1.189428489569229308e+00 1.165228440042831881e+00 1.115956759720795555e+00 1.116537353346387818e+00 8.885857209781834465e-01 8.885857209781834465e-01 5.591205201196686181e-01 3.665249337293870202e-02 -1.332840185994873528e-01 -5.467101800071780815e-01 -8.552010740500085584e-01 -6.818021190771262896e-01 -4.504573509226392214e-01 -6.209149329109697746e-01 4.836506823015929157e-02 3.931420525245542530e-01 6.570422247964735618e-01 6.570422247964735618e-01 8.789890124812452799e-01 1.070672230443189932e+00 1.191753056705977309e+00 1.246900575965487645e+00 1.412845112091524191e+00 1.515772068681289886e+00 1.634121640534581754e+00 1.688689618261663306e+00 1.834809007251771984e+00 2.043715245437097483e+00 2.174750586832737476e+00 2.304638952489725945e+00 2.584570738999039996e+00 2.842517858210991122e+00 2.842517858210991122e+00 3.144593041069175143e+00 3.558267851453595920e+00 3.695115344186270967e+00 3.849543150354425514e+00 4.017745243324887028e+00 4.059010472417765136e+00 4.204989052394056515e+00 4.287073871735731068e+00 4.246034589851845453e+00 4.241713224894505530e+00 4.126982189614303742e+00 4.126982189614303742e+00 3.865193373173449132e+00 3.626245588028822020e+00 3.554423055077458482e+00 3.495394215540953642e+00 3.479186391352462770e+00 3.347393072343090470e+00 3.337970866834850003e+00 3.257673475120501205e+00 3.269490452617263010e+00 3.284797153682613491e+00 3.185011314101641844e+00 3.185011314101641844e+00 3.315620280935676956e+00 3.242536949296646931e+00 3.170753412533850568e+00 3.203305326257472441e+00 3.232164547684667877e+00 3.294694913220597599e+00 3.306267596958027077e+00 3.191899369014189247e+00 3.137169929286062420e+00 3.218414931270936918e+00 3.290463294285913776e+00 3.293450162378352086e+00 3.194852022185704410e+00 2.974286185508236979e+00 2.974286185508236979e+00 2.876898990319312066e+00 2.695625664404820654e+00 2.522003376544434960e+00 2.394644988338814340e+00 2.256307125511879619e+00 2.173951800891240627e+00 1.872996829236023064e+00 1.699134216953053889e+00 1.385328627089393638e+00 8.378988914164084978e-01 4.726004173855067880e-01 4.726004173855067880e-01 1.284650574572759607e-01 -5.679341951149261547e-01 -9.172113721832777511e-01 -1.309318368733149995e+00 -1.682082738018400692e+00 -1.613130278881622859e+00 -1.365634308068344849e+00 -1.213552252415409871e+00 -1.072863152982008295e+00 -1.229622211054893777e+00 -1.520211674623867193e+00 -1.520211674623867193e+00 -1.929911221590754566e+00 -2.363725333001500672e+00 -2.363725333001500672e+00 -2.786175939101185772e+00 -3.329730792381395688e+00 -3.718241020440709477e+00
3.254576681449230513e+00 3.082221530319049219e+00 2.797144614769520921e+00 2.655447499523472032e+00 2.525402730309783461e+00 2.341014988239371597e+00 2.225220256414942810e+00 2.002295691987184600e+00 1.746954977402137121e+00 1.746954977402137121e+00 1.565682402921866334e+00 1.466168652268810435e+00 1.387737449933171607e+00 1.261941808526101383e+00 1.200582238361354914e+00 1.165228440042831881e+00 1.206586959022953209e+00 1.161261326894781787e+00 1.032274201006213810e+00 6.530171641251300008e-01 3.656194051528242062e-01 2.065890053453647013e-01 -4.341833253589172936e-01 -7.827783205160292468e-01 -7.827783205160292468e-01 -9.809589473034032725e-01 -8.774466550599118175e-01 -6.209149329109697746e-01 -3.372216422980429118e-01 2.706236141652682003e-01 4.605473732184817148e-01 7.352641429769426473e-01 8.068993236505456190e-01 9.296020748462819894e-01 1.138141929896055782e+00 1.319016322252034357e+00 1.319016322252034357e+00 1.476353774245472650e+00 1.595049689258980941e+00 1.688689618261663306e+00 1.800922790437101462e+00 2.028999201753165949e+00 2.174750586832737476e+00 2.452111692464847170e+00 2.592009519736476975e+00 2.676909655473181271e+00 3.003136005042341239e+00 3.355545923496347616e+00 3.355545923496347616e+00 3.671141724401971729e+00 3.958321284149473485e+00 3.958321284149473485e+00 4.073712167774895754e+00 4.188359046801705787e+00 4.287073871735731068e+00 4.226826717833040981e+00 4.243514769695641675e+00 4.255391020467512497e+00 4.026121953024808242e+00 3.905977010210029299e+00 3.736401714672292762e+00 3.597362278966004467e+00 3.489769147882646472e+00 3.489769147882646472e+00 3.356070753615793212e+00 3.337861055856274017e+00 3.257673475120501205e+00 3.220671769294808140e+00 3.284949661160757373e+00 3.258128531272453277e+00 3.208931215816689608e+00 3.253573122951790353e+00 3.323535063537106371e+00 3.238461441087983061e+00 3.233158822210186134e+00 3.233158822210186134e+00 3.302205574635068253e+00 3.233857474142005639e+00 3.191899369014189247e+00 3.139909964076840421e+00 3.211245751111270863e+00 3.290463294285913776e+00 3.181160613685044325e+00 3.193128754548994586e+00 3.152350715936535597e+00 2.975229222343884317e+00 2.813690957962610817e+00 2.813690957962610817e+00 2.529884347737325623e+00 2.350001350304460779e+00 2.350001350304460779e+00 2.167990811626729464e+00 1.828339109976774735e+00 1.699134216953053889e+00 1.413840438545110212e+00 8.708999337491947212e-01 6.558801692674716133e-01 2.572221018363364253e-01 -1.112842294929533224e-02 -2.580134429921906447e-01 -9.633459207555499226e-01 -1.638687305647147152e+00 -1.638687305647147152e+00 -1.731653881437587250e+00 -1.518424408483627586e+00 -1.213552252415409871e+00 -1.167571216992767003e+00 -1.281488317958945800e+00 -1.357803863689340140e+00 -1.679216377914047875e+00 -1.839798680837809064e+00 -2.291733551905791977e+00 -2.561770926695027484e+00 -3.091969483553027143e+00 -3.304886495184627293e+00 -3.657247488810974723e+00
3.178116985431640895e+00 2.908897334297428916e+00 2.908897334297428916e+00 2.636411443421868839e+00 2.457994851047006435e+00 2.341014988239371597e+00 2.147529316404941380e+00 1.936658741261748418e+00 1.821637007472005632e+00 1.635445142074683389e+00 1.555724983995542710e+00 1.520027371975680275e+00 1.341723320974361311e+00 1.226425784034730793e+00 1.226425784034730793e+00 1.178521013016695207e+00 1.122788988667251520e+00 1.161261326894781787e+00 8.486143272371833302e-01 4.733577875159730719e-01 3.656194051528242062e-01 -2.050367894108441613e-01 -5.516885029831958276e-01 -6.414003363617855058e-01 -1.022828347765049717e+00 -1.057378221035839339e+00 -1.057378221035839339e+00 -8.394038607789220396e-01 1.873282574348602084e-02 1.873282574348602084e-02 3.750365381184017632e-01 6.602702047940038899e-01 8.068993236505456190e-01 8.809392485549427665e-01 1.092890631000272617e+00 1.211584362792773595e+00 1.395532316907154735e+00 1.438355098872065696e+00 1.500224891489585044e+00 1.684477814481569080e+00 1.916618023259030634e+00 1.916618023259030634e+00 2.168083493958739894e+00 2.463538123018773618e+00 2.592009519736476975e+00 2.689404301321757007e+00 2.967723999888534969e+00 3.149680403290884279e+00 3.491843558742584008e+00 3.650856928053520800e+00 3.810325842080618308e+00 4.049463360151688285e+00 4.138165839293497683e+00 4.138165839293497683e+00 4.238542741804254277e+00 4.241746906665365024e+00 4.243514769695641675e+00 4.237919728052074397e+00 4.079732734254458926e+00 3.905977010210029299e+00 3.666117990254446735e+00 3.610362910972809480e+00 3.535122589742982324e+00 3.469347605396994716e+00 3.382429427978282721e+00 3.322160454739038649e+00 3.293280354035887036e+00 3.250902669318148419e+00 3.250902669318148419e+00 3.256329102141866549e+00 3.206187300731185186e+00 3.253573122951790353e+00 3.298215030086891097e+00 3.257409389514752007e+00 3.232107904196834358e+00 3.258994705433687411e+00 3.256468971577893168e+00 3.247354595988884096e+00 3.185862975807826736e+00 3.169891964829714581e+00 3.181835283048424223e+00 3.214310461628188786e+00 3.204966063342063798e+00 3.177427676301361359e+00 3.177427676301361359e+00 2.967549197327382871e+00 2.821931654430465564e+00 2.688331351101142186e+00 2.526663175577792853e+00 2.368270976910838321e+00 2.243431443456175955e+00 1.959689216002022505e+00 1.770483361480378326e+00 1.551157474365578937e+00 1.125170403134637453e+00 6.746598303379929273e-01 6.746598303379929273e-01 2.032751651742725763e-01 -3.030792651283453210e-01 -3.030792651283453210e-01 -1.013515209460313260e+00 -1.705917780911520243e+00 -1.756382556763595559e+00 -1.862924712146881934e+00 -1.630648521801884243e+00 -1.391769685184478078e+00 -1.222525356777270034e+00 -1.332440669336649508e+00 -1.386761585884988657e+00 -1.670066791490989910e+00 -1.958993623181682908e+00 -1.958993623181682908e+00 -2.541677485840960315e+00 -3.002605022336247043e+00 -3.304886495184627293e+00 -3.755627716824978535e+00
3.191890954023861138e+00 3.038017384734166715e+00 2.735594092002246569e+00 2.569615040763865821e+00 2.509032701062349879e+00 2.234784393113249834e+00 2.002971335128778563e+00 2.002971335128778563e+00 1.761681647659702588e+00 1.576136303588834719e+00 1.555724983995542710e+00 1.510746523132967756e+00 1.325980893374527625e+00 1.235633216287055358e+00 1.181590016440350555e+00 1.138913027395018540e+00 1.146074751982495421e+00 9.371532887791297339e-01 5.630081102621922184e-01 5.630081102621922184e-01 1.576576086594699277e-01 -3.853600196314690973e-01 -5.516885029831958276e-01 -7.610655143525859589e-01 -1.077902032358169837e+00 -1.169637661771155912e+00 -1.172607189319823551e+00 -9.166935522328205632e-01 -5.187012137945596901e-01 1.852602109646301898e-01 4.759328174096930653e-01 4.759328174096930653e-01 7.475281718559450006e-01 9.662059375231202285e-01 1.092890631000272617e+00 1.168363925404706904e+00 1.350631606445824140e+00 1.438355098872065696e+00 1.489259816579035611e+00 1.663777379858465855e+00 1.766273733941078117e+00 2.017660157593325287e+00 2.161877569293544799e+00 2.317523138527354476e+00 2.599448300473913953e+00 2.800245287058736654e+00 2.800245287058736654e+00 3.152512884145745709e+00 3.462405620787196714e+00 3.770294530233788688e+00 3.770294530233788688e+00 4.055688879998137431e+00 4.138047842287361888e+00 4.166976147503999250e+00 4.182990638202737088e+00 4.266843392467232654e+00 4.238741945268393430e+00 4.145617112689654604e+00 4.131329972022583341e+00 3.946836440831795745e+00 3.706265693755705026e+00 3.577985598451375537e+00 3.577985598451375537e+00 3.447669750092147822e+00 3.376173852484325444e+00 3.340931711886153899e+00 3.338055046962767225e+00 3.236783318098206408e+00 3.285648860450145037e+00 3.204863230501455718e+00 3.191131110745661470e+00 3.300770622794265030e+00 3.300397239559171858e+00 3.273040485673335276e+00 3.273040485673335276e+00 3.200457477993574607e+00 3.250934920357567037e+00 3.250934920357567037e+00 3.228013146255157562e+00 3.170127971260130462e+00 3.181835283048424223e+00 3.179383873600770460e+00 3.227554434776644054e+00 3.219622698148968176e+00 3.076550488621137447e+00 2.958346867147451320e+00 2.917608956011846555e+00 2.681037037797464162e+00 2.464522179141959590e+00 2.464522179141959590e+00 2.260246427175384820e+00 2.108261328275172986e+00 1.770483361480378326e+00 1.711640863427230208e+00 1.116346596921721668e+00 9.025350201856514598e-01 4.524513299192360893e-01 2.120974323015749063e-01 -3.707873244338866225e-02 -6.836836327679068903e-01 -1.436468572641039110e+00 -1.436468572641039110e+00 -1.916923524312719618e+00 -1.906731146031193980e+00 -1.630648521801884243e+00 -1.569987117953546285e+00 -1.286046046193121573e+00 -1.332440669336649508e+00 -1.596232574637455270e+00 -1.626875708958801514e+00 -1.749686140084863784e+00 -2.240123687039814904e+00 -2.503749047974934250e+00 -2.618787374466268858e+00 -3.296588600239759081e+00 -4.210792587250306696e+00
3.191890954023861138e+00 2.979695443309289704e+00 2.676740240776688928e+00 2.569615040763865821e+00 2.339499054034920089e+00 2.115969179346344209e+00 2.063967194000000838e+00 1.870230998138681766e+00 1.611139371863126613e+00 1.611139371863126613e+00 1.530113114459264345e+00 1.450521866934438853e+00 1.325980893374527625e+00 1.209974730501766071e+00 1.158594092305839984e+00 1.138913027395018540e+00 1.014989467186671490e+00 7.476811034635837405e-01 3.670459232269260852e-01 2.749496082460727853e-01 -5.806270195746621177e-02 -5.116498539189067163e-01 -6.669198030354737128e-01 -9.999285680641133434e-01 -1.336331638268229538e+00 -1.356432932419977977e+00 -1.277556217921611115e+00 -6.331205779979288684e-01 -6.331205779979288684e-01 8.629280800665961593e-02 3.923291894327251006e-01 5.868483959784263071e-01 6.886678320355916760e-01 9.163577247599392628e-01 1.047639332104489451e+00 1.245109587253220962e+00 1.329260324742817412e+00 1.419670354441797677e+00 1.547562811521873138e+00 1.734783865461605012e+00 1.734783865461605012e+00 2.011122937286284884e+00 2.315190562855548695e+00 2.481262495719586347e+00 2.606887081211350932e+00 2.799836704946180532e+00 2.933353242621402401e+00 3.274706330405473764e+00 3.427287332897253069e+00 3.567485298212526246e+00 3.889956473951464933e+00 4.044255444984761638e+00 4.140938962838848880e+00 4.138592714614016899e+00 4.215127658115620513e+00 4.215127658115620513e+00 4.231840739610432500e+00 4.204202710333859727e+00 4.131329972022583341e+00 3.987695871453562191e+00 3.755261426177131323e+00 3.633587807464174979e+00 3.483433052095638693e+00 3.427608988488432207e+00 3.404851531925341401e+00 3.363497821529005005e+00 3.286983823599266330e+00 3.286983823599266330e+00 3.267349346763230855e+00 3.199076221329046454e+00 3.191131110745661470e+00 3.301058019004630584e+00 3.340097243112704728e+00 3.281249582501518880e+00 3.255232953144301167e+00 3.200624008573287327e+00 3.201934044424628478e+00 3.150832990801238687e+00 3.224969242108674194e+00 3.224969242108674194e+00 3.183211367168245598e+00 3.162793932767101523e+00 3.227554434776644054e+00 3.246478353519762994e+00 3.102823441907228474e+00 2.958346867147451320e+00 2.936293866811042097e+00 2.694850619288315485e+00 2.527365307826507035e+00 2.384845088086875453e+00 2.356585955890913464e+00 2.218640323367273126e+00 2.076868455847899586e+00 1.502848205474414334e+00 1.502848205474414334e+00 8.068562317047606181e-01 4.586050941219564914e-01 2.120974323015749063e-01 5.516825202264230565e-02 -7.274782264960414357e-01 -1.081981762963984517e+00 -1.803014201514994141e+00 -1.996809808203715342e+00 -2.087875095009831483e+00 -1.881732372076640125e+00 -1.435266535276396915e+00 -1.435266535276396915e+00 -1.409701224066357561e+00 -1.557320838694349341e+00 -1.626875708958801514e+00 -1.689523568663295006e+00 -2.149385080480281651e+00 -2.503749047974934250e+00 -3.023559641882481941e+00 -3.334895986230995035e+00 -3.684480717993492860e+00
3.205664922616081824e+00 2.853385669475707154e+00 2.627702983145364435e+00 2.504375273110237998e+00 2.221003257022833743e+00 1.980897992117446549e+00 1.980897992117446549e+00 1.782298710340327830e+00 1.542391038534163705e+00 1.515750924354197560e+00 1.488759658715482992e+00 1.411515264184242113e+00 1.318582569591765008e+00 1.183649701368791440e+00 1.122380817332291114e+00 1.069600682967251970e+00 8.313546478399841400e-01 4.757871165201271735e-01 4.757871165201271735e-01 8.610912154196932733e-02 -3.409983606015277169e-01 -5.116498539189067163e-01 -6.666146250947635465e-01 -1.161575786122732268e+00 -1.336331638268229538e+00 -1.653035933526646239e+00 -1.921136932617943049e+00 -1.260922930802268027e+00 -2.150852721539882328e-01 4.340955839016555351e-02 2.142724528888443059e-01 5.218907368235256028e-01 7.970168687089486115e-01 7.970168687089486115e-01 1.011288446099006588e+00 1.232796228767439661e+00 1.329260324742817412e+00 1.380708983520378075e+00 1.496773073869319903e+00 1.575758368093947759e+00 1.865401927253719450e+00 1.975550923523706759e+00 2.155671644628349704e+00 2.490160427649451336e+00 2.725755467159583390e+00 2.725755467159583390e+00 2.902661845494387549e+00 3.261581321053952820e+00 3.427287332897253069e+00 3.507740643403415959e+00 3.874233454745613869e+00 4.044255444984761638e+00 4.137641916109198625e+00 4.144484455580781379e+00 4.151895312839110730e+00 4.282070378615610906e+00 4.237597412039870726e+00 4.237597412039870726e+00 4.178504882211987237e+00 3.876683559796771039e+00 3.755261426177131323e+00 3.650991854226290023e+00 3.475554154106589966e+00 3.427608988488432207e+00 3.387088685644222608e+00 3.366686760299396841e+00 3.342347384933488375e+00 3.231429532872535315e+00 3.234536293325223077e+00 3.242413096024714392e+00 3.149057577549380760e+00 3.342956403452367553e+00 3.342956403452367553e+00 3.304901326728025612e+00 3.196738595953353190e+00 3.200624008573287327e+00 3.177616487757275898e+00 3.176322492896638927e+00 3.121013626769987948e+00 3.184224614624163507e+00 3.165605741892330904e+00 3.156607179771575566e+00 3.222822454287713079e+00 3.167583514959605218e+00 3.167583514959605218e+00 2.982018356044847440e+00 2.847606228429283348e+00 2.694850619288315485e+00 2.545847525133922762e+00 2.462568795646997266e+00 2.356585955890913464e+00 2.192925072680150578e+00 2.028507633831298396e+00 1.834113991471276961e+00 1.120159387710967902e+00 5.894731119972299593e-01 5.894731119972299593e-01 2.594301836202294043e-01 -3.243748439016063134e-01 -3.243748439016063134e-01 -1.118407263121959705e+00 -1.770706381071260660e+00 -1.996809808203715342e+00 -2.165768150053551722e+00 -2.139750835394531592e+00 -1.814118431211857674e+00 -1.465528869360282815e+00 -1.552907412837396972e+00 -1.537928568558707410e+00 -1.722579832672542555e+00 -1.910233795507567445e+00 -1.910233795507567445e+00 -2.393134900002090060e+00 -3.006131853075965754e+00 -3.334895986230995035e+00 -3.780108836126151672e+00
3.132137687791703762e+00 2.820769976325878226e+00 2.627702983145364435e+00 2.453433232798294839e+00 2.094197961909913808e+00 2.028058600500805664e+00 1.846239850490720702e+00 1.712260725022472174e+00 1.609893205101883273e+00 1.460725314917062923e+00 1.437661895369557241e+00 1.437661895369557241e+00 1.312449852765245950e+00 1.178880653428736602e+00 1.122380817332291114e+00 9.911042370732696671e-01 6.937078790401459694e-01 5.831729026936273153e-01 2.176932646886468314e-01 -2.791306490888627659e-02 -1.732695386344878241e-01 -5.015658325277556617e-01 -8.500055227509247802e-01 -8.500055227509247802e-01 -1.448713099164122609e+00 -1.932563911969626957e+00 -1.921136932617943049e+00 -1.155135521015995259e+00 -2.722892625262057220e-01 4.340955839016555351e-02 3.607197205255838757e-01 5.164545673487395128e-01 6.614827011293922254e-01 8.939569184543934011e-01 1.118022350492031247e+00 1.118022350492031247e+00 1.292498408726689973e+00 1.426941667245103851e+00 1.426941667245103851e+00 1.635969569442341065e+00 1.818682098012760484e+00 1.975550923523706759e+00 2.127629098340410696e+00 2.444332761995525072e+00 2.596486897126078386e+00 2.783557538192871217e+00 2.882473195240881303e+00 3.071431477087080975e+00 3.383675524443555904e+00 3.695602051568419810e+00 3.695602051568419810e+00 4.000669713612557743e+00 4.125559128643108586e+00 4.144484455580781379e+00 4.153258385131108454e+00 4.279775286523262778e+00 4.259673862996713467e+00 4.236451486732506488e+00 4.175004134345361884e+00 4.020621160241604208e+00 3.776311920501470354e+00 3.535588195045325399e+00 3.535588195045325399e+00 3.381774036803211203e+00 3.352671185463571568e+00 3.366686760299396841e+00 3.346208598732050454e+00 3.241745782264320752e+00 3.234536293325223077e+00 3.181574743011218676e+00 3.126723137062124014e+00 3.233888122340103255e+00 3.311522751042106361e+00 3.287681271955709139e+00 3.197671102121699249e+00 3.203750602921918933e+00 3.184225043185190174e+00 3.184225043185190174e+00 3.156411349137769662e+00 3.178231367315231815e+00 3.165605741892330904e+00 3.133590894182304964e+00 3.210990294264377543e+00 3.252128539899477921e+00 3.117892950024839127e+00 3.014640982348631315e+00 2.939609594336859644e+00 2.717543400837269196e+00 2.506913412637842953e+00 2.506913412637842953e+00 2.449504073647716940e+00 2.271284943907610820e+00 1.696309016584721441e+00 1.696309016584721441e+00 1.113945713174489427e+00 6.035577317538588504e-01 4.287499980250372156e-01 2.437476844474527615e-01 -3.447925150736672606e-01 -7.475468895030893401e-01 -1.535195543960292230e+00 -1.798724463120587647e+00 -1.972303026236690071e+00 -2.274743391943780058e+00 -2.194712718467329182e+00 -2.194712718467329182e+00 -1.809081077741629073e+00 -1.805715120140079843e+00 -1.747339131831208370e+00 -1.973400898104200385e+00 -2.048280927510417460e+00 -2.081935919865737006e+00 -2.368282986658750033e+00 -3.094717609285037252e+00 -3.369866563786110714e+00 -4.236749309831751908e+00
2.902936734495036752e+00 2.902936734495036752e+00 2.602935627613309322e+00 2.248509101330542936e+00 2.094197961909913808e+00 1.896688386608131438e+00 1.688103347745187666e+00 1.712260725022472174e+00 1.498273956786801531e+00 1.394295090916348512e+00 1.428763181784452385e+00 1.348157408696665893e+00 1.268206596365422101e+00 1.235499016891536961e+00 1.096012135500660456e+00 7.703114954641169243e-01 7.703114954641169243e-01 4.594833989890427794e-01 1.027832770802064311e-01 -2.791306490888627659e-02 -2.629782302539471761e-01 -5.091392108297660979e-01 -5.864834471816915418e-01 -1.022335177263834050e+00 -1.179185289004535120e+00 -1.497035423613764626e+00 -1.642691081477556825e+00 -5.846225142847651934e-01 -5.846225142847651934e-01 2.847511428850334203e-02 3.733160447817259753e-01 5.164545673487395128e-01 6.576099524941780849e-01 8.842651245894934675e-01 9.950435483103502454e-01 1.221295337840631268e+00 1.287922534040560230e+00 1.351299255349281303e+00 1.526920065772748414e+00 1.705260524055736582e+00 1.705260524055736582e+00 1.924935521828742946e+00 2.238854367435754167e+00 2.444332761995525072e+00 2.554849164363921954e+00 2.753608065454215215e+00 2.882473195240881303e+00 3.224327848652805528e+00 3.340063715989858295e+00 3.461538709443211292e+00 3.841991584070243437e+00 3.969337443665518883e+00 4.093326018432714264e+00 4.144681549939939202e+00 4.207209530044771384e+00 4.207209530044771384e+00 4.295645072511752538e+00 4.256832039393703582e+00 4.175004134345361884e+00 4.040272008848402763e+00 3.843312110665006998e+00 3.519268408947423765e+00 3.445113543678997026e+00 3.333178055988721411e+00 3.327922303720372899e+00 3.371334489808543999e+00 3.321765980708277333e+00 3.261275609127099351e+00 3.211842636887716651e+00 3.164073264693390897e+00 3.166718225675575926e+00 3.166718225675575926e+00 3.321599332679760153e+00 3.180287181674121832e+00 3.177840620195883758e+00 3.208784599875817101e+00 3.179965034864946638e+00 3.198509688923818928e+00 3.162043528712671581e+00 3.137104063203280724e+00 3.147717022663974795e+00 3.141732071688318140e+00 3.227306730870122653e+00 3.227306730870122653e+00 3.150515576328622114e+00 2.942681069806334371e+00 2.942681069806334371e+00 2.727488364776762264e+00 2.520778784248029591e+00 2.456787037765858717e+00 2.445890940558900439e+00 2.405503826143227109e+00 2.054258223893935309e+00 1.463844996996635395e+00 1.134093656530209326e+00 8.658293846102689262e-01 4.260510843044923446e-01 6.006968727786397844e-02 6.006968727786397844e-02 -7.817066796541866092e-01 -1.542588768517016318e+00 -1.798724463120587647e+00 -1.994508241537688686e+00 -2.224602680848667191e+00 -2.212844328390354498e+00 -2.191981297308121857e+00 -2.132851509179351179e+00 -1.943281652995241249e+00 -2.059495163040829802e+00 -2.160913229750110798e+00 -2.160913229750110798e+00 -2.032915512083609766e+00 -2.768955387812565672e+00 -3.094717609285037252e+00 -3.453152746617042190e+00 -4.243405885930402022e+00
3.005841222971736393e+00 2.781680353919468107e+00 2.578168272081254209e+00 2.405973478818488331e+00 2.039786412859273312e+00 1.702028465298613513e+00 1.702028465298613513e+00 1.563646864631999867e+00 1.405770940193012297e+00 1.394295090916348512e+00 1.380370376383773801e+00 1.319577847383423430e+00 1.268206596365422101e+00 1.145277655213927659e+00 8.977221857652798453e-01 8.417281389240760525e-01 5.486927382503797856e-01 2.264582577949064701e-01 2.264582577949064701e-01 -1.310921198766391293e-01 -4.184489644231390026e-01 -5.091392108297660979e-01 -9.519368800693085442e-01 -1.069718802660809764e+00 -1.179185289004535120e+00 -1.124318625476359745e+00 -1.110712283341193984e+00 -8.206183336261509975e-01 -2.810123143878268670e-01 1.542551309390650591e-02 3.860443930605139129e-01 5.074129502498466726e-01 7.703247163977923195e-01 8.720730217278689356e-01 9.788229157087195986e-01 1.209664207601015340e+00 1.354184810004134043e+00 1.354184810004134043e+00 1.502526887585738935e+00 1.632776124162729436e+00 1.771617017571350816e+00 1.884120763308655633e+00 2.200578881014396693e+00 2.397531151437881203e+00 2.637589011603862055e+00 2.704996233924807036e+00 2.863057463819743464e+00 3.186766511685814152e+00 3.415336775483006182e+00 3.415336775483006182e+00 3.792883225459410035e+00 4.068161284787793264e+00 4.113702551448738198e+00 4.144878644299096138e+00 4.204134846254770963e+00 4.277480194430913762e+00 4.255162626588993469e+00 4.264253526724392174e+00 4.166247076527016979e+00 3.953185980710509195e+00 3.890015005861362507e+00 3.643860621562094781e+00 3.380455926412387235e+00 3.298348112261998200e+00 3.298348112261998200e+00 3.323066889621233866e+00 3.322503122998819780e+00 3.261275609127099351e+00 3.201371932716960522e+00 3.153481467621327639e+00 3.104420054097980053e+00 3.241567541069337643e+00 3.304145374439845906e+00 3.269857130378193144e+00 3.149041384883507266e+00 3.210470685733766594e+00 3.210470685733766594e+00 3.223898960218233078e+00 3.130978184622764005e+00 3.137104063203280724e+00 3.136526823226087668e+00 3.167610547301240587e+00 3.196646779766015634e+00 3.298732220233104417e+00 3.158640068588043803e+00 3.047263608652414302e+00 2.832527039895586185e+00 2.601321269421200899e+00 2.601321269421200899e+00 2.469564800071368360e+00 2.448822130679161546e+00 2.405503826143227109e+00 2.259467514596846804e+00 1.536551529748172884e+00 1.134093656530209326e+00 6.179480764544946769e-01 4.337275978286990186e-01 2.626125269770191450e-01 -1.043019048302118446e+00 -7.653343584572094294e-01 -1.105743682536673766e+00 -1.776809271451649908e+00 -2.086013820002182939e+00 -2.086013820002182939e+00 -2.258697133727864070e+00 -2.365418610853274206e+00 -2.132851509179351179e+00 -2.222407848340815395e+00 -2.260316184776900439e+00 -2.269514231090367762e+00 -2.455074913194803976e+00 -3.025479646735669714e+00 -2.716098529776695081e+00 -3.002490096183111135e+00 -3.850922518395404115e+00 -3.850922518395404115e+00
2.932672238790362762e+00 2.762313018134096687e+00 2.356155200658722748e+00 2.356155200658722748e+00 1.989920852468870960e+00 1.562018463394073908e+00 1.552145651996731601e+00 1.402262838694849245e+00 1.335890013622518691e+00 1.344862871056141884e+00 1.359738916679391174e+00 1.391777144903014518e+00 1.379778173003871844e+00 1.027740836429379856e+00 6.941252998813085551e-01 6.941252998813085551e-01 3.995790261684765143e-01 1.085907357628190795e-01 -1.175882644786288567e-02 -2.263884547613582432e-01 -5.253864620644718153e-01 -5.647293253568834714e-01 -1.425455384192650055e+00 -1.889301344612223321e+00 -1.500828145076080311e+00 -1.624610121276250707e+00 -8.578565466332380707e-01 -8.578565466332380707e-01 -2.026278405848961350e-01 2.378707637550615539e-01 3.860443930605139129e-01 5.022543020087646415e-01 7.479434897613816968e-01 8.720730217278689356e-01 1.077373535571406027e+00 1.192935006757290806e+00 1.288851291355627371e+00 1.395948335598222290e+00 1.429016642532468406e+00 1.503711249033896635e+00 1.717527388187801929e+00 2.043159943629571540e+00 2.043159943629571540e+00 2.339402551328940039e+00 2.596744707829154120e+00 2.704996233924807036e+00 2.825945399175004535e+00 3.131337935285523510e+00 3.297105168633292838e+00 3.602062378747665772e+00 3.748167181345078092e+00 3.944042145823194012e+00 4.116251767918183369e+00 4.184499175311509056e+00 4.184499175311509056e+00 4.258144751069103506e+00 4.244820738011730654e+00 4.264253526724392174e+00 4.151721803812181477e+00 3.964801217116744159e+00 3.890015005861362507e+00 3.531635991219151283e+00 3.409833433560620186e+00 3.307226084783681408e+00 3.325996539089872250e+00 3.330542888740708474e+00 3.330542888740708474e+00 3.259418034473642756e+00 3.192709750254653756e+00 3.153481467621327639e+00 3.112784856507446740e+00 3.210329630027771941e+00 3.304145374439845906e+00 3.272763226860433416e+00 3.145270764256442142e+00 3.198894447868683155e+00 3.164972055584319044e+00 3.183428776892850642e+00 3.214198840943359503e+00 3.136990037063078773e+00 3.211948512016337354e+00 3.211948512016337354e+00 3.313514300742548269e+00 3.206728202304364395e+00 3.158640068588043803e+00 3.023650084656655412e+00 2.832395723283588129e+00 2.709736185709765266e+00 2.518399312824404213e+00 2.446415293803140933e+00 2.396371411907785465e+00 2.316523931483332355e+00 1.812362914900014887e+00 1.812362914900014887e+00 1.168013210054976270e+00 6.811649308909785150e-01 4.337275978286990186e-01 1.476772996150243766e-01 -4.109114913986252615e-01 -7.653343584572094294e-01 -1.498076992204275593e+00 -1.638089337321681382e+00 -1.881820041687551903e+00 -2.137547651027752238e+00 -2.300045823513548804e+00 -2.300045823513548804e+00 -2.341215267441159487e+00 -2.229713550113133103e+00 -2.229713550113133103e+00 -2.257945529751111735e+00 -2.648711850216772579e+00 -3.025479646735669714e+00 -3.044244158810267997e+00 -2.964711445931300204e+00 -3.364803837906160666e+00 -4.197330399216067320e+00
2.860709334594375708e+00 2.744567644331818990e+00 2.554696445468128463e+00 2.148777980549738675e+00 1.767126934192244869e+00 1.767126934192244869e+00 1.447556369267799292e+00 1.346520798645353567e+00 1.335890013622518691e+00 1.325348707597588271e+00 1.366368228107986305e+00 1.391777144903014518e+00 1.340199124899357885e+00 9.545700693247703983e-01 8.094495855520766892e-01 4.903334078007089980e-01 3.104505250361991875e-01 2.231571751232516443e-01 -1.052064876101014845e-01 -4.287448755153016600e-01 -4.287448755153016600e-01 -9.671611030063627101e-01 -1.851619487807240727e+00 -1.889301344612223321e+00 -2.106816007248235589e+00 -2.069684666394730588e+00 -1.637977814923778697e+00 -5.942388424917722789e-01 -3.963500275113706062e-01 -2.607835363339709722e-02 3.776230359322474972e-01 6.412869011540432984e-01 6.412869011540432984e-01 8.507644734337392878e-01 1.058790010262779635e+00 1.192935006757290806e+00 1.266085974526217850e+00 1.380904999587968307e+00 1.429016642532468406e+00 1.574472131187159007e+00 1.726088631818814001e+00 1.884624287724192770e+00 2.161696694461209489e+00 2.485428284424066714e+00 2.485428284424066714e+00 2.659276473132916152e+00 2.975980766699271030e+00 2.975980766699271030e+00 3.256014811489527538e+00 3.587290547839046884e+00 3.748167181345078092e+00 3.893972044720639403e+00 4.139199958401563073e+00 4.164056502114644509e+00 4.206449240074143781e+00 4.227485039794268040e+00 4.276661308092693403e+00 4.207418499347940433e+00 4.048174862894007298e+00 4.048174862894007298e+00 3.899517828497309324e+00 3.564756051322790942e+00 3.409833433560620186e+00 3.339926058909649775e+00 3.348500732125888391e+00 3.318116476649488167e+00 3.283905585924042470e+00 3.244608218856105175e+00 3.202451160252470341e+00 3.149259038725430671e+00 3.124232897622102989e+00 3.124232897622102989e+00 3.262823146355670278e+00 3.235695210780649589e+00 3.145270764256442142e+00 3.189437247699231648e+00 3.134406843469401238e+00 3.183428776892850642e+00 3.161822519257733166e+00 3.184235519455779873e+00 3.195741271971766828e+00 3.293865684936471805e+00 3.251579865900128929e+00 3.251579865900128929e+00 3.112505850992406398e+00 2.877937198566088206e+00 2.877937198566088206e+00 2.677727496568989007e+00 2.498586268778349329e+00 2.446415293803140933e+00 2.375080060649557012e+00 2.162075617752964973e+00 1.904853572298290665e+00 1.401196177980301272e+00 1.164691148432025258e+00 9.210482974328835226e-01 3.951146326773039563e-01 -1.383729985986501265e-01 -1.383729985986501265e-01 -7.923359934037615959e-01 -1.346082143215905802e+00 -1.638089337321681382e+00 -1.837040683965286858e+00 -2.114740852277716243e+00 -2.256481654858546904e+00 -2.310534964656088874e+00 -2.301875803918781216e+00 -2.253184076098119881e+00 -2.273832230185558689e+00 -2.271944053697874999e+00 -2.564487110256233660e+00 -2.889965756144846409e+00 -2.558052048999404082e+00 -3.369130653540516551e+00 -3.369130653540516551e+00 -4.150290602796529171e+00
2.789466403132707661e+00 2.744567644331818990e+00 2.538203088987557532e+00 2.220890608647074771e+00 1.995547010792636300e+00 1.614524028807183598e+00 1.438285651216788530e+00 1.352818054080556109e+00 1.311973801561200803e+00 1.333192645179676727e+00 1.333192645179676727e+00 1.379158992874848666e+00 1.052759687747081063e+00 9.545700693247703983e-01 7.139136257832737753e-01 3.808453971495687762e-01 3.104505250361991875e-01 3.474338279034688837e-02 -1.789321974338370369e-01 -3.209695932770120219e-01 -6.822275712777674528e-01 -1.759593915794594565e+00 -1.759593915794594565e+00 -1.958856198813120564e+00 -2.147555197199282340e+00 -2.147555197199282340e+00 -1.595396056162652343e+00 -7.666217013893441568e-01 -3.963500275113706062e-01 -3.324872139056495035e-02 3.643691689470165418e-01 4.880029760151670115e-01 7.413813870852847820e-01 8.426788910571900715e-01 9.517311379835982077e-01 1.162830126752192328e+00 1.310521903798488097e+00 1.310521903798488097e+00 1.427950764185871968e+00 1.564678627452857462e+00 1.726088631818814001e+00 1.825944681946877646e+00 2.110523150750913679e+00 2.285134808016058283e+00 2.560806137612675837e+00 2.617574604260033855e+00 2.788799519660223325e+00 3.079364180254742678e+00 3.400094742095120193e+00 3.400094742095120193e+00 3.704551918498892871e+00 4.032234422211748104e+00 4.139199958401563073e+00 4.187418759615589181e+00 4.232480758582624070e+00 4.227485039794268040e+00 4.225781494704177632e+00 4.161061526959056067e+00 4.134396031161980289e+00 3.978835128023494150e+00 3.906543871052015948e+00 3.743008435448235804e+00 3.469249179096592250e+00 3.331327372898828187e+00 3.331327372898828187e+00 3.313371990397313116e+00 3.249606494804461843e+00 3.244608218856105175e+00 3.203530387787980160e+00 3.145198992069338395e+00 3.128519381398199517e+00 3.177221940675079015e+00 3.206542569807127485e+00 3.242313762468697291e+00 3.148606007857340572e+00 3.122431222184464339e+00 3.103841631354484321e+00 3.136155229856181226e+00 3.169733924883231246e+00 3.236201398028908827e+00 3.236201398028908827e+00 3.313517266284763174e+00 3.162499620765594432e+00 3.157507063866050956e+00 3.056386300668575196e+00 2.818378453719060595e+00 2.774562128664224581e+00 2.638632455539852373e+00 2.480234746257665712e+00 2.422217720747001035e+00 2.298572010614669203e+00 2.119343517904372920e+00 2.119343517904372920e+00 1.602419892957418712e+00 9.150311752918711683e-01 9.150311752918711683e-01 4.005924702715828456e-01 -1.002837766930930741e-01 -4.426264783209542530e-01 -7.786266707874690551e-01 -1.339670806189979579e+00 -1.580688475304641960e+00 -1.962252065550206481e+00 -2.075424794082861624e+00 -2.208270621979681714e+00 -2.255651318458903987e+00 -2.234960485524465579e+00 -2.234960485524465579e+00 -2.284504469808251947e+00 -2.215131087908146057e+00 -2.564487110256233660e+00 -2.429984254821357492e+00 -2.580656959625568625e+00 -3.032620869583068313e+00 -3.789231543922283674e+00 -4.062086152467366595e+00
2.829830696609079155e+00 2.684343707543177526e+00 2.353934595128767349e+00 2.353934595128767349e+00 2.063485000567273353e+00 1.539441939532269821e+00 1.438285651216788530e+00 1.308567847091138159e+00 1.276604431884628355e+00 1.305700419868761841e+00 1.345983409946539533e+00 1.338829169562114618e+00 1.194944166729101642e+00 7.975785805353740043e-01 4.601457539701631627e-01 4.601457539701631627e-01 2.470034958559599592e-01 -1.004680734311688695e-03 -1.789321974338370369e-01 -3.926077776580209067e-01 -1.232749242614672003e+00 -1.478428188884977512e+00 -1.900692540318312362e+00 -1.922910012297402105e+00 -1.942457778207516750e+00 -1.927201545752189826e+00 -1.179992468794311078e+00 -1.179992468794311078e+00 -4.035203952685385564e-01 2.011099465320268787e-01 3.643691689470165418e-01 4.752615307326021887e-01 7.296263540821708027e-01 8.426788910571900715e-01 9.364943895803548024e-01 1.133314601461953286e+00 1.233450454903306071e+00 1.352700204787108396e+00 1.418262359119713434e+00 1.448224553457811759e+00 1.702532311367627393e+00 1.928656735776018927e+00 2.041513500629659639e+00 2.230974047798619520e+00 2.527396148270633969e+00 2.751653640145441670e+00 2.751653640145441670e+00 3.027955650181314962e+00 3.395852214366719135e+00 3.571383401592743922e+00 3.660936655652707206e+00 3.982242651309665593e+00 4.151192683356293323e+00 4.207758672357324592e+00 4.263239155152502846e+00 4.225214460579758580e+00 4.215075792206937066e+00 4.099899324515661192e+00 4.099899324515661192e+00 3.998452008821293369e+00 3.770485439580813392e+00 3.598856622822314666e+00 3.521793498311331483e+00 3.347631309847320491e+00 3.366721118171375871e+00 3.258672053122579015e+00 3.224195091245327660e+00 3.220963571197238196e+00 3.164375785803437147e+00 3.144253906288953182e+00 3.144253906288953182e+00 3.153878065555004273e+00 3.209298139446147058e+00 3.209298139446147058e+00 3.194750163707861912e+00 3.096650135043648611e+00 3.103841631354484321e+00 3.129160024646922444e+00 3.197495387458260119e+00 3.234391362067271736e+00 3.274390593095466873e+00 3.195503451112870152e+00 3.235898569266129954e+00 3.097498350666234135e+00 2.950798446056976942e+00 2.950798446056976942e+00 2.710432831893411887e+00 2.583465615729352294e+00 2.480234746257665712e+00 2.400997830639711950e+00 2.250638017944639468e+00 2.184543211914538485e+00 2.076611418055781311e+00 1.710043390622047133e+00 1.238902399449960168e+00 6.646042125000314327e-01 2.251020867323428321e-01 2.251020867323428321e-01 -3.846488680056065479e-01 -1.009329067833812488e+00 -1.339670806189979579e+00 -1.488072071011880437e+00 -1.882421557833832804e+00 -2.075424794082861624e+00 -2.243458081634901458e+00 -2.207200624167903413e+00 -2.244175718941356479e+00 -2.276771836912613534e+00 -2.287914697263642605e+00 -2.244493015538540082e+00 -2.250579303400526143e+00 -2.205336070550365957e+00 -2.205336070550365957e+00 -3.089468855711556383e+00 -3.743658843778414180e+00 -4.062086152467366595e+00
2.714395470310769554e+00 2.641355872320797271e+00 2.520496863248299135e+00 2.299778563899701034e+00 1.875508237120675048e+00 1.875508237120675048e+00 1.446064741764918171e+00 1.267876259113887016e+00 1.276604431884628355e+00 1.273037068827972185e+00 1.332857134882404981e+00 1.023875164306619734e+00 1.023875164306619734e+00 6.905536161057993505e-01 3.993562750776401549e-01 3.097538117425693294e-01 2.020355824764781261e-01 -6.872145328279349874e-02 -2.182121622358981217e-01 -8.637516384375532041e-01 -1.356803920308154332e+00 -1.692879918470861389e+00 -1.825025279197049155e+00 -1.890696803640705026e+00 -1.890696803640705026e+00 -1.809944978719934872e+00 -1.648170850719508529e+00 -1.074829104692253123e+00 -1.018740243944912915e+00 1.005427839366761777e-01 3.530231062010480425e-01 6.186976100751698793e-01 7.165141711777118783e-01 8.314586702512414274e-01 1.028309729434569553e+00 1.195348861167332188e+00 1.195348861167332188e+00 1.359516656370918897e+00 1.519601329926563604e+00 1.534231017767681671e+00 1.692059751008949675e+00 1.885507702932912810e+00 2.041513500629659639e+00 2.421292171551750361e+00 2.473705227302073872e+00 2.575872735387152002e+00 2.865723186160472835e+00 2.979489200038015984e+00 3.173834097201996940e+00 3.548142792774394039e+00 3.778924905686106506e+00 3.778924905686106506e+00 4.119142999236744096e+00 4.234189878722927958e+00 4.263239155152502846e+00 4.223527631760926049e+00 4.248593451092227191e+00 4.167737660785753029e+00 4.068060952073852654e+00 4.050486512384940951e+00 3.948271670136194622e+00 3.650085666940394713e+00 3.413670481067656581e+00 3.413670481067656581e+00 3.356184160375624614e+00 3.241062717698944162e+00 3.224195091245327660e+00 3.229249235811728624e+00 3.184788125686732752e+00 3.146080006677432817e+00 3.141623535089636654e+00 3.182212988239857321e+00 3.182842217292639386e+00 3.250321414959113753e+00 3.205516623108341623e+00 3.205516623108341623e+00 3.138921095859851462e+00 3.181720312954484875e+00 3.197495387458260119e+00 3.231914484230413720e+00 3.221040236228702280e+00 3.195503451112870152e+00 3.179456685150769957e+00 3.129447872756944804e+00 3.024273262729560319e+00 2.787375416492248625e+00 2.777943625724175192e+00 2.687842798511495435e+00 2.528907892732365159e+00 2.336409174922131182e+00 2.336409174922131182e+00 2.213656344358335470e+00 1.822269361489785355e+00 1.710043390622047133e+00 1.214507668163425480e+00 6.882966659181226632e-01 4.328629487110197682e-01 4.159187784669188259e-02 -1.281126688127903201e-01 -6.856195799528490564e-01 -1.289700509118460792e+00 -1.662203981713240797e+00 -1.662203981713240797e+00 -1.983081989796894096e+00 -2.154856153661222962e+00 -2.207200624167903413e+00 -2.199590757340196046e+00 -2.330782034971943695e+00 -2.287914697263642605e+00 -2.192590257801610321e+00 -2.126839052761755777e+00 -2.115017874106448037e+00 -2.697273363830896553e+00 -3.394293967007865120e+00 -3.394293967007865120e+00 -4.111094730082915483e+00
2.719463515672372989e+00 2.557118144792102310e+00 2.557118144792102310e+00 2.263785634468147734e+00 1.905354913421410501e+00 1.693100480176188860e+00 1.506719909595839679e+00 1.253044966037975883e+00 1.252764599047138994e+00 1.276980533506600235e+00 1.195992595273280834e+00 1.185094370495490157e+00 8.432901662654607167e-01 5.605974036184918630e-01 5.605974036184918630e-01 3.025944815110037101e-01 2.336179488921798220e-02 -6.872145328279349874e-02 -3.003786712711294382e-01 -8.703060594356635260e-01 -1.356803920308154332e+00 -1.645875201238539587e+00 -1.937966987794629503e+00 -1.932870778044255111e+00 -1.922566131157801728e+00 -1.903561079551443047e+00 -1.791552203665424114e+00 -1.551444827972287221e+00 -8.351857025973374871e-01 -8.351857025973374871e-01 2.133684460556125040e-01 5.674102596884246230e-01 7.165141711777118783e-01 7.969339751478008438e-01 1.004412089041331280e+00 1.102247860936931501e+00 1.264782096832701708e+00 1.325804879206130771e+00 1.425180384304241654e+00 1.605367474073659428e+00 1.731582041109930525e+00 1.731582041109930525e+00 1.995040072740068116e+00 2.344794249405750985e+00 2.473705227302073872e+00 2.578475990774836468e+00 2.827974405770465438e+00 2.979489200038015984e+00 3.366935728037250719e+00 3.490522350050712763e+00 3.613932207454870316e+00 3.927250805475080764e+00 4.211833245536138470e+00 4.211833245536138470e+00 4.245893708896923968e+00 4.262186567184011565e+00 4.248593451092227191e+00 4.223377388585968006e+00 4.118839745788074325e+00 4.050486512384940951e+00 4.014049298147202016e+00 3.706949097741370824e+00 3.532494275990790467e+00 3.348620108050830435e+00 3.331476894810968314e+00 3.253715921355542662e+00 3.261823772937625598e+00 3.216483083642609930e+00 3.216483083642609930e+00 3.178273708663634789e+00 3.156708557623910671e+00 3.182212988239857321e+00 3.218963462946409670e+00 3.276815648051940588e+00 3.229105840879249456e+00 3.164473223513412314e+00 3.184557963160747018e+00 3.206275705707199108e+00 3.242722782279299665e+00 3.253572667519283979e+00 3.253572667519283979e+00 3.141899732664488631e+00 3.129239842135682181e+00 3.129447872756944804e+00 3.064826937540742424e+00 2.868044452936855393e+00 2.777943625724175192e+00 2.604892035707572884e+00 2.592722940579935909e+00 2.442727927326307835e+00 2.271820519204550415e+00 1.895502764312212651e+00 1.895502764312212651e+00 1.445815913540906550e+00 9.469953927064553856e-01 9.469953927064553856e-01 4.210792210840495486e-01 -4.457561511890871520e-02 -1.281126688127903201e-01 -4.951279123238532809e-01 -1.258077091533270409e+00 -1.434076446752304168e+00 -1.769154855894009337e+00 -1.868218953252577474e+00 -2.009248387204534581e+00 -2.131074855462275597e+00 -2.244175571389687818e+00 -2.244175571389687818e+00 -2.290303874400818174e+00 -2.156065787460999861e+00 -2.126839052761755777e+00 -2.102481515519175836e+00 -2.812488219697597547e+00 -3.133395593282553460e+00 -3.771130950742349164e+00 -4.148775020704990268e+00
2.797816411290654948e+00 2.679950930696009870e+00 2.416171129147694607e+00 2.337619458019261742e+00 2.106773677533610556e+00 1.719414157524086884e+00 1.343778617507896289e+00 1.343778617507896289e+00 1.237933305971227638e+00 1.182659702177205174e+00 1.195992595273280834e+00 1.067652213796437266e+00 7.970999558645023297e-01 7.061003006384898306e-01 4.253565374610749350e-01 2.653921337910589151e-01 1.194160840620210329e-01 -1.929023035665080876e-01 -6.518395871264002217e-01 -6.518395871264002217e-01 -1.262335623039585464e+00 -1.934946482168925064e+00 -1.937966987794629503e+00 -2.090566273866715896e+00 -2.039526078112825935e+00 -1.903561079551443047e+00 -1.763749586258635205e+00 -1.714962655096272215e+00 -1.525426516191495496e+00 -5.557905744683794280e-01 3.443881698561476190e-01 3.443881698561476190e-01 6.823687757160079581e-01 8.762684163671210502e-01 8.762684163671210502e-01 1.066031086636479941e+00 1.226429374108019887e+00 1.325804879206130771e+00 1.388269649306684617e+00 1.551661005009594252e+00 1.633757322498844644e+00 1.821990295899483581e+00 1.937980732488870039e+00 2.150247926435109314e+00 2.424356492698605869e+00 2.693161137427558582e+00 2.693161137427558582e+00 2.934564367049205202e+00 3.310464742809318572e+00 3.490522350050712763e+00 3.571974826331061337e+00 3.887325133267780064e+00 4.034613195051671042e+00 4.265818965364504223e+00 4.240395707033219885e+00 4.219599608453100892e+00 4.278436008185101613e+00 4.201859087277245663e+00 4.201859087277245663e+00 4.105510361207925563e+00 3.873559841563260608e+00 3.706949097741370824e+00 3.540807287869802700e+00 3.372347810200172269e+00 3.331476894810968314e+00 3.229545819763425030e+00 3.299452454629923537e+00 3.271200741700460934e+00 3.225783083181017474e+00 3.190986856711926833e+00 3.190986856711926833e+00 3.214481768716324961e+00 3.260379296978563435e+00 3.260379296978563435e+00 3.250118528471859669e+00 3.232296311983176018e+00 3.184557963160747018e+00 3.269658013062307411e+00 3.287950177100338323e+00 3.227315194642915053e+00 3.157828874277624376e+00 3.084699707466324270e+00 3.086009286609953328e+00 3.116537080705848783e+00 3.035666451978306313e+00 3.022641298515664765e+00 2.874357069190175196e+00 2.690280957862341005e+00 2.494884786074758942e+00 2.494884786074758942e+00 2.279040649343458291e+00 2.206420939407431447e+00 1.820247223923252777e+00 1.848174197982447753e+00 9.079657030407013441e-01 6.772233880301103959e-01 1.823599391690853000e-01 5.059049113061817038e-02 -1.320175621740133365e-01 -8.820373455164558507e-01 -1.474474584686503942e+00 -1.474474584686503942e+00 -1.711205316763101170e+00 -1.923052388535763768e+00 -2.045514871763024267e+00 -2.072155828587749049e+00 -2.283788682638006939e+00 -2.387895353288211453e+00 -2.292693051537993743e+00 -2.116941072600328155e+00 -2.063804943273447101e+00 -2.374281509511878330e+00 -2.911531739186040912e+00 -3.170387889884423327e+00 -3.742374343985357399e+00 -4.665359574967352430e+00
2.797816411290654948e+00 2.711875486090912002e+00 2.463821827260976427e+00 2.337619458019261742e+00 1.961256077397977471e+00 1.657355441390660378e+00 1.552355473974350364e+00 1.238213672962064749e+00 1.196921007260425718e+00 1.196921007260425718e+00 1.091624929928539878e+00 8.900338317335664273e-01 8.900338317335664273e-01 6.059844604725400652e-01 3.510308289017065597e-01 2.653921337910589151e-01 1.016939024239165712e-01 -2.580934103019169590e-01 -3.949780995360264169e-01 -1.169370340534175323e+00 -1.686901093941950647e+00 -1.752756831489671985e+00 -2.194365650970512949e+00 -2.183376062071015866e+00 -2.183376062071015866e+00 -1.998468049777947009e+00 -1.805930303590771890e+00 -1.714962655096272215e+00 -2.020976627767177902e+00 -2.252962916520543590e+00 1.096571695883877262e-02 5.358077112013222010e-01 6.407726216517709572e-01 7.654065813806878449e-01 9.666555815383691685e-01 1.127053869009909226e+00 1.127053869009909226e+00 1.291711165859671606e+00 1.453005710862437017e+00 1.551661005009594252e+00 1.647118165798963085e+00 1.917193849592847776e+00 1.937980732488870039e+00 2.305884418871356978e+00 2.415726894809565373e+00 2.553373291913048959e+00 2.791714996181712038e+00 2.890776989309100209e+00 3.089464307212035798e+00 3.419760656689787126e+00 3.685425857479404321e+00 3.857363473595966763e+00 3.986239920423209071e+00 4.251172141217646860e+00 4.221152474654056519e+00 4.221152474654056519e+00 4.299588814328286546e+00 4.253807118826041567e+00 4.169701295680237507e+00 4.160534210030910174e+00 3.930448025619884600e+00 3.755518761204573508e+00 3.462044264257570170e+00 3.373620196389095049e+00 3.312726914807513356e+00 3.209090322910261417e+00 3.298617855823152922e+00 3.298617855823152922e+00 3.240808202142297034e+00 3.226267491422838862e+00 3.174772172065810416e+00 3.218379492894726468e+00 3.250716937452016175e+00 3.300566026329368352e+00 3.269935504351681566e+00 3.247765427989687925e+00 3.220104353839802869e+00 3.308548054818055473e+00 3.223844389200011484e+00 3.223844389200011484e+00 3.101285762622414843e+00 3.067410210078573840e+00 3.067410210078573840e+00 3.153875248724063329e+00 3.073374528613986190e+00 3.022641298515664765e+00 2.986171138145511605e+00 2.735225949922257982e+00 2.617030544401020897e+00 2.395996196629222030e+00 2.299967164017887811e+00 2.208263669584108246e+00 2.120175182340572562e+00 1.286689419208938201e+00 1.286689419208938201e+00 6.923333943805900503e-01 4.243280120387677989e-01 5.059049113061817038e-02 -1.361028929238896346e-01 -8.680559682760725648e-01 -1.255548168596274605e+00 -1.601227891006612447e+00 -1.833717511972247749e+00 -1.817333824331116787e+00 -1.987341657170766496e+00 -2.143441758780589179e+00 -2.143441758780589179e+00 -2.418778723210603943e+00 -2.238020970202070803e+00 -2.116941072600328155e+00 -2.148445175522652129e+00 -2.394058642632654887e+00 -2.911531739186040912e+00 -3.556828278154076539e+00 -3.944864452582106829e+00 -4.297836851189713592e+00
2.883292009576797099e+00 2.670949410319122475e+00 2.670949410319122475e+00 2.369657668364638425e+00 2.013768061231626660e+00 1.657355441390660378e+00 1.442181087944151230e+00 1.241310367888742716e+00 1.211222056599986496e+00 1.141161164942715578e+00 1.142003056708123188e+00 1.027914591558520385e+00 6.978949976989741177e-01 4.254084292409395784e-01 4.254084292409395784e-01 2.180579898707518671e-01 -6.829438060111642228e-02 -2.580934103019169590e-01 -6.771880260748568414e-01 -1.643883443350078410e+00 -2.071240899520093492e+00 -2.071240899520093492e+00 -2.291022755260701871e+00 -2.339801430425127116e+00 -2.157874755313622384e+00 -2.080825292267669546e+00 -2.002959638854481472e+00 -1.921039033528253892e+00 -1.976455514973797900e+00 -1.353971663742361553e+00 -7.759382742537842548e-01 4.738226273366924479e-01 7.327954346735842117e-01 7.327954346735842117e-01 9.346797506872305261e-01 1.093018153136989579e+00 1.193730510516672449e+00 1.255051996422222871e+00 1.425874020539430020e+00 1.501467400693258902e+00 1.782973586581077186e+00 1.850698675041698937e+00 2.020086865150115596e+00 2.253311115202599524e+00 2.498175781661811978e+00 2.498175781661811978e+00 2.757133263259630596e+00 3.014518976352868140e+00 3.253993757581386870e+00 3.327065597492953941e+00 3.645534203863615375e+00 3.857363473595966763e+00 4.079060788585642250e+00 4.174656002053235504e+00 4.245408920320770996e+00 4.259171886452808309e+00 4.287541436115613003e+00 4.287541436115613003e+00 4.208149854926253930e+00 4.099865810744542927e+00 4.099865810744542927e+00 3.768190457105642377e+00 3.433371968276775821e+00 3.373620196389095049e+00 3.258910839386176317e+00 3.169437337274187527e+00 3.269448681038672255e+00 3.227776546492638676e+00 3.248811493565122888e+00 3.260133790403762610e+00 3.198386401350250985e+00 3.248815907018962168e+00 3.248815907018962168e+00 3.254157523405788233e+00 3.238368024148321922e+00 3.247765427989687925e+00 3.226912675137108444e+00 3.319461402132785288e+00 3.288903071384685184e+00 3.190503507671717642e+00 3.126465312758552439e+00 3.097047790662296851e+00 3.124095842584353910e+00 3.049297486986551231e+00 3.049297486986551231e+00 3.003063266396154063e+00 2.794054515259445814e+00 2.735225949922257982e+00 2.584862178477870032e+00 2.394739181548220408e+00 2.299967164017887811e+00 2.198590216648052653e+00 2.046557002283564408e+00 1.694214050867797194e+00 1.045360714189959461e+00 7.489331822212943468e-01 7.009036840470930230e-01 7.758916481045224911e-02 -5.836977293757639185e-01 -5.836977293757639185e-01 -1.245527279370346907e+00 -1.590546509865605529e+00 -1.833717511972247749e+00 -1.837422416514418622e+00 -1.976234364060318383e+00 -2.066263404413256843e+00 -2.268488596495680021e+00 -2.407109520021126325e+00 -2.409475286784526382e+00 -2.272412475606134130e+00 -2.269895859272929250e+00 -2.269895859272929250e+00 -2.836682837265166235e+00 -3.627326956246072598e+00 -3.944864452582106829e+00 -4.435687742055763216e+00
2.858763854652062175e+00 2.666809750232113529e+00 2.506227863624479912e+00 2.353334778562428120e+00 1.957005236156344807e+00 1.734039315675765636e+00 1.368933392219008116e+00 1.223642075260938267e+00 1.229594020829864354e+00 1.196948946042480255e+00 1.000161853075865359e+00 1.000161853075865359e+00 6.791935904411088298e-01 4.201146405419348140e-01 3.251642312165717863e-01 2.021407028524884741e-01 -2.078146756172620235e-01 -3.565789957610562277e-01 -1.473170837682648227e+00 -1.849008191240652854e+00 -1.963136297580078793e+00 -2.286908076464849060e+00 -2.425820672315425419e+00 -2.425820672315425419e+00 -2.270977146987377626e+00 -2.086585898873494216e+00 -2.002959638854481472e+00 -2.103990568469624289e+00 -1.522716554699164782e+00 -1.353971663742361553e+00 -1.691269884640491661e-01 4.064320639726457518e-01 5.811692889516397731e-01 8.073663844186317329e-01 8.944900377649853684e-01 1.005133034807859760e+00 1.164932925352458515e+00 1.314265572337627974e+00 1.314265572337627974e+00 1.472129424564557088e+00 1.677445675908148859e+00 1.850698675041698937e+00 1.933919642267405870e+00 2.192184800989626314e+00 2.351886000842820845e+00 2.623735137099304282e+00 2.712001270645062245e+00 2.849093269269521667e+00 3.111035429318208756e+00 3.431562278845299740e+00 3.431562278845299740e+00 3.843181233906646899e+00 4.048676769607671311e+00 4.174656002053235504e+00 4.173307460317187356e+00 4.224839548274978540e+00 4.264051486420330939e+00 4.247244410297113859e+00 4.224037485480145016e+00 4.171403125631703901e+00 3.934935169094857965e+00 3.605482816776130139e+00 3.605482816776130139e+00 3.337956443007755958e+00 3.187758999966965323e+00 3.169437337274187527e+00 3.192132207123587140e+00 3.205113543340520010e+00 3.248811493565122888e+00 3.315075318694831186e+00 3.248987349909780775e+00 3.206892730349148568e+00 3.218540145205950331e+00 3.194990791245271744e+00 3.256941959256838270e+00 3.236029034236192370e+00 3.307011274781992416e+00 3.307011274781992416e+00 3.269506737497564153e+00 3.134855772746776292e+00 3.126465312758552439e+00 3.165606534813083961e+00 3.115548704211258624e+00 3.144025979124049908e+00 3.007342893192777922e+00 2.935454970323717827e+00 2.890402826551975224e+00 2.658386721455578527e+00 2.486591606655158326e+00 2.486591606655158326e+00 2.323118222861523030e+00 2.184547893512575278e+00 2.046557002283564408e+00 1.647583411324045510e+00 8.548898896526049285e-01 7.489331822212943468e-01 4.176993112700224109e-01 9.428856112750545748e-02 -2.657396566073583211e-01 -9.181642224113167883e-01 -1.424104664929825903e+00 -1.424104664929825903e+00 -1.667621509574938932e+00 -1.809935894025014758e+00 -1.976234364060318383e+00 -2.044461156085947806e+00 -2.323266279599924378e+00 -2.407109520021126325e+00 -2.500210869159802840e+00 -2.391217305201203125e+00 -2.358954700488366196e+00 -2.292424381854655469e+00 -2.838584135389152774e+00 -3.267735111385662528e+00 -4.087308196132961591e+00 -4.894201689376760811e+00
2.709174703975423260e+00 2.709174703975423260e+00 2.550739888516861065e+00 2.175165390370165319e+00 1.957005236156344807e+00 1.739869828471313662e+00 1.354257639535100033e+00 1.223642075260938267e+00 1.224164225251846538e+00 1.234146679103427235e+00 1.136253488229375108e+00 8.292765817059702949e-01 6.585159657519703558e-01 5.464382779550542857e-01 3.164402018143845918e-01 -4.402695224936636897e-02 -4.402695224936636897e-02 -5.877937074788138760e-01 -1.519954925604375173e+00 -1.849008191240652854e+00 -2.128545350210959253e+00 -2.474157246259318210e+00 -2.498594009678941408e+00 -2.461968690448018471e+00 -2.383989328733237212e+00 -2.138836228973657771e+00 -2.191289502435529890e+00 -2.058922370682525482e+00 -2.058922370682525482e+00 -1.149049959936446319e+00 -2.375609630469577294e-02 4.064320639726457518e-01 5.168057327983656135e-01 7.782680738833132050e-01 8.944900377649853684e-01 1.058214602621604605e+00 1.113349016587221074e+00 1.222969069276878651e+00 1.367830704168722766e+00 1.504282709141819829e+00 1.504282709141819829e+00 1.777601004019963682e+00 2.030118845334322408e+00 2.192184800989626314e+00 2.263891689621466252e+00 2.570954973464119497e+00 2.712001270645062245e+00 2.797113958510153875e+00 3.014587080291649901e+00 3.210678475319807657e+00 3.596584786443793647e+00 3.786358331629915419e+00 3.970283437310096364e+00 4.085949006517273219e+00 4.178998570156744030e+00 4.178998570156744030e+00 4.220419616133010088e+00 4.233890391119435215e+00 4.224037485480145016e+00 4.175712612607652474e+00 3.940920699718945208e+00 3.777189926910127227e+00 3.440138954689291317e+00 3.361115406869076949e+00 3.248386997230639395e+00 3.170096460639010072e+00 3.221606669161025671e+00 3.221606669161025671e+00 3.241395957760449420e+00 3.293102279612673211e+00 3.248987349909780775e+00 3.207689152171437463e+00 3.214057468076680912e+00 3.194990791245271744e+00 3.228591943890498417e+00 3.244348532962289422e+00 3.226524906950048788e+00 3.320399326187353672e+00 3.195305163013434147e+00 3.195305163013434147e+00 3.158915083836331128e+00 3.152300268788005511e+00 3.152300268788005511e+00 3.128876256746798035e+00 2.966419349692789975e+00 2.935454970323717827e+00 2.817556972108824276e+00 2.575912283657580737e+00 2.555653021155341431e+00 2.378380059219086462e+00 2.324361868676507736e+00 2.230243053838520062e+00 2.176216013348610367e+00 1.118622220434210890e+00 6.704170366451045471e-01 4.729159097031087056e-01 4.177408246056583119e-01 -3.334652634408907801e-01 -3.334652634408907801e-01 -1.121993766714474816e+00 -1.696798513473403158e+00 -1.649438472152251034e+00 -1.885495390933030979e+00 -2.053989504866792881e+00 -2.063215052066670996e+00 -2.229516093841676039e+00 -2.370626720717957880e+00 -2.425427493897030384e+00 -2.416501708155335493e+00 -2.422949531992471428e+00 -2.422949531992471428e+00 -2.457695447680674938e+00 -3.356466822795238336e+00 -3.737568821570496969e+00 -4.258994255702495124e+00 -5.172463280473174052e+00
2.830889601996327887e+00 2.662670090145104140e+00 2.578266001336277036e+00 2.411890944569171413e+00 2.056501743398748250e+00 1.514865694867415957e+00 1.514865694867415957e+00 1.213749110268021125e+00 1.250162474583699668e+00 1.234146679103427235e+00 1.176879717266446246e+00 7.910840764736727371e-01 6.585159657519703558e-01 4.139089713297096074e-01 2.896313692779742821e-01 1.918154106712395834e-01 -3.063631587243212939e-01 -1.513590554628376772e+00 -1.513590554628376772e+00 -2.036363557396602797e+00 -2.385587774395018901e+00 -2.385587774395018901e+00 -2.648915142412774593e+00 -2.581035888498424580e+00 -2.383989328733237212e+00 -2.128341617774117900e+00 -2.224620891475772133e+00 -2.292633508431409339e+00 -1.781491072803505382e+00 -1.533567770399250740e+00 -6.033489073821804993e-01 3.189970262425805281e-01 6.078481862833323701e-01 6.078481862833323701e-01 8.421989151416446884e-01 1.003215348534268747e+00 1.113349016587221074e+00 1.147563368062818112e+00 1.311545628662158514e+00 1.407914168901989171e+00 1.652973506247858992e+00 1.720877867975480591e+00 1.832649059808793890e+00 2.068019970777157379e+00 2.423559155553471900e+00 2.423559155553471900e+00 2.611213742066416987e+00 2.866918450552887077e+00 3.014587080291649901e+00 3.185192872026775035e+00 3.575887715162334057e+00 3.786358331629915419e+00 4.006442611649798202e+00 4.036754327501515860e+00 4.139438690909899243e+00 4.234503125597324669e+00 4.306259394968648735e+00 4.297428633076578741e+00 4.219336125181050612e+00 4.040131779291427527e+00 4.040131779291427527e+00 3.766343593079287455e+00 3.467427747314010489e+00 3.308201283147859773e+00 3.308201283147859773e+00 3.302893072146719344e+00 3.289152911844610561e+00 3.258411942528637084e+00 3.222391926319556177e+00 3.257341893071054262e+00 3.215783184685697904e+00 3.256421532634716787e+00 3.273512025091663169e+00 3.214912827849058630e+00 3.235963524848330941e+00 3.233268167061077669e+00 3.233268167061077669e+00 3.291188405280582874e+00 3.225123416312567048e+00 3.190066866790460587e+00 3.238350369761681780e+00 3.199359372897513154e+00 3.141697043902090591e+00 3.052185320280918823e+00 2.988508320491393366e+00 2.906195422969713338e+00 2.622686226241854435e+00 2.502725816241035961e+00 2.502725816241035961e+00 2.365677714866849968e+00 2.229115363427902619e+00 2.159095361376470734e+00 2.022119723056860163e+00 1.056879616253104448e+00 6.704170366451045471e-01 3.697814747909729527e-01 3.935103195537385523e-01 5.378053671024467935e-02 -7.858409198686691077e-01 -1.176505707682942603e+00 -1.561374815039533015e+00 -1.889521924058861213e+00 -2.115517771202837238e+00 -2.115517771202837238e+00 -2.179516014961705661e+00 -2.287457900844911851e+00 -2.370626720717957880e+00 -2.457822702811296889e+00 -2.459473383676547442e+00 -2.407484129297784214e+00 -2.486598527118454527e+00 -2.557826838992307561e+00 -2.902524990760808166e+00 -3.851658332169385801e+00 -4.738863964512316507e+00 -4.738863964512316507e+00
2.826265271042764926e+00 2.700991669599168254e+00 2.578266001336277036e+00 2.569309359443415985e+00 2.118390684132965163e+00 1.736946322098789519e+00 1.278970097557197372e+00 1.241606649544251928e+00 1.220356089488288553e+00 1.236164933185020409e+00 1.006007331887237122e+00 1.006007331887237122e+00 6.557361636674767791e-01 4.203356377504448016e-01 2.896313692779742821e-01 1.482451376644451091e-01 -4.079722824876083620e-01 -9.942339423105825968e-01 -1.895880032600656850e+00 -2.177103737433199182e+00 -2.303630275150752027e+00 -2.687970620513921549e+00 -2.827859983142093192e+00 -2.827859983142093192e+00 -2.183788169888379649e+00 -2.189986309310245183e+00 -2.224620891475772133e+00 -2.385101167591649585e+00 -2.252929892955627622e+00 -1.533567770399250740e+00 -3.898761735678222817e-01 -2.758676998774635125e-01 4.361293666468083474e-01 6.748290087377010193e-01 7.329719314475662273e-01 9.273606618498136944e-01 1.037429700009866007e+00 1.218474946792942326e+00 1.291909563424001206e+00 1.434490565344328061e+00 1.598098217319962266e+00 1.706691020899015809e+00 1.706691020899015809e+00 1.967911651855962951e+00 2.278089642833682316e+00 2.421188955431996526e+00 2.482738802461776473e+00 2.800424755280243261e+00 2.981901824187374039e+00 3.368509441326522857e+00 3.542489769230151353e+00 3.694539788973177252e+00 3.957959675287511914e+00 4.105673550838668362e+00 4.105673550838668362e+00 4.278805578199402326e+00 4.368983666167727264e+00 4.305763165549739035e+00 4.201953893840541632e+00 3.976830899231865057e+00 3.908179174796616362e+00 3.597736614641834585e+00 3.482786115428026186e+00 3.387772678128698534e+00 3.330676194532752099e+00 3.309133842560410876e+00 3.309133842560410876e+00 3.312892616531212031e+00 3.223658324435886069e+00 3.223658324435886069e+00 3.198990170016712042e+00 3.277609470340759668e+00 3.273512025091663169e+00 3.255143319768091015e+00 3.191937610518720714e+00 3.260730516695266701e+00 3.263226126072669153e+00 3.279871788785874820e+00 3.240385102432713271e+00 3.258270022921379905e+00 3.209750013746521802e+00 3.209750013746521802e+00 3.155699927720483799e+00 3.034445485309837487e+00 2.988508320491393366e+00 2.876282320465433529e+00 2.613015078362079358e+00 2.496823056275213393e+00 2.404475199083880632e+00 2.304602345293091048e+00 2.233061368411659586e+00 2.065859282840403655e+00 1.502634415238301324e+00 1.502634415238301324e+00 6.886172238728345274e-01 5.766187774437573355e-01 3.935103195537385523e-01 2.271728063985958834e-02 -8.431970971438926821e-01 -1.176505707682942603e+00 -1.774050298807608117e+00 -1.883662266621067172e+00 -2.010118325893120783e+00 -2.147326377573486766e+00 -2.074886849631595975e+00 -2.151136305320801689e+00 -2.317676364018361301e+00 -2.408210054381730636e+00 -2.408210054381730636e+00 -2.369666593317884207e+00 -2.477970107499716690e+00 -2.557826838992307561e+00 -3.080303351219885410e+00 -3.972753222151556241e+00 -4.350816209117120970e+00 -5.120676073883680957e+00
2.728978523445451554e+00 2.718481411171942419e+00 2.557197375867906075e+00 2.489332333367810346e+00 1.783869201454036268e+00 1.783869201454036268e+00 1.284764376601185365e+00 1.237448055656744206e+00 1.237448055656744206e+00 1.176339891741582599e+00 1.074316514434623615e+00 8.680822684384423837e-01 7.246486456642485807e-01 4.229300628471088230e-01 2.979662157498875752e-01 -1.096985945883354741e-01 -4.315645236721801226e-01 -1.152855522455359383e+00 -2.094800720831328178e+00 -2.417197281696853217e+00 -2.417197281696853217e+00 -2.925408308557804204e+00 -2.300962952117766136e+00 -2.127921672643857676e+00 -1.787295397993874824e+00 -1.974665176780170173e+00 -2.199636152692389768e+00 -2.769534579564357557e+00 -3.025364451390340381e+00 -2.909002236573643430e+00 -1.982346752673607160e+00 -5.080028226220749676e-01 -5.080028226220749676e-01 -1.003554753631061836e-01 6.236984514048882211e-02 9.273606618498136944e-01 9.635553264795764239e-01 1.127953098664725262e+00 1.291909563424001206e+00 1.428053471367989768e+00 1.404410326759989669e+00 1.584621964940980066e+00 1.749676228503424413e+00 1.858483860942877763e+00 2.070886975357175697e+00 2.268353054423633886e+00 2.557220146717095854e+00 2.557220146717095854e+00 2.936389030381754583e+00 3.343310383061603108e+00 3.542489769230151353e+00 3.649672231098277209e+00 3.953429979102568659e+00 4.010106142065729351e+00 4.234437329325976052e+00 4.308046882188091509e+00 4.354952745511449841e+00 4.321308102693778963e+00 4.079085663104201842e+00 4.079085663104201842e+00 3.893484158055248390e+00 3.602945443904296052e+00 3.482786115428026186e+00 3.426395998373267915e+00 3.361625196786802938e+00 3.409442357939175050e+00 3.340512523291470082e+00 3.291086783327792809e+00 3.247397735179217371e+00 3.251133604455830994e+00 3.267022262287813561e+00 3.267022262287813561e+00 3.298707252636884135e+00 3.245075047725173523e+00 3.191937610518720714e+00 3.252159285551256662e+00 3.298503169880126595e+00 3.279871788785874820e+00 3.265741317627398832e+00 3.292114837689015250e+00 3.234732812512112421e+00 3.203259617088950240e+00 3.190250413814224917e+00 3.108502267425260701e+00 2.965328407613075701e+00 2.787431510213145724e+00 2.787431510213145724e+00 2.496018611011051380e+00 2.341409686338914664e+00 2.304602345293091048e+00 2.169612972039870691e+00 1.699713669960439377e+00 1.665840748689879414e+00 1.025681985141381647e+00 7.943735030266931840e-01 6.854961402352253153e-01 2.286266205133477281e-01 -5.167801593282705941e-01 -5.167801593282705941e-01 -1.211652742535474614e+00 -1.755086591576564325e+00 -1.883662266621067172e+00 -1.924140825383429121e+00 -2.054691162752694922e+00 -2.074886849631595975e+00 -2.162694919572460073e+00 -2.206379222339140966e+00 -2.334454059024076766e+00 -2.329329264550618284e+00 -2.436675726825498156e+00 -2.436675726825498156e+00 -2.615760123205093102e+00 -3.533646667315557988e+00 -3.972753222151556241e+00 -4.418278944829322263e+00 -5.187584755214778909e+00
2.741694064282377052e+00 2.718481411171942419e+00 2.572719914784634021e+00 2.443801912211533089e+00 2.275898574836999089e+00 1.667627948557320217e+00 1.409814924257661639e+00 1.236576547854287167e+00 1.242232209207643656e+00 1.260073028956403496e+00 1.260073028956403496e+00 9.725347138209750053e-01 5.912899524987713651e-01 4.229300628471088230e-01 2.688363237217736845e-01 -1.465752252863979643e-01 -4.315645236721801226e-01 -1.804440159598306170e+00 -2.176269658182359290e+00 -2.309612229270696648e+00 -2.596992436583739128e+00 -2.759732151613456086e+00 -2.865905110672035683e+00 -1.843369205844487269e+00 -1.800032146634571006e+00 -1.800032146634571006e+00 -2.254437951946795415e+00 -2.847570514516458040e+00 -3.025364451390340381e+00 -3.226662951673537005e+00 -3.530948145304510177e+00 -2.827158670889284409e+00 -1.611814667868130879e+00 -2.327805736350565979e+00 -1.080521806711202792e+00 -3.490551916517863340e-01 9.826008526420417777e-01 9.826008526420417777e-01 1.126301011088881809e+00 1.257976077283824212e+00 1.404410326759989669e+00 1.405367407806605629e+00 1.646080746528580274e+00 1.858483860942877763e+00 2.128571081421628097e+00 2.185438987940431677e+00 2.348038168824605254e+00 2.735074634764057322e+00 3.107696821621255712e+00 3.107696821621255712e+00 3.488684850918914115e+00 3.754813056349158629e+00 3.953429979102568659e+00 4.059545083782777120e+00 4.315866311688726142e+00 4.308046882188091509e+00 4.379338758459715208e+00 4.293894850573197530e+00 4.186099284512648566e+00 3.988788555804692937e+00 3.914919715827825719e+00 3.749594299934376540e+00 3.513676396618783837e+00 3.406434063635804144e+00 3.406434063635804144e+00 3.426111425307371672e+00 3.337202019594774249e+00 3.291086783327792809e+00 3.246936916456006905e+00 3.266944911686774589e+00 3.248572980122943932e+00 3.296032257903422469e+00 3.337577249672222024e+00 3.295643607214654214e+00 3.228186047125741087e+00 3.325553426167967785e+00 3.325553426167967785e+00 3.347151129628037403e+00 3.368675810168614060e+00 3.292114837689015250e+00 3.290853314754390357e+00 3.218277772332943432e+00 3.190250413814224917e+00 3.007531840511643573e+00 2.936361060523548616e+00 2.861598205157330543e+00 2.642002325505189209e+00 2.424735690584800540e+00 2.424735690584800540e+00 2.264080565178166360e+00 1.906766680238004330e+00 1.906766680238004330e+00 1.495729873973702162e+00 1.039675132781187505e+00 7.943735030266931840e-01 5.845607486945292308e-01 1.251423079183471287e-01 -1.193655364170618377e-01 -8.821174762659808044e-01 -1.176459187401069473e+00 -1.533095009482063675e+00 -1.794047903720196624e+00 -1.963102137527061419e+00 -1.963102137527061419e+00 -2.021523469928897754e+00 -2.029175498203642292e+00 -2.157723464783968481e+00 -2.157723464783968481e+00 -2.214184039060649756e+00 -2.315659549839938158e+00 -2.541332454155921905e+00 -2.712233577805442053e+00 -3.599814785460889066e+00 -4.002423651033248042e+00 -4.826374137542838838e+00 -5.148238119113432987e+00
2.899121221089180356e+00 2.714904480234279216e+00 2.489256896110716433e+00 2.489256896110716433e+00 2.306407936957628024e+00 1.714077319079090778e+00 1.409814924257661639e+00 1.245715916745899543e+00 1.214690124405051197e+00 1.305568888477147915e+00 1.113590882157345474e+00 1.004410656810748925e+00 8.207989743759052104e-01 4.197281063881521668e-01 3.310571559533137531e-02 3.310571559533137531e-02 -4.753249517673841518e-01 -1.763193023983623764e+00 -2.176269658182359290e+00 -2.293698659385598138e+00 -2.408601907678730392e+00 -2.759732151613456086e+00 -2.013221217424064236e+00 -1.772717045542339331e+00 -1.726586108235508288e+00 -1.977113729126188435e+00 -2.524479009583248335e+00 -2.524479009583248335e+00 -3.185147435277110084e+00 -3.600148149888956262e+00 -3.600148149888956262e+00 -4.085061696660609698e+00 -3.932759089912094996e+00 -2.327805736350565979e+00 -3.212423662327931417e+00 -2.083554086627826152e+00 -4.523703060469851378e-01 9.952084899295108311e-01 9.991527424504120791e-01 1.134491455423508155e+00 1.261467340596083897e+00 1.447081478239243602e+00 1.447081478239243602e+00 1.730467053666785882e+00 1.967044237975550836e+00 2.185438987940431677e+00 2.217886134342671678e+00 2.662373541519855280e+00 2.879152624393396032e+00 3.280929904327983593e+00 3.432860722919786056e+00 3.624781568234864970e+00 3.879124344845699568e+00 4.200254391425209732e+00 4.200254391425209732e+00 4.353935407497152354e+00 4.357957131635311399e+00 4.293894850573197530e+00 4.225234051912859279e+00 4.008568418327346450e+00 3.914919715827825719e+00 3.637099762303752648e+00 3.548066702540416451e+00 3.506761494893657183e+00 3.393814501126278138e+00 3.323562847660491038e+00 3.323562847660491038e+00 3.268567706580651766e+00 3.248391150251445314e+00 3.248391150251445314e+00 3.302827439109291330e+00 3.332028695074594982e+00 3.337577249672222024e+00 3.331318521182991432e+00 3.244992447572028649e+00 3.381140273490137460e+00 3.355536824593992939e+00 3.404184784341904191e+00 3.486093723399258604e+00 3.366371288964308928e+00 3.289591791819765021e+00 3.267691232479549956e+00 3.209498535185083767e+00 3.023401089002490494e+00 2.847699529638982874e+00 2.847699529638982874e+00 2.673309872398689446e+00 2.432367546952928006e+00 2.352899167182507689e+00 2.260539022449157720e+00 2.061695684806299944e+00 1.709552393793128289e+00 1.279316896107508761e+00 8.972595874203803668e-01 8.979575848810891214e-01 4.385391441049071859e-01 -9.775899983458090359e-02 -9.775899983458090359e-02 -8.567366974541619218e-01 -1.493115521104070975e+00 -1.713146779758000227e+00 -1.781947696632576239e+00 -1.873267463703021996e+00 -1.959477262170170819e+00 -1.960511331009049174e+00 -1.895656076834824066e+00 -2.077881380612921269e+00 -2.098303683783691032e+00 -2.125069281694100365e+00 -2.163648006550018543e+00 -2.434359742691952988e+00 -3.169041651437970675e+00 -3.169041651437970675e+00 -4.002397251114637733e+00 -4.777103514936928974e+00 -5.148238119113432987e+00
2.808372442435130178e+00 2.705703379529323271e+00 2.595931485291510299e+00 2.434041665173284574e+00 2.017303621450041717e+00 2.017303621450041717e+00 1.368565069693346459e+00 1.214900077442745641e+00 1.214900077442745641e+00 1.224614462819964000e+00 1.119802842127713527e+00 1.004410656810748925e+00 8.375127538682078931e-01 4.385577134494077489e-01 2.610748220338285353e-01 -2.021080042984008118e-01 -5.651787304058983885e-01 -1.292609381760728038e+00 -2.115836473873377255e+00 -2.411115761122012646e+00 -2.411115761122012646e+00 -2.456091435226453346e+00 -1.895897716388911691e+00 -1.772717045542339331e+00 -1.688856762183430948e+00 -1.979562281472206697e+00 -2.278201503985882503e+00 -2.893484128715467119e+00 -3.322184037180043070e+00 -3.470297272544633937e+00 -3.985357141842286843e+00 -4.085181537631676463e+00 -4.085181537631676463e+00 -3.947434246637955724e+00 -3.692201510387571162e+00 -2.083554086627826152e+00 -1.764394293987528117e+00 8.364528641537631870e-01 9.991527424504120791e-01 1.136634910711612267e+00 1.141963691705336625e+00 1.277992248644130191e+00 1.513520215886540621e+00 1.580005077488398690e+00 1.849077427885829294e+00 2.027063299229849402e+00 2.403989225795636564e+00 2.589672448275653238e+00 2.827118034637415178e+00 3.237350783576683710e+00 3.554869712764767264e+00 3.554869712764767264e+00 3.813352776333562399e+00 4.194199694354148633e+00 4.386632355583015119e+00 4.398904427664205308e+00 4.348249140342029584e+00 4.272914075724687955e+00 4.129012806595898866e+00 4.028348280850000407e+00 3.927952856255968683e+00 3.675032327474730298e+00 3.588410684522653771e+00 3.588410684522653771e+00 3.432438411473197171e+00 3.329617347062982180e+00 3.331756997289715194e+00 3.266782305086782134e+00 3.250065928852306385e+00 3.284914102416509607e+00 3.370254446812542604e+00 3.388603577464359251e+00 3.386428640810236423e+00 3.287167414400721910e+00 3.323451771465107285e+00 3.323451771465107285e+00 3.412570479307859728e+00 3.451021901013944237e+00 3.451021901013944237e+00 3.437303940280182601e+00 3.334091220635147401e+00 3.267691232479549956e+00 3.236207634159312008e+00 3.048589101313711858e+00 2.919440241437441852e+00 2.793868115836376731e+00 2.701381760495360940e+00 2.519307557524444796e+00 2.325024796413921457e+00 2.174759197221364015e+00 2.174759197221364015e+00 1.994034072390897805e+00 1.250981327624816064e+00 8.972595874203803668e-01 4.936700909007223359e-01 6.061937562690773440e-01 2.862879468902033153e-01 -5.122774169902453156e-01 -8.302893470423705624e-01 -1.424578620251022887e+00 -1.665656370946304143e+00 -1.822965480077634037e+00 -1.822965480077634037e+00 -1.873577433377312529e+00 -1.848109260427805767e+00 -1.895656076834824066e+00 -1.974614124234663981e+00 -1.987302101238710650e+00 -2.125069281694100365e+00 -2.183447405746985925e+00 -2.465166086988356486e+00 -2.706046463838867489e+00 -3.617162292922582623e+00 -4.372544606689932500e+00 -4.372544606689932500e+00 -5.115843952987431997e+00
2.875080594344732177e+00 2.705703379529323271e+00 2.537451059060413350e+00 2.356136580508591205e+00 2.235715495481302106e+00 1.672827464514775375e+00 1.327315215129030834e+00 1.243485065883158436e+00 1.210554215047154214e+00 1.108666988385031527e+00 1.108666988385031527e+00 1.031433232484353146e+00 6.552861094215053361e-01 2.571940994627915922e-01 2.571940994627915922e-01 -2.432611026159894052e-01 -1.194149582936832710e+00 -1.194149582936832710e+00 -1.973010673552629379e+00 -2.394928178185185441e+00 -2.290497502852250733e+00 -2.140977122417636380e+00 -1.813099921547966398e+00 -1.702064885240191394e+00 -1.762665473914102332e+00 -1.978708039203107116e+00 -2.302979798719281490e+00 -2.951728156832119865e+00 -3.713931593415731314e+00 -3.713931593415731314e+00 -4.408507399431772278e+00 -4.721372244668359919e+00 -4.335212486646781826e+00 -4.570017309409204032e+00 -3.795795738506154482e+00 -3.381030078627389468e+00 -5.345355814976793241e-01 4.953291848939997966e-01 8.529898300512291920e-01 9.976270216865067431e-01 1.129349057838477499e+00 1.129349057838477499e+00 1.395329949265710745e+00 1.658254057586785235e+00 1.849077427885829294e+00 1.967726004163088849e+00 2.363852763994522377e+00 2.589672448275653238e+00 2.991137179868678331e+00 3.177620401418541185e+00 3.384659564350959826e+00 3.665901970335454951e+00 3.951190534219490846e+00 3.951190534219490846e+00 4.294811429035286565e+00 4.375066909828310813e+00 4.375066909828310813e+00 4.247074649564665627e+00 4.139170407168784926e+00 4.028348280850000407e+00 3.927248444489853441e+00 3.697154838337241678e+00 3.582457008462048620e+00 3.539886800302489700e+00 3.427194754371743812e+00 3.456025745374592173e+00 3.325172432045661264e+00 3.222852232184906018e+00 3.222852232184906018e+00 3.304551642726067051e+00 3.404478451279502771e+00 3.388603577464359251e+00 3.413425819352314150e+00 3.302001967728392717e+00 3.259111677111585337e+00 3.390429939516518498e+00 3.410346642165617670e+00 3.401068997994458165e+00 3.464040482475593041e+00 3.408451120003885393e+00 3.408451120003885393e+00 3.341632273161347921e+00 3.167073338068962407e+00 3.048589101313711858e+00 2.942278933782287886e+00 2.771336152601594716e+00 2.701381760495360940e+00 2.394164032287378951e+00 2.290089854914492129e+00 2.234615955775461238e+00 2.149208771465031198e+00 1.824148627646890342e+00 1.834881543439895735e+00 8.696877638917910325e-01 7.654711417372300764e-01 7.654711417372300764e-01 3.306629338753762637e-01 -4.821683254792074602e-01 -8.302893470423705624e-01 -1.140530339372411994e+00 -1.590106867232558230e+00 -1.710059768070698150e+00 -1.812763210419728432e+00 -1.794179731175444381e+00 -1.833832318697861563e+00 -1.847153527902172687e+00 -1.932604446874258475e+00 -1.932604446874258475e+00 -2.111326362935400880e+00 -2.228210385477381816e+00 -2.465166086988356486e+00 -2.826721333357476773e+00 -3.458045330770853187e+00 -3.989556352678665263e+00 -4.781415411774625035e+00 -5.146021674925202127e+00
2.923101175768475279e+00 2.715306535175684655e+00 2.389044028637953065e+00 2.375223209188512818e+00 2.266578271180075710e+00 1.591875345649564455e+00 1.234536824847647818e+00 1.234536824847647818e+00 1.180027642214495742e+00 1.119209842361760909e+00 1.073510733831573694e+00 1.104436261318071377e+00 7.119200151538438437e-01 4.493265375774936898e-01 -6.785442933610442984e-02 -4.313242601873398807e-01 -1.015129600360542339e+00 -1.722780446099977825e+00 -2.181402128289465558e+00 -2.181402128289465558e+00 -2.308234151163059522e+00 -1.985398280042793395e+00 -1.813099921547966398e+00 -1.705054486330486618e+00 -1.752928530754907843e+00 -1.978708039203107116e+00 -2.616038474223711052e+00 -2.956337850874646289e+00 -3.397165469269548321e+00 -4.171578510728114253e+00 -4.551638400973672560e+00 -4.706324648699953705e+00 -4.753207247570004235e+00 -4.257482294584739257e+00 -4.257482294584739257e+00 -3.198220474398365543e+00 -2.695100601318746847e+00 4.953291848939997966e-01 5.402883406917392550e-01 7.370033894275808128e-01 9.702688923903228790e-01 1.246218198050585535e+00 1.388921995747571358e+00 1.459199767764757016e+00 1.746443525972256605e+00 2.122631834007827401e+00 2.122631834007827401e+00 2.546676051103108129e+00 2.926379055931278561e+00 3.177620401418541185e+00 3.312868787700448348e+00 3.641094221583993651e+00 3.759891423167923907e+00 4.087999574350604348e+00 4.202286050656518057e+00 4.329481291379519092e+00 4.320806815711365267e+00 4.243697551666922863e+00 4.243697551666922863e+00 4.045363516798774484e+00 3.783712386359138424e+00 3.697154838337241678e+00 3.580243767202066607e+00 3.487205067681197423e+00 3.427194754371743812e+00 3.404953663790119212e+00 3.310540772443998581e+00 3.278871670822383955e+00 3.258721188420684811e+00 3.335269921497628243e+00 3.378211334975347313e+00 3.409805035504772874e+00 3.342694664616366662e+00 3.342694664616366662e+00 3.259698832341789476e+00 3.348401593699231515e+00 3.410346642165617670e+00 3.376252552738466139e+00 3.412337198428457619e+00 3.417937710274011387e+00 3.407955735158775479e+00 3.321159521490772981e+00 3.248805933872145779e+00 3.052863579688583240e+00 2.869346470697688556e+00 2.869346470697688556e+00 2.664825663100065967e+00 2.406535108074679741e+00 2.290089854914492129e+00 2.186776737257388969e+00 1.837200885863854882e+00 1.824148627646890342e+00 1.266002364812095049e+00 1.127344065424570774e+00 8.557074879851257476e-01 6.213309540086197069e-01 5.449669166479972210e-02 5.449669166479972210e-02 -8.381531242613875499e-01 -1.417627742332661978e+00 -1.590106867232558230e+00 -1.726772398868758440e+00 -1.800546787229657220e+00 -1.794179731175444381e+00 -1.737202310399941663e+00 -1.801466727483077124e+00 -1.900735642886946852e+00 -1.958496889061682511e+00 -2.100727595833679295e+00 -2.163224699922840166e+00 -2.544893469678665365e+00 -3.188703837138612052e+00 -3.188703837138612052e+00 -3.834044764236846703e+00 -4.809720366238697586e+00 -5.146021674925202127e+00
2.923101175768475279e+00 2.839522066014716462e+00 2.431318119591500349e+00 2.375223209188512818e+00 2.231012852873146546e+00 1.590971904792347846e+00 1.320712271812982452e+00 1.208494564312606379e+00 1.188866793531432320e+00 1.150863228919042136e+00 1.124864075634943283e+00 9.745134927301941641e-01 9.745134927301941641e-01 3.895247460169912745e-01 -1.954640006962117815e-01 -4.313242601873398807e-01 -9.694377131225972999e-01 -1.655759692974402064e+00 -1.956969948042867280e+00 -2.299673002785362019e+00 -2.226172413524358351e+00 -2.094268114773366385e+00 -1.848335441982638550e+00 -1.693003440711403407e+00 -1.693003440711403407e+00 -1.987714220924539754e+00 -2.642882243503827944e+00 -2.956337850874646289e+00 -3.397813564056539448e+00 -4.240638356437919754e+00 -4.551638400973672560e+00 -4.783541931311329876e+00 -4.665221735702619554e+00 -4.459049768032325112e+00 -3.609613871990833278e+00 -3.160671949284479698e+00 -3.160671949284479698e+00 -2.456117222357227625e+00 5.411436988336654208e-01 7.370033894275808128e-01 8.395644434849199866e-01 1.178965861083952182e+00 1.388921995747571358e+00 1.478787626846259418e+00 1.709640205538927482e+00 1.896983520055819827e+00 2.287219778988941243e+00 2.497412006633385140e+00 2.715133817154867124e+00 3.087207278376532305e+00 3.417921515637906360e+00 3.417921515637906360e+00 3.714159933795426305e+00 4.003486430604999313e+00 4.202286050656518057e+00 4.242996494371787719e+00 4.292934313418395931e+00 4.233209921399286202e+00 4.131712585985126474e+00 4.053214197354228610e+00 3.923217025482841791e+00 3.695949307297110131e+00 3.492422191950392829e+00 3.492422191950392829e+00 3.389554730998531440e+00 3.315093057722940273e+00 3.310540772443998581e+00 3.276076205876345959e+00 3.277482019613309205e+00 3.335269921497628243e+00 3.417295343259210583e+00 3.430851024567369567e+00 3.422245789611418232e+00 3.308768377236446678e+00 3.336628937523549610e+00 3.336628937523549610e+00 3.377476234984827741e+00 3.408462925183662673e+00 3.408462925183662673e+00 3.383338899117192877e+00 3.380662863589671829e+00 3.321159521490772981e+00 3.207087685291003520e+00 3.046348762938405841e+00 2.985751492043686284e+00 2.734174694795364235e+00 2.624193400649742713e+00 2.390347679679746484e+00 2.290263068307267780e+00 2.052058818088581482e+00 1.914079817199154432e+00 1.706061640802943646e+00 1.242225046811748390e+00 9.806682879151995547e-01 9.806682879151995547e-01 6.344482577314196625e-01 7.804473335629864839e-02 -4.690859984702852592e-01 -8.640758055096580126e-01 -1.465640780387051922e+00 -1.600843678963705274e+00 -1.904140683044699189e+00 -1.810842670266101573e+00 -1.695969801854180004e+00 -1.724671879593056900e+00 -1.828272975026866920e+00 -1.828272975026866920e+00 -1.922996818562237253e+00 -2.197688305847642187e+00 -2.280622834851679936e+00 -2.615058317277677347e+00 -3.268424944424303646e+00 -3.550686340919747774e+00 -4.230046557111059258e+00 -4.730888958714235315e+00 -5.184670592913791509e+00
2.977507141724867523e+00 2.672642908886986746e+00 2.672642908886986746e+00 2.387141368538241437e+00 1.895560374567925699e+00 1.590971904792347846e+00 1.330495928343663481e+00 1.234447367090648839e+00 1.188866793531432320e+00 1.139138875300460985e+00 1.134154326707128568e+00 1.100499747766749747e+00 6.810327035698324760e-01 7.561505101246002170e-02 7.561505101246002170e-02 -5.647694783707307709e-01 -1.334366281938293763e+00 -1.334366281938293763e+00 -1.895697644092699807e+00 -2.190144793344441787e+00 -2.226172413524358351e+00 -2.053307100896346160e+00 -1.876578339541470575e+00 -1.791620284957141873e+00 -1.754398000139075542e+00 -1.998951901793147634e+00 -2.328401543636869242e+00 -2.947615246608939366e+00 -3.807984904123804082e+00 -3.807984904123804082e+00 -4.585226851671826864e+00 -4.718776517349041022e+00 -4.665221735702619554e+00 -4.198823265260534399e+00 -3.393851768677670577e+00 -3.196974114037406167e+00 -3.181397944264945821e+00 -3.305196157931865386e+00 -1.636617897807682409e+00 6.602677302165624873e-01 9.976290004749823748e-01 9.976290004749823748e-01 1.352868832915147923e+00 1.601401061244188462e+00 1.709640205538927482e+00 1.856564074964528910e+00 2.193882539806183640e+00 2.497412006633385140e+00 2.876970258314238471e+00 3.014828687978252209e+00 3.226009783215876059e+00 3.566585023242443864e+00 3.834488936435946016e+00 3.834488936435946016e+00 4.093389404917413543e+00 4.259895665757488459e+00 4.262411314623717473e+00 4.222471626990103921e+00 4.138768400643910716e+00 3.919185606475829697e+00 3.919185606475829697e+00 3.691232882435691476e+00 3.465002742498656918e+00 3.434385858211602027e+00 3.348155424057211782e+00 3.306811132716774182e+00 3.298674326864174500e+00 3.273291221370276283e+00 3.311697446550367463e+00 3.356049214580479223e+00 3.429952705404611724e+00 3.427297809757227753e+00 3.427297809757227753e+00 3.315534786744500639e+00 3.330182906263690068e+00 3.345727304970909088e+00 3.352570776974459044e+00 3.379889233842414686e+00 3.360633914381321752e+00 3.377073741871286838e+00 3.357697284314301811e+00 3.296788919735489820e+00 3.129218255254058612e+00 2.952627369972280480e+00 2.952627369972280480e+00 2.739936045117146612e+00 2.496558905634853165e+00 2.390347679679746484e+00 2.270763042341962468e+00 2.136200909706538642e+00 1.914079817199154432e+00 1.810824688506786906e+00 1.139842020221806917e+00 9.037999035220846133e-01 8.339925104058284466e-01 6.126085295464801517e-01 3.527865669821617089e-01 -4.724107021987499211e-01 -1.220010207752193043e+00 -1.220010207752193043e+00 -1.659364579562871089e+00 -1.955580247315586773e+00 -1.810842670266101573e+00 -1.666714695931991841e+00 -1.620240933651825976e+00 -1.718706611195435441e+00 -1.817711060611758356e+00 -1.860654463115288593e+00 -2.090253150332340937e+00 -2.333035284225977612e+00 -2.986163547928858630e+00 -2.986163547928858630e+00 -3.721809002522030507e+00 -4.508846602780983481e+00 -4.730888958714235315e+00 -5.245747152112794076e+00
2.965740505956175888e+00 2.851936252985754816e+00 2.521206181899692922e+00 2.396601961567844441e+00 2.263395297382633231e+00 1.596155506184545825e+00 1.275788939192906035e+00 1.275788939192906035e+00 1.200567137108313531e+00 1.226633730946842693e+00 1.134154326707128568e+00 1.203583885246488183e+00 6.660260191754125980e-01 3.703132195994642273e-01 -2.353236505255100752e-01 -7.347238903153709977e-01 -9.276881015143024767e-01 -1.655254509051085732e+00 -2.019478985002847171e+00 -2.019478985002847171e+00 -2.122819642580317634e+00 -1.930086657436629549e+00 -1.876578339541470575e+00 -1.851312919205144070e+00 -1.789630718958394429e+00 -2.339639224505476900e+00 -2.668406174144157816e+00 -2.938892642343231554e+00 -3.836607720008161859e+00 -4.305379184762296418e+00 -4.594817516094480858e+00 -4.654011103386751280e+00 -4.573485395988271307e+00 -3.974997236420671598e+00 -3.267189336332541494e+00 -3.184599761798432738e+00 -3.195482174433022404e+00 -3.041558807863708136e+00 -3.041558807863708136e+00 5.967438326137273208e-01 1.051057211995962914e+00 1.201963022455555530e+00 1.335462751015580540e+00 1.529891766705946399e+00 1.707633733862441883e+00 1.964805615738642208e+00 2.198397764778391661e+00 2.312758131922408200e+00 2.821072455379725508e+00 3.162405570485306683e+00 3.162405570485306683e+00 3.490867276276379272e+00 3.798017749679111432e+00 3.945038582374565284e+00 4.016777800126244635e+00 4.204679719718354747e+00 4.262411314623717473e+00 4.171334285105348982e+00 4.149900640140402608e+00 4.032400601831706233e+00 3.814198366842550758e+00 3.586664446614984847e+00 3.586664446614984847e+00 3.377726001923797572e+00 3.289092605480377962e+00 3.289092605480377962e+00 3.304948545519688530e+00 3.284071046825543849e+00 3.311697446550367463e+00 3.343229476382607146e+00 3.431610644031194202e+00 3.448047129381331732e+00 3.320044932714982799e+00 3.315063564391644846e+00 3.313914868572157779e+00 3.343053016242586661e+00 3.343496105055533629e+00 3.343496105055533629e+00 3.337555254121664650e+00 3.340219006263039692e+00 3.357697284314301811e+00 3.278856937143070027e+00 3.170198281095315984e+00 3.062297078050499888e+00 2.862355230616926427e+00 2.745828548905887789e+00 2.583561138199420792e+00 2.376699528109831761e+00 2.186352749133645190e+00 2.186352749133645190e+00 2.006941804293838949e+00 1.468055396633120679e+00 1.139842020221806917e+00 8.312933545101490740e-01 8.679449541412748159e-01 6.126085295464801517e-01 -2.271499913156321826e-02 -4.625566716616096308e-01 -8.459752534417818159e-01 -1.450586891141693702e+00 -1.856875487745910158e+00 -1.856875487745910158e+00 -1.821138553302546148e+00 -1.571618066329130814e+00 -1.571618066329130814e+00 -1.628634098771615912e+00 -1.762426089856647060e+00 -1.860654463115288593e+00 -2.099036364034399416e+00 -2.384401503236216247e+00 -2.683648725382168365e+00 -3.461277232129372550e+00 -4.021439641242329444e+00 -4.308083483921977930e+00 -5.081475904467930960e+00 -5.765731706658019817e+00
2.827812944346443036e+00 2.827812944346443036e+00 2.557207640383450276e+00 2.258361313135596404e+00 2.258361313135596404e+00 1.640482974701481522e+00 1.280230043624901892e+00 1.262321934135326895e+00 1.268343491956793745e+00 1.199881678522511264e+00 1.307058657791817513e+00 8.998950572105766099e-01 5.518694246599838982e-01 3.321069433761492662e-01 -3.407702475962706701e-01 -1.292400613421553324e+00 -1.292400613421553324e+00 -1.680796338994376971e+00 -1.991146795205490205e+00 -2.098356083992172216e+00 -2.055690873861473200e+00 -1.970998340909783320e+00 -1.904821237100302822e+00 -1.793636035823719554e+00 -1.838844657009733430e+00 -2.005206362472183201e+00 -2.671194842526690039e+00 -3.372994121224445419e+00 -3.372994121224445419e+00 -4.326094301812418053e+00 -4.679636900228296703e+00 -4.654011103386751280e+00 -4.533080418519455534e+00 -3.930326653289622385e+00 -3.267189336332541494e+00 -3.168590973853251835e+00 -2.541646226262172625e+00 -2.918220544278298689e+00 -1.537644383599197973e+00 8.889025706369356739e-01 8.889025706369356739e-01 1.171689138996987900e+00 1.453692320474991861e+00 1.453692320474991861e+00 1.701059622668629423e+00 2.044315810925145360e+00 2.198397764778391661e+00 2.387571999181661297e+00 2.723788487587840201e+00 2.946329858808884872e+00 3.293318027578261642e+00 3.512725892150551754e+00 3.679134378759406854e+00 3.919226846453040203e+00 4.097543872709906054e+00 4.097543872709906054e+00 4.230302989713241146e+00 4.154716098801585211e+00 4.149900640140402608e+00 4.043780772081585262e+00 3.827736802045874853e+00 3.679827861217989771e+00 3.455742885089555294e+00 3.369128231073407420e+00 3.346089988095807044e+00 3.312033753688028881e+00 3.295355340050445836e+00 3.295355340050445836e+00 3.309515487158298352e+00 3.385616299805697338e+00 3.431610644031194202e+00 3.453829450651969335e+00 3.335071522696116286e+00 3.315063564391644846e+00 3.322650568456739784e+00 3.357835140349320735e+00 3.344372691272867293e+00 3.359484378271067495e+00 3.335624807189447871e+00 3.306826864149571499e+00 3.311943246169021915e+00 3.201136772947925646e+00 3.201136772947925646e+00 3.021669591145169864e+00 2.793125653896544769e+00 2.745828548905887789e+00 2.563381431082542239e+00 2.444098669789504186e+00 2.283671279481848337e+00 2.052298473019621206e+00 1.823078756276761858e+00 1.708993682969663030e+00 1.125270518786616769e+00 9.947155384455942384e-01 9.947155384455942384e-01 5.550413309469331979e-01 -1.091216751107786931e-01 -4.625566716616096308e-01 -8.748797560263070761e-01 -1.502702692526760142e+00 -1.688292337456002823e+00 -1.955775581514554551e+00 -1.820268834668635760e+00 -1.672552690434575329e+00 -1.549213467473551376e+00 -1.674213389999070323e+00 -1.674213389999070323e+00 -1.833159106175566988e+00 -2.203880863433898440e+00 -2.384401503236216247e+00 -2.761136293482015169e+00 -3.489538779755304798e+00 -4.021439641242329444e+00 -4.464720854433586794e+00 -5.181545337993035183e+00 -5.452865684913086319e+00
