1.994719398566201729e+00 1.867928009917196430e+00 1.769463835648316774e+00 1.560488529966185478e+00 1.235426190379154132e+00 6.963559500091351939e-01 6.963559500091351939e-01 2.744181100084844838e-01 -4.537806593535910482e-02 -4.537806593535910482e-02 -3.603153285097133174e-01 -8.841118752129746294e-01 -1.141841893011335429e+00 -1.230003755970139778e+00 -1.652977660855597053e+00 -1.711728170418726158e+00 -1.935951645918665642e+00 -1.954817180548241495e+00 -1.976257239711202818e+00 -1.972921237441079390e+00 -1.749237387619452022e+00 -1.749237387619452022e+00 -3.708463850287497809e-01 2.127944519959744429e+00 2.394707766709514907e+00 2.684236729663373566e+00 3.582958202643285794e+00 4.083728827150205021e+00 4.677147016008428082e+00 5.046664379898158082e+00 4.992363797634805422e+00 5.179240982870078724e+00 5.200033353209968290e+00 5.200033353209968290e+00 5.220439910071647205e+00 5.233086233727421543e+00 5.125608054718385986e+00 5.050129247246815112e+00 4.807841469970583148e+00 4.549935615276549328e+00 4.261752772167456627e+00 4.074050915866778588e+00 3.994471207799800361e+00 3.826084306479705432e+00 3.579164578608394542e+00 3.579164578608394542e+00 3.402734343147897356e+00 3.246947629539339797e+00 3.246947629539339797e+00 3.228528367677010902e+00 3.245077800978107163e+00 3.168647677478313884e+00 3.164745197045276903e+00 3.171111889621396784e+00 3.049121729275594994e+00 3.039753298401649761e+00 3.100521119749824805e+00 3.106467479742168969e+00 3.089740456625554188e+00 3.237882448404181268e+00 3.237882448404181268e+00 3.260477611516437335e+00 3.180247665669711843e+00 3.072839990189759618e+00 3.197909087658995730e+00 2.795211475885106100e+00 2.143085178830657078e+00 1.508971496042732063e+00 1.424279853683970032e+00 1.085790217908477517e+00 7.725395385299316242e-01 5.125018300915009650e-01 5.125018300915009650e-01 2.428091367197472428e-01 1.973597488586491533e-01 -3.001284323923106290e-02 -1.471157307313398777e-01 -5.607538700622868300e-01 -1.238470301799078577e+00 -1.917074780552688429e+00 -1.924855828194878882e+00 -2.242445031257918941e+00 -2.517315567673189314e+00 -2.516079691206660307e+00 -2.639411621040997247e+00 -2.579075376899855332e+00 -2.577828001445272577e+00 -2.577828001445272577e+00 -2.596909104391715850e+00 -2.604152101404283659e+00 -2.523278869166813543e+00 -2.523278869166813543e+00 -2.491898976294774304e+00 -2.508965522058680175e+00 -2.543851307364945580e+00 -2.620821086660899191e+00 -3.035576460287622513e+00 -3.564753106120968518e+00 -4.163724627803651046e+00 -4.129473910989847063e+00 -4.588955939432558750e+00 -4.938539216157955103e+00 -5.304276019268031384e+00 -5.304276019268031384e+00 -5.577523607915720660e+00 -5.921027162776892894e+00 -6.099593920296678462e+00 -6.186559940652731626e+00 -6.439670132306396511e+00 -6.566045003762050136e+00 -6.819713056668246232e+00 -6.834827735910665503e+00 -7.027705390598283586e+00 -7.281243089001183222e+00 -7.565063554809416502e+00 -7.565063554809416502e+00
1.983031179049725257e+00 1.861656537566699576e+00 1.769463835648316774e+00 1.565979270614061836e+00 1.278063254232945090e+00 9.908619227375952132e-01 5.464102728441140311e-01 3.676598637716086415e-01 1.275441657107691806e-01 -1.253009336274640839e-01 -5.208329364770879488e-01 -5.208329364770879488e-01 -1.016668801176627834e+00 -1.442219012195556260e+00 -1.652977660855597053e+00 -1.772102545592161293e+00 -1.917555175488257380e+00 -1.954817180548241495e+00 -1.950584229250618584e+00 -1.934447271128590717e+00 -1.946932305167034194e+00 -1.483901903572328873e+00 -3.746088673256748325e-01 1.136979620829858817e+00 2.241323626810147740e+00 3.013599316781393256e+00 3.013599316781393256e+00 4.002571835132993527e+00 4.665037084925597100e+00 5.046664379898158082e+00 5.029622521333832807e+00 5.246024408008161721e+00 5.176309670467073687e+00 5.241067545362215085e+00 5.230091481065816339e+00 5.180677706841649410e+00 5.217942017368162766e+00 5.020238414283510586e+00 5.020238414283510586e+00 4.648495403119977887e+00 4.282329667352494873e+00 4.074050915866778588e+00 4.011239637347098430e+00 3.827753790149092783e+00 3.667315029180572061e+00 3.578066694473111653e+00 3.484047792561104195e+00 3.380048463721925689e+00 3.197349973814619606e+00 3.216910410901784534e+00 3.216910410901784534e+00 3.219252762077944308e+00 3.187551832959853115e+00 3.171111889621396784e+00 3.090487899678486805e+00 3.030797020051636093e+00 3.100521119749824805e+00 3.161881572689841491e+00 3.115522516378783635e+00 3.210347013301813934e+00 3.291721858711995186e+00 3.240968060717106525e+00 3.207649539951696660e+00 3.204640153639381595e+00 3.180530028468062209e+00 3.008294550028669967e+00 2.577739401934818542e+00 1.869099498419223737e+00 1.388797223594350871e+00 1.388797223594350871e+00 9.974539186036996963e-01 6.882233224058393883e-01 4.525263223739269813e-01 4.131521256113684926e-01 2.568452368686504617e-01 1.349230620360710731e-01 -2.051688464561729763e-01 -2.302664810159043840e-01 -6.674711453451610543e-01 -1.478867224523414903e+00 -1.804975242176988459e+00 -1.804975242176988459e+00 -2.303885039133417578e+00 -2.495497091929626876e+00 -2.596211546877497778e+00 -2.529169443243109328e+00 -2.546145193307991050e+00 -2.577104037087949884e+00 -2.586789004843298656e+00 -2.576433977987067081e+00 -2.556822052966558623e+00 -2.507222864274647023e+00 -2.524784196484765264e+00 -2.524784196484765264e+00 -2.552475990403688666e+00 -2.634104259442739959e+00 -2.634104259442739959e+00 -3.097061014768760501e+00 -3.737078667597402593e+00 -4.129473910989847063e+00 -4.231011321303768113e+00 -4.718519885576911932e+00 -5.001983564600251064e+00 -5.356708153650715509e+00 -5.397450976952703705e+00 -5.654410608906546898e+00 -5.900197237300070618e+00 -6.234151596776781545e+00 -6.234151596776781545e+00 -6.450282971820040068e+00 -6.655658366646656887e+00 -6.834827735910665503e+00 -6.883191084898395040e+00 -7.184422993036790217e+00 -7.368374631613585635e+00 -7.689619635503438744e+00
1.963714175292344821e+00 1.938264345660215326e+00 1.714135535073590066e+00 1.425790120584111254e+00 1.425790120584111254e+00 1.132775438915386568e+00 6.340208870855263967e-01 3.676598637716086415e-01 1.992242370197719881e-01 -6.962009022244683432e-02 -2.671396499903706534e-01 -7.073318509940687004e-01 -8.914661407794499670e-01 -1.185257494863966254e+00 -1.713179552360879043e+00 -1.863002558805606501e+00 -1.863002558805606501e+00 -1.869191163824071911e+00 -1.807106234821911572e+00 -1.934447271128590717e+00 -1.512129256053833526e+00 -1.307012983339111978e+00 -3.746088673256748325e-01 2.020103038270177898e+00 1.778445127690885696e+00 2.446769120524438179e+00 3.577670810116446720e+00 4.357486826260734247e+00 4.743684105877173707e+00 4.903925546635964139e+00 5.217793777099238639e+00 5.289978158284986520e+00 5.289978158284986520e+00 5.334840482305770237e+00 5.279463607118904278e+00 5.279463607118904278e+00 5.276345925655234304e+00 5.088346777091853568e+00 4.900396537382497364e+00 4.742500379686340750e+00 4.467433723884868257e+00 4.202964300221652572e+00 4.014585076229925775e+00 3.959356252155494360e+00 3.781957656233812415e+00 3.655001539328539995e+00 3.482745405997001775e+00 3.482745405997001775e+00 3.291140202523196834e+00 3.243638238843319144e+00 3.275226099877231345e+00 3.217671836304583088e+00 3.182527532669367609e+00 3.179755681931645928e+00 3.036854779270628413e+00 3.072267470283276403e+00 3.111698902775301701e+00 3.176493537540582945e+00 3.119500765597680747e+00 3.119500765597680747e+00 3.222426165062930892e+00 3.217586604615662260e+00 3.207649539951696660e+00 3.228035017246762450e+00 3.260508976157292516e+00 3.008294550028669967e+00 2.338028863616088415e+00 2.246493216642957869e+00 1.792357358059077477e+00 1.335090870499879623e+00 1.276829027703672237e+00 9.644259568101518632e-01 6.448757013111281466e-01 3.681612359078852981e-01 3.681612359078852981e-01 3.066482626128523847e-01 5.729619718954301333e-02 -2.302664810159043840e-01 -4.299817618908377548e-01 -9.225432894565428477e-01 -1.429189937524922627e+00 -1.942585232596861111e+00 -2.082100823236328502e+00 -2.312858180524590690e+00 -2.459448716826815318e+00 -2.503211592459744672e+00 -2.503211592459744672e+00 -2.565795045820099762e+00 -2.559651313871339262e+00 -2.576433977987067081e+00 -2.532219229692374896e+00 -2.533787743984541319e+00 -2.532451555229034312e+00 -2.527301123230225155e+00 -2.548950854574843383e+00 -2.545054888516826264e+00 -2.621925883475771712e+00 -3.203626037025353313e+00 -3.203626037025353313e+00 -3.757740499197929740e+00 -4.358593760743184831e+00 -4.718519885576911932e+00 -4.757730626756770498e+00 -5.154610038158185858e+00 -5.397450976952703705e+00 -5.444513581013834980e+00 -5.726533198716344586e+00 -5.974689518019774326e+00 -6.242970556623999911e+00 -6.248117812045619779e+00 -6.461137325082393801e+00 -6.671929688967250804e+00 -7.006731469747832897e+00 -7.006731469747832897e+00 -7.285455377791807408e+00 -7.572900051917442532e+00
1.930508290890066814e+00 1.838885109622055092e+00 1.795502508925276963e+00 1.479887301564472679e+00 1.342752212149634694e+00 9.338782600255972621e-01 7.254699190385899277e-01 4.775780030302207990e-01 1.149255564402157925e-01 2.760602402666875038e-02 -1.585688058074607165e-01 -5.787852770679203784e-01 -1.074418182163417335e+00 -1.074418182163417335e+00 -1.426184582457353356e+00 -1.738953551309073031e+00 -1.824805305233329067e+00 -1.694970468756747062e+00 -1.622944289261476047e+00 -1.505438351665099095e+00 -1.066216543986997722e+00 -7.706406391233575626e-01 -7.011169256195810551e-01 4.570457636425064307e-01 2.160270219011315440e+00 2.160270219011315440e+00 3.522184483181859171e+00 4.385774499875540577e+00 4.743684105877173707e+00 4.973387288668159378e+00 5.335157645939000659e+00 5.403149600165194855e+00 5.351642216109770089e+00 5.435416251387279019e+00 5.343814517445483858e+00 5.371500037654824311e+00 5.185574971701591984e+00 5.185574971701591984e+00 4.973179252297970088e+00 4.646631607474295933e+00 4.467433723884868257e+00 4.364983900741128409e+00 4.172719951925937032e+00 3.959356252155494360e+00 3.909965170282670321e+00 3.725534447648307435e+00 3.580784221904740772e+00 3.422776491200737237e+00 3.371905649950290851e+00 3.311928502583026734e+00 3.284352141692332250e+00 3.162160120943778630e+00 3.162160120943778630e+00 3.183910775706405794e+00 3.124872818216988257e+00 3.072267470283276403e+00 3.127715299414352224e+00 3.235849363589830663e+00 3.146972671684836964e+00 3.157829328862495455e+00 3.153130471413867042e+00 3.187437903501661562e+00 3.212059118747821795e+00 3.264651226219211555e+00 3.264651226219211555e+00 3.192710390442171420e+00 2.707980549170219575e+00 2.246493216642957869e+00 2.160434862434185366e+00 1.646341321110057709e+00 1.276829027703672237e+00 8.996670933157957517e-01 8.320541844450177749e-01 5.933666188064374847e-01 4.221862319863616264e-01 2.942367275581198038e-01 2.942367275581198038e-01 2.493139174753138121e-02 -5.340125137512135023e-01 -9.225432894565428477e-01 -1.050777559404340700e+00 -1.660551110222932003e+00 -2.082100823236328502e+00 -2.109636669842521073e+00 -2.308518492215291928e+00 -2.436046729517754805e+00 -2.513088444102404395e+00 -2.553613907624512347e+00 -2.532651190952879272e+00 -2.548715854569850503e+00 -2.506069947311624802e+00 -2.506069947311624802e+00 -2.572950950950996241e+00 -2.572019482345410779e+00 -2.548950854574843383e+00 -2.483269001617128158e+00 -2.482034057676950400e+00 -2.708207173832642312e+00 -3.293089645089203543e+00 -3.379833269288474273e+00 -3.868217834975527403e+00 -4.399264726428813610e+00 -4.845302399596437937e+00 -4.845302399596437937e+00 -5.224277333062693707e+00 -5.563637047128555224e+00 -5.726533198716344586e+00 -5.770371228833308663e+00 -6.047863724669904961e+00 -6.248117812045619779e+00 -6.482399427784898194e+00 -6.539850379092053245e+00 -6.735101182946113596e+00 -7.058144737275414471e+00 -7.325353147901029871e+00 -7.325353147901029871e+00
2.052436469419949727e+00 1.896757909613420390e+00 1.616848184011084877e+00 1.616848184011084877e+00 1.394575987424298003e+00 9.785974907180594595e-01 7.254699190385899277e-01 5.584812165462179623e-01 2.214029929789150253e-01 2.760602402666875038e-02 -2.811202459113457119e-01 -4.509593753271471384e-01 -7.770343502150126591e-01 -1.181946694573337897e+00 -1.473019791566373859e+00 -1.473019791566373859e+00 -1.712889553782943164e+00 -1.504337753972200709e+00 -1.622944289261476047e+00 -1.341324393029574846e+00 -9.021025853514734738e-01 -7.706406391233575626e-01 -5.919320267402607971e-01 5.432913868362259091e-01 1.334470908687574120e+00 3.023427260379812687e+00 3.586176663273504595e+00 4.053440770757879008e+00 4.780844567066100836e+00 5.229162996904445748e+00 5.229162996904445748e+00 5.557664796982607847e+00 5.452115790726589140e+00 5.435416251387279019e+00 5.457537553825151377e+00 5.447756433114345320e+00 5.362163385733422771e+00 5.156364007971188990e+00 5.043794814801275450e+00 4.816338198217287037e+00 4.597284884929326410e+00 4.371843704428127531e+00 4.371843704428127531e+00 4.098209318039041094e+00 3.900416608613904046e+00 3.725534447648307435e+00 3.676083156866048807e+00 3.505778854102998832e+00 3.371905649950290851e+00 3.279542342731136539e+00 3.289081290674291225e+00 3.209327500581006021e+00 3.177602477775355982e+00 3.133658828362494209e+00 3.133658828362494209e+00 3.113737920514915825e+00 3.255390506081742075e+00 3.255390506081742075e+00 3.187836454765590410e+00 3.130794899036084544e+00 3.153130471413867042e+00 3.114186137535032373e+00 3.195949816474641381e+00 3.256489846635245211e+00 3.302713698041324530e+00 3.289218552019455011e+00 3.146974238145491931e+00 2.623404839444087422e+00 2.083071860533187714e+00 2.083071860533187714e+00 1.563790417402534105e+00 1.126347503613792878e+00 8.320541844450177749e-01 7.671128278585962468e-01 4.791344369663716463e-01 3.101322429448918339e-01 2.511053948913052891e-01 1.107734521955920926e-01 2.219193950895658601e-02 -5.997935636472975229e-01 -1.249905176656727512e+00 -1.249905176656727512e+00 -1.815623539922200269e+00 -2.110442719836534309e+00 -2.308518492215291928e+00 -2.318227210246806891e+00 -2.462298717720471597e+00 -2.553613907624512347e+00 -2.525014402447884443e+00 -2.547294818153026608e+00 -2.510921302708261305e+00 -2.563984675842050365e+00 -2.558384759233723660e+00 -2.613737334222352438e+00 -2.545425718745998545e+00 -2.389709719146266842e+00 -2.389709719146266842e+00 -2.529151313995955164e+00 -2.872324402892575179e+00 -3.379833269288474273e+00 -3.478053391353611801e+00 -4.066020463907181082e+00 -4.535023693341946327e+00 -4.900727643193436123e+00 -4.928594279927608568e+00 -5.288064983029300947e+00 -5.553526395915558744e+00 -5.847224810704702236e+00 -5.856192370827829841e+00 -6.057331417385184658e+00 -6.327399472407380543e+00 -6.602132675312402554e+00 -6.602132675312402554e+00 -6.906529839973998719e+00 -7.216051493565906583e+00 -7.392653715052096786e+00
2.038128302939368641e+00 1.933035147188063130e+00 1.871804023459584965e+00 1.492837165552027612e+00 1.437993009877247541e+00 1.224189707955927631e+00 8.635191844311220777e-01 3.712644014006541981e-01 3.712644014006541981e-01 1.313441339143787134e-01 -1.413161251205211077e-01 -4.509593753271471384e-01 -6.492172320975164723e-01 -9.721363188912254261e-01 -1.120123041731270419e+00 -1.532220804176851914e+00 -1.603110795300316527e+00 -1.523319064485892715e+00 -1.387711329252703019e+00 -1.039656509872762147e+00 -1.039656509872762147e+00 -9.670489362659161481e-01 4.790399945069961918e-02 5.432913868362259091e-01 2.138775056542635777e+00 3.143444999210576185e+00 3.586176663273504595e+00 4.478026304184463235e+00 4.846229667727310009e+00 5.116359840211810450e+00 5.452521514778763567e+00 5.726632850682094933e+00 5.589817969433971356e+00 5.529056324574716186e+00 5.561642889671990275e+00 5.561642889671990275e+00 5.471575286939389215e+00 5.216373050848490678e+00 5.043794814801275450e+00 4.884331414359590617e+00 4.695155284855861311e+00 4.538801980835798666e+00 4.315615816319525067e+00 4.209308624253851328e+00 4.039101912749988976e+00 3.802325021853534714e+00 3.661344513359240604e+00 3.661344513359240604e+00 3.423397549244718618e+00 3.301065043838309787e+00 3.289081290674291225e+00 3.232545446237581999e+00 3.191868115267603390e+00 3.201778022758646980e+00 3.169090906624035142e+00 3.162561692206238284e+00 3.148517607532894225e+00 3.265857119739587144e+00 3.112769628771708152e+00 3.112769628771708152e+00 3.122892826169290537e+00 3.154329257014532484e+00 3.195949816474641381e+00 3.215850916155190475e+00 3.262061363791969981e+00 3.289218552019455011e+00 2.984408411450948151e+00 2.872463341594961417e+00 2.506356102018223009e+00 2.040609328603486539e+00 2.003521127299854321e+00 1.483452836069423686e+00 1.102225959535308331e+00 7.531068845585405791e-01 6.896463342478907910e-01 4.321887149404401995e-01 3.362362595816549282e-01 -2.641467720845305095e-03 -2.641467720845305095e-03 -2.051590840234188140e-01 -8.395529257026546066e-01 -1.332146515648777507e+00 -1.469373470268540594e+00 -1.882932254646320080e+00 -2.129140079731770108e+00 -2.367778499588747199e+00 -2.382335783178433086e+00 -2.480447560426597864e+00 -2.538282474010528755e+00 -2.542478046233788813e+00 -2.542478046233788813e+00 -2.521377137359729126e+00 -2.558768936054026000e+00 -2.580204190808235598e+00 -2.546090873086421347e+00 -2.466420329309929826e+00 -2.471357279220084635e+00 -2.570909702277451636e+00 -2.596132325991324041e+00 -2.994078221782624727e+00 -3.567835765103329226e+00 -4.148662192858306952e+00 -4.148662192858306952e+00 -4.564804625641222025e+00 -4.957055445992046394e+00 -4.957055445992046394e+00 -5.307505875496437042e+00 -5.600499686053376891e+00 -5.856192370827829841e+00 -5.885419569709166687e+00 -6.179477957864119020e+00 -6.402373813419631965e+00 -6.674781823917154355e+00 -6.764566930396618716e+00 -7.005247304155052923e+00 -7.259773088642541339e+00
1.962771631197419042e+00 1.933035147188063130e+00 1.843986066696041259e+00 1.586615222771951439e+00 1.437993009877247541e+00 1.112008339747978747e+00 9.418972300327090874e-01 6.874720438884904805e-01 3.015296030608687339e-01 2.297702033015685541e-01 5.151900002838505355e-02 -3.141632570097484534e-01 -8.356546257150917478e-01 -8.356546257150917478e-01 -8.704904758078819693e-01 -1.265926972247501059e+00 -1.603110795300316527e+00 -1.353844166226362944e+00 -1.149169565530462567e+00 -1.215199577361534722e+00 -8.903235725930274125e-01 -8.889671474115177219e-01 -2.967732021903813355e-01 1.997915318253322692e+00 2.591666938554771260e+00 2.591666938554771260e+00 3.625263470406472344e+00 4.661860506851088992e+00 4.846229667727310009e+00 5.328739278361609877e+00 5.633842501976132233e+00 5.726632850682094933e+00 5.617221362838637155e+00 5.790614863795035205e+00 5.630193825457395995e+00 5.566176601103552279e+00 5.326798776016915760e+00 5.326798776016915760e+00 5.135174263016541119e+00 4.800558663030347617e+00 4.627238119513584103e+00 4.627238119513584103e+00 4.374073250550164715e+00 4.099741356981759566e+00 4.099741356981759566e+00 3.835671786622493862e+00 3.612773602125796124e+00 3.499805651409382712e+00 3.405389397780843375e+00 3.280460752610639741e+00 3.302946541259549118e+00 3.201096306553269599e+00 3.222398401336008966e+00 3.200574652363448180e+00 3.188435256167962528e+00 3.193695515387989126e+00 3.193695515387989126e+00 3.247368086429945677e+00 3.133306959961957183e+00 3.129818945320011370e+00 3.143387341911180854e+00 3.180986709736581375e+00 3.147157992595705167e+00 3.184674006173036975e+00 3.184434065357996779e+00 3.228264580417933960e+00 3.111100932157644827e+00 2.798227323302617364e+00 2.798227323302617364e+00 2.521874082887825441e+00 1.950174114678516535e+00 1.483452836069423686e+00 1.429777499259023976e+00 1.008122607132724280e+00 6.896463342478907910e-01 3.887288798899609654e-01 4.308171865305766013e-01 2.136497436226162949e-01 -4.338405919556095891e-02 -2.920559393099090295e-01 -2.920559393099090295e-01 -9.617517283855261390e-01 -1.561833003221694494e+00 -1.561833003221694494e+00 -2.003988895065706100e+00 -2.284478241997383030e+00 -2.382335783178433086e+00 -2.407849293477907882e+00 -2.549344884852985160e+00 -2.567969230957238835e+00 -2.515394328546924463e+00 -2.486739204960414895e+00 -2.480526625227849724e+00 -2.522868016242241218e+00 -2.559786187257571122e+00 -2.559786187257571122e+00 -2.521791786945424718e+00 -2.587796875339560820e+00 -2.596132325991324041e+00 -2.651922972650800681e+00 -3.178486620357687364e+00 -3.697964200369306731e+00 -4.192109675564710258e+00 -4.248624349920029353e+00 -4.620280277087285725e+00 -5.011287908201337515e+00 -5.301680475189263220e+00 -5.301680475189263220e+00 -5.661336974514599163e+00 -5.970355144675748349e+00 -6.179477957864119020e+00 -6.254469610369718602e+00 -6.543905955108888506e+00 -6.764566930396618716e+00 -7.079174697312812903e+00 -7.126892462232985892e+00
2.032859452476360129e+00 1.905642388706258794e+00 1.737505918740910094e+00 1.737505918740910094e+00 1.436236817935321319e+00 1.144278547630727338e+00 9.418972300327090874e-01 7.731243820413982171e-01 4.286727585871553670e-01 1.209274994843325957e-01 -3.040743418975608639e-02 -1.166656586467410966e-01 -6.128009427578421375e-01 -7.628803387898754895e-01 -9.674054379618612920e-01 -8.788561416495082046e-01 -1.271823908877834475e+00 -1.225484556961079941e+00 -9.294801403769966663e-01 -9.514126304172884074e-01 -8.522353783616863909e-01 2.121631426142929766e-01 2.121631426142929766e-01 2.219993734368691740e+00 2.884591107313618341e+00 3.178350685961614630e+00 3.809050211020276855e+00 4.839588113255141266e+00 5.029765156691207828e+00 5.547701512438321103e+00 5.826684499481759261e+00 5.934836629455731760e+00 5.871122414600052686e+00 5.909856910152097242e+00 5.909856910152097242e+00 5.765621739087878339e+00 5.465998072850321243e+00 5.263931858089014426e+00 5.243070741404238788e+00 4.880076010768018335e+00 4.751565374842017242e+00 4.532148934035364007e+00 4.414170443897508456e+00 4.267731054383208544e+00 3.970675696048143521e+00 3.716664926261543656e+00 3.716664926261543656e+00 3.481171080776946258e+00 3.346016107745207080e+00 3.280460752610639741e+00 3.295515886487138779e+00 3.262138136583229375e+00 3.222398401336008966e+00 3.159732707675323660e+00 3.202495476258990337e+00 3.220169178119673958e+00 3.217153171892403574e+00 3.225250756923314199e+00 3.188717463590798218e+00 3.128519697824806656e+00 3.170678013768667203e+00 3.170678013768667203e+00 3.129156859863906792e+00 3.097603197852806467e+00 3.184434065357996779e+00 3.167310608816413353e+00 3.172561052946782922e+00 3.034787485525472839e+00 2.859865013304520254e+00 2.966164760370840536e+00 2.463972511595806658e+00 1.854786493791406699e+00 1.352862091015138546e+00 1.352862091015138546e+00 9.267303552247782017e-01 5.636568233329040112e-01 4.308171865305766013e-01 3.198371749908700545e-01 5.592545982312979724e-02 -1.132208727568243811e-01 -3.753643900201200090e-01 -5.454014969124900691e-01 -1.120789760033942262e+00 -1.652671764550005307e+00 -2.087137656776371308e+00 -2.087137656776371308e+00 -2.297720627711668406e+00 -2.450975540352343884e+00 -2.549344884852985160e+00 -2.586022427203642060e+00 -2.527576056909813573e+00 -2.486739204960414895e+00 -2.429915922820188534e+00 -2.459439613454559304e+00 -2.541412852323349458e+00 -2.551188680851864898e+00 -2.582552770614597204e+00 -2.592105608313072906e+00 -2.469418024946001378e+00 -2.819262773335042827e+00 -2.819262773335042827e+00 -3.289368433870745623e+00 -3.841453358736854451e+00 -4.248624349920029353e+00 -4.321561334492175277e+00 -4.752165591126771282e+00 -5.059710133934091303e+00 -5.364102145879367178e+00 -5.441600382900686483e+00 -5.713507722033149605e+00 -6.029035802145374490e+00 -6.327425763779389811e+00 -6.327425763779389811e+00 -6.625456319480888645e+00 -6.916755660105927461e+00 -7.126892462232985892e+00
2.093033056782516610e+00 1.909197590281195733e+00 1.750958180762506311e+00 1.553769065427797136e+00 1.403390660591167016e+00 1.142621010973827955e+00 9.956580059027634322e-01 6.355383875103657321e-01 5.122769094890887720e-01 3.109688619291549605e-01 4.264008151308419647e-02 -2.786625438179091141e-01 -2.786625438179091141e-01 -5.538960061973227100e-01 -7.557896526651542990e-01 -8.788561416495082046e-01 -8.679099779432197792e-01 -1.034355691120200760e+00 -9.294801403769966663e-01 -7.961194068619815711e-01 -6.087191423854459993e-01 -6.969421548063795546e-01 1.879947393720853510e+00 2.636277332512792171e+00 2.636277332512792171e+00 3.403811481613844947e+00 4.439801553655741806e+00 4.839588113255141266e+00 5.248777658782683098e+00 5.743067058311652318e+00 5.826684499481759261e+00 6.143980107069972441e+00 6.137634815384910070e+00 6.073764373207213296e+00 6.093361716584147381e+00 5.956939626993078107e+00 5.607470011785663289e+00 5.345100625141185446e+00 5.092845041366860670e+00 5.092845041366860670e+00 4.808692180946614769e+00 4.589194365329541725e+00 4.414170443897508456e+00 4.309616310406337192e+00 4.031244824149210260e+00 3.849207583824490797e+00 3.587930381627919552e+00 3.481330155316614494e+00 3.392203068548717226e+00 3.232941211147955407e+00 3.325108258353520085e+00 3.325108258353520085e+00 3.252928687404414987e+00 3.171970663569239957e+00 3.202495476258990337e+00 3.262033288413746845e+00 3.232605748584250982e+00 3.225250756923314199e+00 3.149687822211071353e+00 3.123824730088676560e+00 3.163881857653070728e+00 3.203272224589114536e+00 3.101626561745679300e+00 3.101626561745679300e+00 3.106001375836835443e+00 3.160148603408425849e+00 3.172561052946782922e+00 3.197111629455983373e+00 3.210917771018059419e+00 2.966164760370840536e+00 2.901874284226553691e+00 2.227181407355019349e+00 1.750217013945125633e+00 1.263138329706908536e+00 1.163814376201665501e+00 8.265864272505462074e-01 5.198128071763827851e-01 2.376626055576494811e-01 2.376626055576494811e-01 6.087348736319599107e-02 -1.913695888097365350e-01 -5.454014969124900691e-01 -6.286074167692827785e-01 -1.216624759806713918e+00 -1.865427329648611687e+00 -2.169094873409796342e+00 -2.176111174608967413e+00 -2.332345944855562792e+00 -2.558557795210500085e+00 -2.595494250682351289e+00 -2.595494250682351289e+00 -2.476311428202170095e+00 -2.420410874976548055e+00 -2.459439613454559304e+00 -2.503096791272770183e+00 -2.563554891356356169e+00 -2.582552770614597204e+00 -2.437978975767858714e+00 -2.454841501867566222e+00 -2.475998946826414304e+00 -2.857815456335627058e+00 -3.400097853002946202e+00 -3.400097853002946202e+00 -3.940748070824840354e+00 -4.409148575598977438e+00 -4.409148575598977438e+00 -4.851460647153076344e+00 -5.185593276802899609e+00 -5.441600382900686483e+00 -5.560189326374008978e+00 -5.895477553613656774e+00 -6.122334226797540246e+00 -6.421313972609942411e+00 -6.493028799110695637e+00 -6.807996061461209614e+00 -7.030047428825544564e+00
1.956279941068981731e+00 1.899079382298350938e+00 1.899079382298350938e+00 1.519529888926286487e+00 1.276396375226765745e+00 1.142621010973827955e+00 1.062737150543590525e+00 7.419435605214450558e-01 5.122769094890887720e-01 3.794841348352692711e-01 1.156875972159245314e-01 -2.154430496218197322e-02 -3.709657093323185384e-01 -4.021350578255237784e-01 -6.327231636808003934e-01 -6.672403563528012116e-01 -8.219823779543534714e-01 -8.219823779543534714e-01 -1.046603340172020724e+00 -4.643346046221502599e-01 -6.087191423854459993e-01 2.031616676589183546e-01 1.996088183584925790e+00 2.223880631687583431e+00 2.941386927831634246e+00 3.687522059433546495e+00 4.085296697512900366e+00 5.070552896291206757e+00 5.648778076762029698e+00 5.648778076762029698e+00 6.019526496987387176e+00 6.464502721831386189e+00 6.137634815384910070e+00 6.355077638678725549e+00 6.318865482898223362e+00 5.956939626993078107e+00 5.517350901214907566e+00 5.449455240697568925e+00 5.318152779161705368e+00 4.959593358505688165e+00 4.732138982570316621e+00 4.732138982570316621e+00 4.457524362636488213e+00 4.196967766753304296e+00 4.196967766753304296e+00 3.872110787651011243e+00 3.597762738459838516e+00 3.481330155316614494e+00 3.393400231328997485e+00 3.201093980644722059e+00 3.288085231714727996e+00 3.333138776507767354e+00 3.238962673637804102e+00 3.195859327353587798e+00 3.203691759408971329e+00 3.299966725805674628e+00 3.299966725805674628e+00 3.217017717025544954e+00 3.154136766640829315e+00 3.123824730088676560e+00 3.167657636024701961e+00 3.197902626477452603e+00 3.117732424479858544e+00 3.053695991156225809e+00 3.092653032188348305e+00 3.121408841081661834e+00 3.157877857536333988e+00 3.176756213145872199e+00 3.176756213145872199e+00 3.168788164789372086e+00 2.700647319001990621e+00 2.227181407355019349e+00 2.149531861518994891e+00 1.564725072507147097e+00 1.163814376201665501e+00 7.616217786185549565e-01 6.990461382927157796e-01 4.583635659813430907e-01 2.030273204305851342e-01 1.810146925084495095e-01 2.452036514900808248e-02 -2.324834011666778444e-01 -6.927748102510206119e-01 -7.815619193851102153e-01 -1.274747024954746788e+00 -1.905106584284810278e+00 -2.147970580952375919e+00 -2.147970580952375919e+00 -2.407089129855882970e+00 -2.479396409814934810e+00 -2.490372093521913133e+00 -2.440860951402090251e+00 -2.333657414910184080e+00 -2.382653114273295181e+00 -2.487202151932560223e+00 -2.488538065470927041e+00 -2.542346459049207752e+00 -2.490782176189478836e+00 -2.458648694690742875e+00 -2.458648694690742875e+00 -2.665680601976186725e+00 -3.012761105995971356e+00 -3.468283834000678301e+00 -3.588203130519181272e+00 -4.097293338588576361e+00 -4.488844599432820992e+00 -4.912789356674608143e+00 -5.063798080973437976e+00 -5.303190497977160689e+00 -5.675076695999721643e+00 -6.001290399577914769e+00 -6.001290399577914769e+00 -6.321459864500541315e+00 -6.647248143798671016e+00 -6.807996061461209614e+00 -6.933516334778515144e+00
1.977056322748479422e+00 1.912431525605449822e+00 1.632534082743648529e+00 1.519305891605473580e+00 1.409961297007392700e+00 1.130804583677455843e+00 9.428282294968740596e-01 9.428282294968740596e-01 5.930883170785948844e-01 2.692987047313025739e-01 1.156875972159245314e-01 5.337750296431037489e-02 -1.925866039736743307e-01 -4.021350578255237784e-01 -5.441738673684473060e-01 -4.268561153637900896e-01 -5.778960349238693173e-01 -7.649418653058183137e-01 -4.356130688858044220e-01 -4.395016482028100135e-01 2.710358912247263774e-01 1.128065794301351010e+00 1.128065794301351010e+00 2.223263777930936325e+00 3.212963567202604676e+00 3.687522059433546495e+00 4.399868933734659926e+00 5.277818633005892934e+00 5.497133245035677795e+00 5.974932069727741712e+00 6.284433046883119545e+00 6.359750727813888282e+00 6.374009693011190691e+00 6.399430793426346575e+00 6.399430793426346575e+00 6.151269761627517596e+00 5.643067168873152184e+00 5.449455240697568925e+00 5.378362462555379864e+00 5.070069321440156429e+00 4.883604191148865681e+00 4.678611897630203131e+00 4.541734644524099807e+00 4.366940271155905329e+00 4.110650847490997961e+00 3.779213400348264251e+00 3.779213400348264251e+00 3.509321582159900643e+00 3.342372606820169345e+00 3.201093980644722059e+00 3.260403069300521928e+00 3.253040396053971328e+00 3.130467000750218887e+00 3.151439764179655434e+00 3.198607135451392747e+00 3.224366259176047578e+00 3.191894101505172721e+00 3.147253805794117731e+00 3.129072030441245822e+00 3.121115501680517657e+00 3.178813234910753849e+00 3.164181295860499787e+00 3.147444294195109737e+00 3.097629594931188279e+00 3.110207579905988506e+00 3.110207579905988506e+00 3.100485221826417170e+00 3.127613476594202080e+00 3.186431693679049104e+00 3.194930281288379526e+00 2.980405578226973606e+00 2.646859005594659031e+00 2.087329134715230960e+00 1.950096979415756326e+00 1.476949262555586673e+00 1.002906133614281936e+00 6.498930368067206143e-01 6.498930368067206143e-01 3.617442873439107864e-01 1.349701249192870323e-01 -7.009924264652837855e-02 -1.112130550034696186e-01 -2.898207815899131456e-01 -7.815619193851102153e-01 -1.398401720218112931e+00 -1.595749108141431449e+00 -1.942260822233136341e+00 -2.194723151379739168e+00 -2.391705663017254402e+00 -2.391705663017254402e+00 -2.417542493510297597e+00 -2.379254429166416163e+00 -2.379254429166416163e+00 -2.307211794832224161e+00 -2.394338313102996274e+00 -2.488538065470927041e+00 -2.508057623365803401e+00 -2.541276122160313733e+00 -2.512805484657307353e+00 -2.600659419392054250e+00 -2.484226509090668777e+00 -2.630522563097999367e+00 -3.095114309264503483e+00 -3.703408643824735336e+00 -3.703408643824735336e+00 -4.203942824561369918e+00 -4.755792551197235873e+00 -5.063798080973437976e+00 -5.167212748870595895e+00 -5.504921504659834319e+00 -5.766518468728161650e+00 -6.080398656504323540e+00 -6.228756686439363754e+00 -6.366965225564733544e+00 -6.754183524765911883e+00 -7.067453507396463941e+00
2.149787611970666035e+00 1.953748719711503767e+00 1.643141583932239636e+00 1.519305891605473580e+00 1.390184469231698250e+00 1.127980708191521408e+00 1.077667588349557670e+00 8.357783384831178886e-01 6.631736636433543941e-01 4.575856367589610230e-01 1.929809514310694141e-01 -2.229852588891377552e-03 -2.229852588891377552e-03 -3.062021717932053577e-01 -3.052336630097388093e-01 -4.268561153637900896e-01 -3.067594506381155495e-01 -2.581771883110322019e-01 -4.356130688858044220e-01 -9.967725220055390078e-02 3.237657589548771919e-01 1.169464464803821269e+00 1.659267686541202824e+00 2.758211246990386556e+00 3.559259139273980743e+00 3.933970894609427837e+00 4.978045670473820294e+00 5.737021741786616502e+00 5.737021741786616502e+00 6.250775167746714267e+00 6.594938835151087808e+00 6.594938835151087808e+00 6.585084321261979845e+00 6.526519516394095000e+00 6.307761054360931041e+00 6.278040090557621689e+00 5.823058274222828956e+00 5.587727916495230929e+00 5.302226142930188679e+00 5.172978368916663072e+00 4.975710543821667997e+00 4.758319614349519888e+00 4.431556430032951965e+00 4.431556430032951965e+00 4.170241920301222649e+00 3.832718619901794632e+00 3.650696644124394652e+00 3.531186944749826306e+00 3.367810301105499171e+00 3.217882862438441460e+00 3.273806569298405744e+00 3.197983439307874320e+00 3.159857138104821939e+00 3.125453391804041914e+00 3.191964003265570948e+00 3.191964003265570948e+00 3.120851054111112521e+00 3.099112082902388821e+00 3.129072030441245822e+00 3.125900170655407706e+00 3.172059174264095116e+00 3.164181295860499787e+00 3.151097971246850094e+00 3.123887519907535992e+00 3.102168330831849730e+00 3.093898179030789564e+00 3.039691380452497427e+00 3.060526214871057693e+00 3.145612121279155460e+00 3.186540648025876443e+00 3.186540648025876443e+00 3.066536603834300934e+00 2.535532564018806667e+00 1.950096979415756326e+00 1.820095165053246422e+00 1.272315830332672704e+00 9.219696156471729465e-01 5.820424900125550360e-01 5.191690259828245502e-01 3.045288479158406725e-01 5.117110351667986112e-02 -1.456367508604647365e-01 -1.456367508604647365e-01 -4.216330972246754571e-01 -1.088391773109322669e+00 -1.595749108141431449e+00 -1.701359225928784191e+00 -2.032567838055768128e+00 -2.248667878621017024e+00 -2.362577139319144148e+00 -2.355430738752954500e+00 -2.398954725783092101e+00 -2.312749561521191044e+00 -2.265088661521150293e+00 -2.265088661521150293e+00 -2.416139064309613005e+00 -2.523856330437628248e+00 -2.541276122160313733e+00 -2.567277245908288208e+00 -2.532830568669101723e+00 -2.484226509090668777e+00 -2.669967217069505239e+00 -2.721340764001119794e+00 -3.210542415007429540e+00 -3.793383619800105411e+00 -3.890306992777245565e+00 -4.295351478448797167e+00 -4.920700075207427027e+00 -5.289798482841469252e+00 -5.289798482841469252e+00 -5.620919680317718381e+00 -5.994626913928878587e+00 -6.228756686439363754e+00 -6.250080733562880297e+00 -6.700774287443476140e+00 -6.836988712975928806e+00
2.040265557969742183e+00 1.844568332795835541e+00 1.685459363745140937e+00 1.540718070598702027e+00 1.262744012586636488e+00 1.113818843449133844e+00 1.016759641144351578e+00 8.270199518386878168e-01 5.666112106919268809e-01 5.666112106919268809e-01 2.796370248679961867e-01 8.139293939057659633e-02 -9.774192379458848667e-02 -1.862728116085519692e-01 -1.698019236737856041e-01 -1.839835879013044240e-01 -1.012654217760711600e-01 1.788127602078953549e-01 1.540078344659794873e-01 5.227923393514537498e-01 1.077966023732897849e+00 1.077966023732897849e+00 1.987494802107621528e+00 3.066928799937859829e+00 3.559259139273980743e+00 4.332184744303281931e+00 5.250974824594022650e+00 5.463874597867754979e+00 6.127007467494051340e+00 6.520406351885435825e+00 6.554320072850130074e+00 6.821746383303604944e+00 6.646334684955218286e+00 6.646334684955218286e+00 6.476305581009724754e+00 6.087924973959320418e+00 5.823058274222828956e+00 5.724772023976724356e+00 5.409879369466767507e+00 5.172978368916663072e+00 4.914062710064341033e+00 4.812293962225186128e+00 4.624064457652702131e+00 4.316944729854401253e+00 4.213809967536307433e+00 3.992608007877947784e+00 3.690886950885499118e+00 3.475287518672344866e+00 3.475287518672344866e+00 3.246763439494169123e+00 3.235608373714941699e+00 3.197983439307874320e+00 3.077834318176229100e+00 3.108334370674344260e+00 3.194049829186191847e+00 3.143618165234151718e+00 3.049470078736113976e+00 3.057033270972881578e+00 3.101357995735610107e+00 3.144338949675247186e+00 3.144338949675247186e+00 3.132486236681430558e+00 3.186928982732564197e+00 3.123887519907535992e+00 3.123574015406758164e+00 3.076135035637284965e+00 3.039691380452497427e+00 3.065191415849465084e+00 3.097193128958972252e+00 3.223443250768106338e+00 3.295600490661734217e+00 3.131520151562070975e+00 3.131520151562070975e+00 2.361498561707757293e+00 1.687073372081403511e+00 1.272315830332672704e+00 1.172092597535067560e+00 7.783349721686003697e-01 5.191690259828245502e-01 4.440754514617666904e-01 1.673385145082849357e-01 4.296050955204022692e-03 -1.205385670470220105e-01 -2.264543666192345706e-01 -5.692567556554438690e-01 -1.291701691867781499e+00 -1.673278870607304736e+00 -1.673278870607304736e+00 -2.097506899610656284e+00 -2.240510463407042518e+00 -2.355430738752954500e+00 -2.348326197609563071e+00 -2.328377393032492915e+00 -2.237457300998278775e+00 -2.302831160403891353e+00 -2.356358846678804575e+00 -2.474308682820251626e+00 -2.588917599473126607e+00 -2.582260365284465564e+00 -2.582260365284465564e+00 -2.407095868747704426e+00 -2.617428747769396491e+00 -2.721340764001119794e+00 -2.890200271557898493e+00 -3.495453698401143505e+00 -3.890306992777245565e+00 -4.497238659040105446e+00 -4.666756674746087796e+00 -4.995389326986638956e+00 -5.363075103690292167e+00 -5.633062678482443353e+00 -5.633062678482443353e+00 -6.104491790750179447e+00 -6.442309228551710731e+00 -6.442309228551710731e+00 -6.736237935312692215e+00
2.071733727619392784e+00 1.901094626325926074e+00 1.685459363745140937e+00 1.559955664814119070e+00 1.263197792750066828e+00 1.113818843449133844e+00 8.978040202229158329e-01 7.379329132234291322e-01 6.878061886382321743e-01 4.679323197715243854e-01 2.112578916485843838e-01 2.112578916485843838e-01 -2.897243615502552438e-03 -1.470062302554591138e-01 -1.698019236737856041e-01 -2.340241645799339895e-02 1.569766314075761171e-01 1.788127602078953549e-01 4.655799640991450383e-01 1.608775678196607162e+00 1.159361340301237497e+00 1.855826228110181830e+00 2.348220230153137855e+00 2.660699549635678007e+00 3.906196054815596064e+00 5.007637637485014892e+00 5.007637637485014892e+00 5.662876153275547608e+00 6.372920326484321052e+00 6.520406351885435825e+00 6.819926891589473072e+00 6.979397730117446130e+00 6.826258787402886163e+00 6.617532628838384667e+00 6.611099628459084165e+00 6.350922377060460811e+00 5.985742978530684155e+00 5.538634291993556502e+00 5.538634291993556502e+00 5.281440793067451622e+00 5.025053083925159925e+00 4.812293962225186128e+00 4.721644911485276985e+00 4.380792417355123369e+00 4.213809967536307433e+00 3.884899270774518243e+00 3.781514373917947758e+00 3.562696864086061677e+00 3.386772439228934228e+00 3.213870691794626033e+00 3.213870691794626033e+00 3.161877696373486035e+00 3.024421862689236740e+00 3.024421862689236740e+00 3.173289979800780536e+00 3.090996886886459460e+00 3.049470078736113976e+00 3.016701665016445766e+00 3.091824673960635206e+00 3.119695726811716696e+00 3.162787068949535652e+00 3.101296602592086948e+00 3.146001364735617756e+00 3.142281911040829545e+00 3.148006403112214802e+00 3.148006403112214802e+00 3.036030534850714613e+00 3.030467624688442996e+00 3.097193128958972252e+00 3.192971540234522010e+00 3.311505952600068525e+00 3.378683870569166192e+00 2.908316767962632721e+00 2.663280759923452479e+00 2.155601917054141836e+00 1.567128459492235670e+00 1.092879566665251101e+00 1.092879566665251101e+00 6.967372326807457217e-01 3.818550112395953100e-01 1.673385145082849357e-01 1.285949916263064985e-01 -4.632043222463914228e-02 -2.264543666192345706e-01 -7.324163984187325172e-01 -8.565854400684285164e-01 -1.265365316552925945e+00 -1.743573531080643502e+00 -2.111086557613111925e+00 -2.111086557613111925e+00 -2.258262244249765516e+00 -2.332867794564121855e+00 -2.303189895692641098e+00 -2.262953405523028927e+00 -2.289112335762949257e+00 -2.402513126262801446e+00 -2.402513126262801446e+00 -2.521358016863228357e+00 -2.609768646483796140e+00 -2.560169868984886410e+00 -2.517211606648185551e+00 -2.976940309050470468e+00 -3.024592787775724823e+00 -3.033216377177810674e+00 -3.230026368551965898e+00 -3.664138733929292790e+00 -4.229989919397571185e+00 -4.761894377223615749e+00 -4.761894377223615749e+00 -5.234281129282625677e+00 -5.495695059598151744e+00 -5.842919576322104902e+00 -5.967633793647611817e+00 -6.320040197290422768e+00 -6.572462319757731208e+00 -6.851374131612853802e+00
2.037528159262806948e+00 1.981494647705152934e+00 1.709664119976225916e+00 1.390270771522952087e+00 1.390270771522952087e+00 1.067779170719825643e+00 8.800377517665660676e-01 7.379329132234291322e-01 7.100730226309965865e-01 5.338372904712626044e-01 3.693328452675815332e-01 1.644002517869461999e-01 1.981730608200616972e-01 -3.192116103003254240e-02 5.289772831967839983e-02 2.837020676746382919e-01 2.837020676746382919e-01 3.510001382251047852e-01 1.048062647294877969e+00 1.608775678196607162e+00 2.087563631384161678e+00 2.460922632863121073e+00 2.348220230153137855e+00 3.542031528815508423e+00 4.317815781152421373e+00 4.683020326994529192e+00 5.527117117665584445e+00 6.159533467408774499e+00 6.159533467408774499e+00 6.718070145579841501e+00 6.987318549982054705e+00 6.987318549982054705e+00 6.950740518183438965e+00 6.746372189329932212e+00 6.611099628459084165e+00 6.456768866091206149e+00 6.122188503272531612e+00 5.867815436593186718e+00 5.534986981901379721e+00 5.387476176792600491e+00 5.196041754296740756e+00 4.888747724245708248e+00 4.591518514261196060e+00 4.591518514261196060e+00 4.304038348403368630e+00 4.015866637182218923e+00 3.781514373917947758e+00 3.723555320129193547e+00 3.483413164672466422e+00 3.297725472248209666e+00 3.234667873798281246e+00 3.205154179358976396e+00 3.080648853198119763e+00 3.064225245754388816e+00 3.135009928193442708e+00 3.135009928193442708e+00 3.064085111364524661e+00 3.036683605944771713e+00 3.091824673960635206e+00 3.083601823023908395e+00 3.126880151567703159e+00 3.122455585477407425e+00 3.190774576217185299e+00 3.143338313224592895e+00 3.191416357926496694e+00 3.115475161295383710e+00 3.065905637117571914e+00 3.016617658748694808e+00 3.060855441759095186e+00 3.210519975643764568e+00 3.210564318797614725e+00 3.276560584809652177e+00 3.028856891129914963e+00 2.474254151960947112e+00 2.474254151960947112e+00 1.870896670513928939e+00 1.356815219523671123e+00 1.002915243999899397e+00 9.018377713637065751e-01 5.365762998447972665e-01 3.105512853572936494e-01 1.180707836504504282e-01 5.068346937680110603e-02 -9.919485740402886331e-02 -3.234648314876909514e-01 -9.083072720977581893e-01 -9.083072720977581893e-01 -1.503289284349124344e+00 -1.965735872269150475e+00 -2.133751067782609478e+00 -2.162872936236788224e+00 -2.279878698556993655e+00 -2.303189895692641098e+00 -2.315138124262090535e+00 -2.280309735320212194e+00 -2.305956464568900799e+00 -2.416857109978807649e+00 -2.527402304948144884e+00 -2.527402304948144884e+00 -2.627113677393167368e+00 -2.742024328472560057e+00 -2.742024328472560057e+00 -3.406981647133616065e+00 -2.755782920990552221e+00 -3.230026368551965898e+00 -3.415555962620456132e+00 -3.974123520370412166e+00 -4.399252583181306520e+00 -4.831194374596265995e+00 -5.029103024143791956e+00 -5.290791324142954721e+00 -5.644209710625958998e+00 -6.057360064757813412e+00 -6.057360064757813412e+00 -6.444150352071986276e+00 -6.759890339749801136e+00
2.037528159262806948e+00 1.820366767749598047e+00 1.700424488010574553e+00 1.566932319229963344e+00 1.177781640903969418e+00 9.652925102849868599e-01 9.063978362107801834e-01 8.500704842825166363e-01 6.912831948166235918e-01 6.912831948166235918e-01 5.883805640400369130e-01 4.512265295870332427e-01 1.981730608200616972e-01 3.227650862752174388e-01 3.868996865301932986e-01 2.625723432967145277e-01 4.190565147849784067e-01 7.547533778041544128e-01 9.816994986768576847e-01 1.959463208335371798e+00 2.475118915082512139e+00 2.475118915082512139e+00 2.950271524468239370e+00 3.915668299266608976e+00 4.317815781152421373e+00 4.919731583843119260e+00 5.707300230021719045e+00 5.890942553418364369e+00 6.546321846098333452e+00 6.862012277918607239e+00 7.089216803584625026e+00 7.063930129905186206e+00 6.919504931478055454e+00 6.885373114433161135e+00 6.724238081823837199e+00 6.380446337638590037e+00 6.042609766540412153e+00 6.042609766540412153e+00 5.712289107168717628e+00 5.252511480884347606e+00 5.252511480884347606e+00 4.984498902355677608e+00 4.680107657610149019e+00 4.474131149419717346e+00 4.425934684189997803e+00 4.149651541495113172e+00 3.945536733439491961e+00 3.681534887186901805e+00 3.584914735044597123e+00 3.377534945663097865e+00 3.261593564062798212e+00 3.131456050671768132e+00 3.131456050671768132e+00 3.030905634071644261e+00 3.080803011261834534e+00 3.073323037548925996e+00 3.081804858798602886e+00 3.033822450558478323e+00 3.101210003610884947e+00 3.060552410044352190e+00 3.081479886738836438e+00 3.070486716553521678e+00 3.169535053966512805e+00 3.196445063165104461e+00 3.196445063165104461e+00 3.176123836118053045e+00 3.023613069601514880e+00 3.016617658748694808e+00 3.034045519468994812e+00 3.129676305991840213e+00 3.210564318797614725e+00 3.237724861658842546e+00 3.119761658661517778e+00 2.931965354056749185e+00 2.314169729455515245e+00 1.726264067811855263e+00 1.726264067811855263e+00 1.234450005334649214e+00 7.867318692572897731e-01 7.867318692572897731e-01 4.540344219668588366e-01 2.055949990244844983e-01 5.068346937680110603e-02 -1.572274196078959213e-02 -2.077945735905440683e-01 -4.767929427964516242e-01 -1.085656154857681965e+00 -1.268952298755125829e+00 -1.694070151665467927e+00 -2.004913764229766748e+00 -2.172636241194131568e+00 -2.172636241194131568e+00 -2.279501626895033439e+00 -2.371401381062038016e+00 -2.280309735320212194e+00 -2.281365916809645178e+00 -2.349117198721510924e+00 -2.454935817456733282e+00 -2.585712184023718052e+00 -2.675930531314610228e+00 -2.592734614088483269e+00 -2.622523208269625261e+00 -2.962786025280870650e+00 -2.962786025280870650e+00 -2.898877703942328132e+00 -3.579707826306438356e+00 -3.974123520370412166e+00 -4.130938175559367487e+00 -4.615057670546469204e+00 -5.029103024143791956e+00 -5.390391931798060199e+00 -5.538945080201261639e+00 -5.830726798298790925e+00 -6.191143248406728361e+00 -6.344095438803076803e+00 -6.531883119499504176e+00
2.018256274552048701e+00 1.814577213843440395e+00 1.571412360805943598e+00 1.571412360805943598e+00 1.212638436034560785e+00 8.926222952043681991e-01 8.709605382956512321e-01 8.995424469335046025e-01 9.134143441131965524e-01 7.671105603325064637e-01 6.490916799132132597e-01 7.348347294302521870e-01 5.256410307628662792e-01 4.772704230206909481e-01 6.131879346191491109e-01 6.131879346191491109e-01 6.797536659406624437e-01 1.342233797680019158e+00 1.342233797680019158e+00 1.998439550055374658e+00 2.591112374093355708e+00 2.862674198780863044e+00 3.604569081746112680e+00 4.452337729330928084e+00 4.648097402147296719e+00 5.500428406645665014e+00 5.911784516302470927e+00 6.121749983825208297e+00 6.722718766201930762e+00 7.040642570909767528e+00 7.040642570909767528e+00 7.141216433479991466e+00 7.021627654504333016e+00 6.885373114433161135e+00 6.823638665509236034e+00 6.503776117190778194e+00 6.277480458302119537e+00 5.967766324421509339e+00 5.876076057019093746e+00 5.492740166938017587e+00 5.205826391775006279e+00 4.915345423420199644e+00 4.915345423420199644e+00 4.567469881484312211e+00 4.405250918350348321e+00 4.149651541495113172e+00 4.118519387188997349e+00 3.798784659128563668e+00 3.584914735044597123e+00 3.332476733015033332e+00 3.289054216886988513e+00 3.230520305671550574e+00 3.133276042190270338e+00 3.047430158830993552e+00 3.046908143452475848e+00 3.058275246397953673e+00 3.074143459597652228e+00 3.074143459597652228e+00 3.110595333261134243e+00 3.009764014715272218e+00 3.081479886738836438e+00 3.034223467672935826e+00 3.122845452588616233e+00 3.151836593180912693e+00 3.226971742715482261e+00 3.221820458985813040e+00 3.095350123849046398e+00 3.015922807925760729e+00 3.058920932220022593e+00 3.058920932220022593e+00 3.110377415394353751e+00 3.144556836776030817e+00 3.119761658661517778e+00 3.169210819020030101e+00 2.630411140917571000e+00 2.174664881535620875e+00 1.619454124247426741e+00 1.478740502655936595e+00 1.106938310046667651e+00 6.917432311951432489e-01 3.875970577526131056e-01 3.875970577526131056e-01 1.310166595079387264e-01 -7.858786431423875340e-02 -2.077945735905440683e-01 -2.890423001202302444e-01 -7.566722937083366629e-01 -1.268952298755125829e+00 -1.411863798280918569e+00 -1.760283538427352079e+00 -2.068635854526915452e+00 -2.215478587514621900e+00 -2.239360702793501190e+00 -2.336439939856501447e+00 -2.299221139944858106e+00 -2.277465555259273078e+00 -2.277465555259273078e+00 -2.393601404473352012e+00 -2.544158350930743495e+00 -2.675930531314610228e+00 -2.611389092840612935e+00 -2.485300899446050593e+00 -2.461067998085341824e+00 -2.527924415180614837e+00 -2.719801152558016355e+00 -3.060387217160114304e+00 -3.718517879132778869e+00 -4.233840308334007929e+00 -4.233840308334007929e+00 -4.835824401900620018e+00 -5.271093400134905238e+00 -5.538945080201261639e+00 -5.694804276975431456e+00 -6.092785604745540873e+00 -6.344095438803076803e+00 -6.731027177716415011e+00
2.051143714161346221e+00 1.884699766780178587e+00 1.691184856044922968e+00 1.405455310903910071e+00 1.321928036319566679e+00 1.080587023368379196e+00 9.837457217545547694e-01 9.628618840765411635e-01 9.628618840765411635e-01 9.892417096290794243e-01 9.165102138691483269e-01 7.348347294302521870e-01 8.532026974871542713e-01 8.565322686878031888e-01 7.397723331741649089e-01 8.921960117001372925e-01 1.939196255150467563e+00 1.423982104739332399e+00 1.947373606092669629e+00 2.306942337857253111e+00 2.306942337857253111e+00 3.398472477116192270e+00 4.551470120321441826e+00 4.452337729330928084e+00 5.159675757892460801e+00 5.750293341624883148e+00 5.911784516302470927e+00 6.310832776261090515e+00 6.860491804193925347e+00 7.039123797022314832e+00 7.210193458685827395e+00 7.154282297985230521e+00 7.042806479609816428e+00 7.042069266028382124e+00 6.716356083626529916e+00 6.716356083626529916e+00 6.435660611938180509e+00 6.195449205288687367e+00 5.876076057019093746e+00 5.590052569817652639e+00 5.271393033524812921e+00 5.092910625723753526e+00 4.786039529595369935e+00 4.658518540436123345e+00 4.550466320794203767e+00 4.281446866178233890e+00 4.046644435832161157e+00 4.046644435832161157e+00 3.682119669381227922e+00 3.404482764694940933e+00 3.289054216886988513e+00 3.278650863663772341e+00 3.159360870088460338e+00 3.047430158830993552e+00 3.025889154014857141e+00 3.064046727583455088e+00 3.095246582925756051e+00 3.050175979904480528e+00 2.988187613442404800e+00 2.988187613442404800e+00 3.039513001685200777e+00 3.042841871687890443e+00 3.122845452588616233e+00 3.136271564532120415e+00 3.184014511572059281e+00 3.221820458985813040e+00 3.087968205835753821e+00 2.998989749387393822e+00 3.012277105387088039e+00 3.044174451126065772e+00 3.020181292840855569e+00 3.086484681025035037e+00 3.150150051924841765e+00 3.001228784815052730e+00 3.001228784815052730e+00 2.489309744739958141e+00 1.929540977721492911e+00 1.478740502655936595e+00 1.361066381170893180e+00 8.928483835528466805e-01 6.094843894994470546e-01 3.142021718663556284e-01 2.496874614170565554e-01 7.388755613160723212e-02 -1.294510516442843873e-01 -3.275045768800389223e-01 -3.275045768800389223e-01 -9.258481986031353861e-01 -1.425410520154459348e+00 -1.760283538427352079e+00 -1.965927350962018760e+00 -2.166134514327473504e+00 -2.239360702793501190e+00 -2.352155532890934708e+00 -2.307904294684775870e+00 -2.301309973376535201e+00 -2.294977162449257424e+00 -2.421319529299577056e+00 -2.421319529299577056e+00 -2.604210482327629084e+00 -2.621258200818548545e+00 -2.621258200818548545e+00 -2.510729373347955651e+00 -2.513495954735586846e+00 -2.813247159678588183e+00 -2.813247159678588183e+00 -3.420893437730010422e+00 -3.997962069310468713e+00 -4.410232356210261884e+00 -4.654550717026998186e+00 -5.178055688550701419e+00 -5.417161871152305075e+00 -5.917448454473871244e+00 -6.017559199617954491e+00 -6.298753472629278427e+00 -6.713235099592942845e+00
1.978916938048942420e+00 1.884699766780178587e+00 1.759110104327363588e+00 1.435166098692781889e+00 1.321928036319566679e+00 1.024763221278281566e+00 7.569933220985105571e-01 9.381100473173750176e-01 1.037421500795157714e+00 1.119303578991833970e+00 1.063726530005197235e+00 1.021299012696660347e+00 1.039674376504378772e+00 1.039674376504378772e+00 1.152735850691827046e+00 1.909970939383696997e+00 1.939196255150467563e+00 2.042201808204293645e+00 2.460567731147213166e+00 2.353203025528344039e+00 3.241399546344947424e+00 4.007545856295917197e+00 4.318638284143286654e+00 5.072957957429304443e+00 5.551369856939929903e+00 5.551369856939929903e+00 6.007249088386863889e+00 6.612578741966234297e+00 6.860491804193925347e+00 6.919023063707058441e+00 7.101143066996094433e+00 7.154282297985230521e+00 7.050632307479205885e+00 6.964448129670314458e+00 6.845715753988573127e+00 6.548234540150432714e+00 6.270721810543031793e+00 6.270721810543031793e+00 5.985615499595030364e+00 5.432159786209705743e+00 5.432159786209705743e+00 5.155717819075145592e+00 4.888016896163092539e+00 4.658518540436123345e+00 4.586123044123548098e+00 4.352813356162798186e+00 4.181549504629547442e+00 3.858274698653608947e+00 3.755104659833291336e+00 3.583478086755241154e+00 3.388659891669552948e+00 3.264153540383376129e+00 3.264153540383376129e+00 3.115010597006312221e+00 3.049551095618444396e+00 3.064046727583455088e+00 3.090621830191151886e+00 3.023842918645498923e+00 3.102109608439517885e+00 3.000444904922867195e+00 3.024313871480043048e+00 2.999808554287002771e+00 3.034822988123766496e+00 3.069919375023594466e+00 3.069919375023594466e+00 3.141609173648658437e+00 3.037090113091856391e+00 2.998989749387393822e+00 3.004829538804318911e+00 2.965846369657360704e+00 3.020181292840855569e+00 3.098315848132391359e+00 3.108914818233365018e+00 3.101210764950004251e+00 2.852620767110394695e+00 2.809124425081666043e+00 2.277707869313944755e+00 1.793429450616290222e+00 1.246066732372841823e+00 1.119704608573662385e+00 7.899319680257061993e-01 4.514034291679761002e-01 1.848501716161073949e-01 1.848501716161073949e-01 -4.972312558361060425e-02 -3.030563231933947610e-01 -5.453902488587589747e-01 -7.097746270310634209e-01 -1.264650169491150056e+00 -1.623273329439872015e+00 -2.049435091178560597e+00 -2.114881629171226685e+00 -2.197552141615463306e+00 -2.312421102373170889e+00 -2.326807785455674349e+00 -2.326807785455674349e+00 -2.249749356103150522e+00 -2.347031848804606025e+00 -2.469923868275410328e+00 -2.527292370594676818e+00 -2.609280089794371094e+00 -2.580798116773728168e+00 -2.480171537197470855e+00 -2.524115672156501233e+00 -2.593604783540864656e+00 -2.972486661577023348e+00 -3.547534621952262768e+00 -3.547534621952262768e+00 -4.204983179927438641e+00 -4.853923525178196030e+00 -5.178055688550701419e+00 -5.277090252817578708e+00 -5.817299370504144918e+00 -6.017559199617954491e+00 -6.253411506455480051e+00 -6.687851053450094341e+00
2.137105683379466825e+00 1.895539085005211843e+00 1.587080980361579075e+00 1.587080980361579075e+00 1.217584819255854933e+00 7.368215934718715943e-01 7.569933220985105571e-01 6.802098693292364384e-01 1.000368272356712662e+00 1.119303578991833970e+00 1.127265713381742973e+00 1.375585815487033958e+00 1.197069825216018790e+00 1.265770882622175408e+00 1.588814962507554718e+00 1.650264127713145346e+00 2.020721622410148299e+00 2.665829837875938413e+00 2.665829837875938413e+00 3.215452118150759375e+00 3.970085511148925050e+00 4.007545856295917197e+00 4.599098889279574109e+00 5.255971593113583751e+00 5.397287283091481314e+00 5.824603434616887121e+00 6.048533408801521460e+00 6.251530892108674742e+00 6.718912002986677123e+00 6.932458307058871227e+00 6.932458307058871227e+00 7.020127464303918430e+00 6.954036443796726807e+00 6.964448129670314458e+00 6.759829500836652016e+00 6.510236725823194348e+00 6.389361040443914064e+00 6.130203781820624087e+00 5.990884772912062672e+00 5.642747081070832671e+00 5.311637113788269637e+00 4.992094256022481247e+00 4.936896242237377663e+00 4.746267872653216813e+00 4.506204201517443941e+00 4.197762849335937574e+00 4.197762849335937574e+00 3.917596932761730599e+00 3.689872903558456763e+00 3.490042791752216988e+00 3.515404186720724411e+00 3.354504643182776746e+00 3.212842515930808052e+00 3.180355422097695062e+00 3.073644282302477215e+00 3.081835471837541807e+00 3.049373250910286437e+00 3.002434005504532877e+00 3.065905076460563983e+00 3.004908436232495816e+00 2.996000116164424298e+00 2.996000116164424298e+00 2.950542874161403706e+00 3.001265842370925974e+00 3.072428909047489221e+00 3.039244755595174485e+00 3.019915360656234782e+00 2.989397718348419275e+00 2.960023499761723631e+00 2.896571569770570065e+00 2.930833214896270800e+00 3.053868579092003266e+00 3.120600879636266090e+00 3.120600879636266090e+00 3.017337804173600091e+00 2.765128491050008464e+00 2.277707869313944755e+00 2.123418456577751190e+00 1.507951418290017997e+00 1.119704608573662385e+00 6.935744106572707679e-01 5.924251370921345128e-01 3.756005323850850064e-01 9.659159810880765806e-02 -1.145898545316487577e-01 -1.145898545316487577e-01 -3.184417905331659027e-01 -8.831119743113208242e-01 -8.831119743113208242e-01 -1.515128633897892430e+00 -1.984807141003936071e+00 -2.114881629171226685e+00 -2.155743580437425866e+00 -2.267631183350074409e+00 -2.316587449424693190e+00 -2.285475308247489235e+00 -2.242692340849528065e+00 -2.288990916016204302e+00 -2.396162570163595795e+00 -2.553616734068712368e+00 -2.553616734068712368e+00 -2.617117055557448779e+00 -2.554691148876702567e+00 -2.524115672156501233e+00 -2.495555937917182110e+00 -2.727379865315233687e+00 -3.103323287178730627e+00 -3.752250972041706323e+00 -3.985749133874637806e+00 -4.421538345642601620e+00 -5.024920902916459653e+00 -5.473494283253817372e+00 -5.473494283253817372e+00 -5.980771538309152646e+00 -6.456592931433667637e+00 -6.687851053450094341e+00
2.083049595618180483e+00 1.894513239565663421e+00 1.812907764928244125e+00 1.419151968936263497e+00 1.178942408459674240e+00 9.580591942946248274e-01 5.778885048957668191e-01 7.889448778838974441e-01 7.889448778838974441e-01 1.208459215317089885e+00 1.360659042788826101e+00 1.555518378164587823e+00 1.555518378164587823e+00 1.688099498247976671e+00 1.945512647314860510e+00 1.999241436616002288e+00 2.648277750827721988e+00 3.321432928419001840e+00 3.259059968466375690e+00 4.082264205307777338e+00 4.674381486972387201e+00 4.479198226997043619e+00 5.028840518828282313e+00 5.505627298114878165e+00 5.505627298114878165e+00 5.897326385072679145e+00 6.302290414550581588e+00 6.302290414550581588e+00 6.562809832797283249e+00 6.726809778923841243e+00 6.935702148438780412e+00 6.870145739925102468e+00 6.854858933432740109e+00 6.833147597474023449e+00 6.599278299952946014e+00 6.460797576799924613e+00 6.358465433940799549e+00 6.060891619719901868e+00 5.695441592324012703e+00 5.695441592324012703e+00 5.353249748704110189e+00 5.048272263188628983e+00 4.936896242237377663e+00 4.831030670567596275e+00 4.514842670842581285e+00 4.406722886849708587e+00 4.101721029011596187e+00 3.995911383408953910e+00 3.809943860016176576e+00 3.589640915596532089e+00 3.457724546404395305e+00 3.457724546404395305e+00 3.270563303137702604e+00 3.139702882133385664e+00 3.073644282302477215e+00 3.097931430838078093e+00 3.035453560896074876e+00 3.002434005504532877e+00 3.004431100265266164e+00 2.996103435217028377e+00 3.005143097834835242e+00 2.923240678307942098e+00 2.871741705420888469e+00 2.962565868299552818e+00 2.960883380771246909e+00 3.001535953236986298e+00 3.001535953236986298e+00 2.982591875054552144e+00 2.936835772603145323e+00 2.896571569770570065e+00 2.840531839729474761e+00 2.996521681139044713e+00 3.066642789924442170e+00 3.133837120660619924e+00 3.148097543485781191e+00 3.099409205295976744e+00 2.624318960357369779e+00 1.950564526762018192e+00 1.950564526762018192e+00 1.362719734364027602e+00 8.688121500435137534e-01 5.924251370921345128e-01 5.055862897507602538e-01 1.896758535602554863e-01 3.000480047706307468e-02 -1.755575240064961018e-01 -2.438226210516847292e-01 -4.413498882799455902e-01 -1.134163037667387464e+00 -1.735124820631077647e+00 -1.735124820631077647e+00 -2.049472621276737350e+00 -2.189184846486023073e+00 -2.267631183350074409e+00 -2.294644028125643942e+00 -2.287167258719453145e+00 -2.242692340849528065e+00 -2.272744168309634993e+00 -2.339532009954221170e+00 -2.454184566575608351e+00 -2.593735581891487563e+00 -2.593142418813579209e+00 -2.630846620160971039e+00 -2.521902583867444481e+00 -2.576987475276538042e+00 -2.576987475276538042e+00 -2.996945589398023913e+00 -3.557358512260848205e+00 -3.985749133874637806e+00 -4.157506398478983733e+00 -4.799308016731083981e+00 -5.113806244691617486e+00 -5.659186478413721133e+00 -5.788160026282344717e+00 -6.111487547195460834e+00 -6.528296406699336529e+00
1.934811568809781779e+00 1.890838774884308737e+00 1.861316719271963294e+00 1.399825622624723431e+00 1.117854560466523095e+00 1.117854560466523095e+00 8.944397889881890995e-01 1.064597403636266204e+00 1.069346589009730453e+00 1.276040127977702276e+00 1.646397639085189546e+00 1.729872618277407348e+00 1.778637600143187392e+00 2.042627856874239978e+00 1.999295337760698121e+00 2.491653826995097187e+00 3.293394523704017640e+00 3.293394523704017640e+00 4.007455665001228517e+00 4.922454447943659162e+00 4.674381486972387201e+00 5.048276161500701242e+00 5.270388536001931357e+00 5.396908315015521040e+00 5.789616029109181383e+00 6.015030722163532850e+00 6.116294331316550981e+00 6.381722637395482955e+00 6.558108499220094423e+00 6.558108499220094423e+00 6.768757997722933517e+00 6.778841091510777517e+00 6.854858933432740109e+00 6.698424322589080049e+00 6.507999272677056801e+00 6.460797576799924613e+00 6.184372902416724216e+00 5.981573410234442889e+00 5.976452522130269784e+00 5.504389147883006039e+00 5.355550849894678223e+00 5.274296155761851068e+00 4.976420389385413756e+00 4.696783478779273935e+00 4.696783478779273935e+00 4.405753507076935804e+00 4.124319552823343393e+00 3.995911383408953910e+00 3.885897195524617320e+00 3.705340982976323083e+00 3.639876165928021212e+00 3.449495185888908466e+00 3.333557649933169387e+00 3.215034835112506872e+00 3.127049586225921107e+00 3.092324425492137152e+00 3.092324425492137152e+00 2.992321220986355002e+00 2.976845258913039416e+00 2.996103435217028377e+00 3.008232585346040100e+00 2.911195883673875606e+00 2.871741705420888469e+00 2.944751129510462029e+00 2.950447635914701827e+00 2.956931954098336313e+00 3.006161217059508672e+00 3.004909801363159882e+00 3.004909801363159882e+00 2.884498094743742413e+00 2.872098238248859126e+00 2.996521681139044713e+00 2.978701841878526935e+00 3.112732701654644885e+00 3.148097543485781191e+00 3.152914140573946256e+00 2.842649102131178385e+00 2.477442304020830655e+00 1.821994535513445035e+00 1.645250285203237794e+00 1.226804030057041972e+00 7.529361878602343072e-01 4.175218190576012178e-01 4.175218190576012178e-01 1.162650581356860918e-01 -1.111059654460801183e-01 -2.438226210516847292e-01 -3.212933415971441220e-01 -9.236887628302897779e-01 -1.336969232870239832e+00 -1.855492592604021995e+00 -1.945781761460837700e+00 -2.110316672148983219e+00 -2.221344390699139915e+00 -2.292881356700380291e+00 -2.292881356700380291e+00 -2.245570746658152927e+00 -2.274207821471831981e+00 -2.339532009954221170e+00 -2.406338174107349737e+00 -2.554658994955530282e+00 -2.593142418813579209e+00 -2.628377646240440235e+00 -2.609136867622788181e+00 -2.517755909933121927e+00 -2.655433282176606014e+00 -3.211661395728607094e+00 -3.211661395728607094e+00 -3.758022714385315322e+00 -4.425821462884185209e+00 -4.799308016731083981e+00 -4.921083944010710809e+00 -5.434562682876718398e+00 -5.788160026282344717e+00 -5.862654103373079906e+00 -6.280648471068437821e+00
1.895037710271674669e+00 1.890838774884308737e+00 1.634218194913918731e+00 1.636185341861634779e+00 1.487716600503391273e+00 1.264301829025057389e+00 1.185102923141855280e+00 1.185102923141855280e+00 1.454213903793512452e+00 1.679602272382605399e+00 1.646397639085189546e+00 2.077194351949559703e+00 2.291147968347690078e+00 2.042627856874239978e+00 2.664498459971147870e+00 3.344832598645207433e+00 3.351991683391270183e+00 3.929844342804560853e+00 4.400530175027427049e+00 4.841081976109363083e+00 5.173386108050193499e+00 5.229984925882425806e+00 5.229984925882425806e+00 5.441977956788139892e+00 5.723517235489850918e+00 6.015030722163532850e+00 5.959382009673202418e+00 6.109930799892861586e+00 6.411494751888836774e+00 6.474446639279590521e+00 6.335154763618220386e+00 6.617162472917497595e+00 6.602561669182962945e+00 6.497991442761632541e+00 6.497991442761632541e+00 6.284974426338383324e+00 6.063466432420785424e+00 5.981573410234442889e+00 5.843802770023470927e+00 5.453773111609832469e+00 5.355550849894678223e+00 5.104373441353107665e+00 4.992581111605082889e+00 4.863891492414238016e+00 4.509378937322502168e+00 4.339941487412603216e+00 4.339941487412603216e+00 4.036449305961427925e+00 3.875260899655497138e+00 3.705340982976323083e+00 3.710318324964366532e+00 3.495451876636433308e+00 3.333557649933169387e+00 3.278013333540552576e+00 3.176659918367858992e+00 3.155711721565952477e+00 3.065661885041924606e+00 3.032538459337696501e+00 3.022164659679952958e+00 3.014934012482245240e+00 2.967914591276527236e+00 2.967914591276527236e+00 2.882198211153121470e+00 2.950272146736068635e+00 2.950447635914701827e+00 2.988966271045730316e+00 3.018199942614334219e+00 3.003745167455133203e+00 2.996869818935655960e+00 2.942314985401071503e+00 2.852930451591507044e+00 2.899153534393271947e+00 3.014296243430643063e+00 3.014296243430643063e+00 3.118796589512363049e+00 3.151644931350190859e+00 2.842649102131178385e+00 2.816790454143265343e+00 2.179653287476921886e+00 1.645250285203237794e+00 1.093849147178335590e+00 9.365528382665742058e-01 6.495635339085026327e-01 3.039726287854319642e-01 2.242967279618571230e-02 -5.191899218466923538e-02 -1.847851565102567317e-01 -3.775341131824544449e-01 -7.043716370355834755e-01 -1.130232805446663047e+00 -1.686428011076928746e+00 -2.010600933427695303e+00 -2.010600933427695303e+00 -2.158918848952956715e+00 -2.242069154837885492e+00 -2.272927829163448266e+00 -2.248832266917220046e+00 -2.279054292905351886e+00 -2.306243022706747414e+00 -2.454677775911052073e+00 -2.515582408019573446e+00 -2.576942131151506388e+00 -2.673276006266641414e+00 -2.611114175823061601e+00 -2.611114175823061601e+00 -2.612170608638353819e+00 -3.000503659982612259e+00 -3.346200776514853370e+00 -3.526430040517220199e+00 -4.185890383431766004e+00 -4.570763124500374808e+00 -5.054002902751398629e+00 -5.213836470803205003e+00 -5.587998947766813274e+00 -6.055490571730222982e+00 -6.353831439403652581e+00
1.900177085372148689e+00 1.791290002783403335e+00 1.773877463412446787e+00 1.636185341861634779e+00 1.727770990603349599e+00 1.780611137620459861e+00 1.410749097583591682e+00 1.551915264642182102e+00 1.956410334978520238e+00 1.843830403950758701e+00 2.161235174557986305e+00 2.456165186920954646e+00 2.456165186920954646e+00 2.992117750185177449e+00 3.415103489866273545e+00 3.344832598645207433e+00 3.910152087555235134e+00 4.293159168445504825e+00 4.400530175027427049e+00 5.113329144471430610e+00 5.101681609745831736e+00 5.138630848614502256e+00 5.263811742559295404e+00 5.486410249286661767e+00 5.486410249286661767e+00 5.687492227786879795e+00 5.895463086164484778e+00 5.895463086164484778e+00 5.909431781807750639e+00 5.977397609909067100e+00 6.335154763618220386e+00 6.116595258118880274e+00 6.145131880603692309e+00 6.331368121025612972e+00 6.216404489499220531e+00 6.018724732403498479e+00 6.093363724601980280e+00 5.852759364953593391e+00 5.591188937463911657e+00 5.591188937463911657e+00 5.281276685144911553e+00 5.088855342324535513e+00 4.992581111605082889e+00 4.849958760044696504e+00 4.566502353874479780e+00 4.382330684447098612e+00 4.155761030263640521e+00 4.059612867763781274e+00 3.985868490481793369e+00 3.856105819467234852e+00 3.581251709783090043e+00 3.581251709783090043e+00 3.384908341964219858e+00 3.236551088562309442e+00 3.236470637588879207e+00 3.236470637588879207e+00 3.122151276043273249e+00 3.058117159985962896e+00 3.012947778847843150e+00 3.041670787248295316e+00 2.949325015598896371e+00 2.894559234459865404e+00 2.901098175661875889e+00 2.951528882263220410e+00 2.984223268664294437e+00 3.015890240971089931e+00 3.036133483073860440e+00 3.032631174468256141e+00 3.060012663095332375e+00 2.869368953665463629e+00 2.869368953665463629e+00 2.794441687062793278e+00 2.943161425127800879e+00 3.064687533302246081e+00 3.086527459471531287e+00 3.169489745775774026e+00 3.027773801339267212e+00 2.778229733472871388e+00 2.562161142601520503e+00 1.960648428973582380e+00 1.318886144313157649e+00 8.064081516139267602e-01 8.064081516139267602e-01 4.184916034027617582e-01 1.169430628546214712e-01 -5.191899218466923538e-02 -1.214059313080956687e-01 -3.066262417716930089e-01 -7.043716370355834755e-01 -1.345458655351182253e+00 -1.500796889209692120e+00 -1.831769358346744481e+00 -2.086742052652533097e+00 -2.187917779603688828e+00 -2.187917779603688828e+00 -2.252688586639770563e+00 -2.292389511241131217e+00 -2.279054292905351886e+00 -2.273208687535669625e+00 -2.409789394067865409e+00 -2.515582408019573446e+00 -2.560741843489434011e+00 -2.713379938812495507e+00 -2.701704483226722520e+00 -2.637145240388440115e+00 -2.612910319996330166e+00 -2.711832125813006034e+00 -3.135043040768858091e+00 -3.688043569502901686e+00 -3.688043569502901686e+00 -4.342218232269665634e+00 -4.843733559830067037e+00 -5.213836470803205003e+00 -5.375471642510687431e+00 -5.845013145996443171e+00 -6.079771604714162336e+00
1.747472645968966010e+00 1.665919230247558280e+00 1.927925771276930877e+00 1.838029451493125688e+00 1.872843923484642570e+00 1.872843923484642570e+00 1.927058406178993932e+00 2.056233354948238112e+00 1.956410334978520238e+00 2.601112095501466381e+00 3.208035821177141145e+00 2.792001032954802842e+00 3.234439147749028187e+00 3.975415117310009627e+00 3.631305120163148104e+00 4.111765962653983308e+00 4.413456599652226586e+00 4.413456599652226586e+00 4.628506310269294488e+00 5.005378469624784721e+00 5.101681609745831736e+00 5.071983590224424354e+00 5.203000948888417909e+00 5.333558183253265028e+00 5.456610954910145139e+00 5.364064661204861473e+00 5.456840657089603752e+00 5.641851848760413901e+00 5.700709870036797078e+00 5.481429862858854918e+00 5.801165648086197280e+00 5.859734093474404659e+00 5.913121961887542355e+00 5.913121961887542355e+00 5.915261681667942639e+00 5.853680375385589940e+00 5.867395040544275631e+00 5.723945319672743892e+00 5.489074161761378079e+00 5.375519763631503523e+00 5.210467622386546260e+00 5.054127213105322092e+00 5.005660564391292588e+00 4.682914429161170844e+00 4.608962033832790794e+00 4.381966202647939568e+00 4.180516379621457723e+00 4.079725694925580015e+00 4.079725694925580015e+00 4.004435592091684981e+00 3.681426241571052582e+00 3.525815091852404493e+00 3.438081588485363937e+00 3.286971729019634303e+00 3.226270250509795989e+00 3.238442254273654175e+00 3.182095091200366266e+00 3.076918435907355587e+00 3.068908348513980755e+00 3.084421268076757983e+00 3.084421268076757983e+00 2.868419451873243542e+00 2.928775505429096704e+00 2.951528882263220410e+00 3.017998901413886603e+00 3.043299122387185474e+00 3.036133483073860440e+00 3.096552926168650188e+00 3.117055708122985269e+00 3.000131876058400149e+00 2.820385835501213023e+00 2.745460043728467081e+00 2.745460043728467081e+00 3.002805993583516297e+00 3.115962377704394548e+00 3.115962377704394548e+00 3.212626871841900655e+00 3.169651565693824224e+00 2.562161142601520503e+00 2.260042025459453097e+00 1.534972512049736171e+00 1.137972742810835491e+00 6.626436505920959563e-01 5.321484097054590690e-01 3.127770274671933803e-01 1.882555901953667996e-02 -1.482247780881722210e-01 -1.482247780881722210e-01 -4.087265938205335569e-01 -1.095478821740288655e+00 -1.500796889209692120e+00 -1.642258033270532547e+00 -1.931896482408040239e+00 -2.096493307206773515e+00 -2.195483558258516155e+00 -2.235991563360006040e+00 -2.243937494776579999e+00 -2.282684158201226943e+00 -2.320765522828761362e+00 -2.320765522828761362e+00 -2.485760254904769706e+00 -2.655612428972900396e+00 -2.713379938812495507e+00 -2.769650324388402751e+00 -2.648714026019431955e+00 -2.612910319996330166e+00 -2.808656355510430025e+00 -2.962780573763586389e+00 -3.310718654062350108e+00 -3.949730929859313289e+00 -4.136917206408837089e+00 -4.532572202994979982e+00 -5.007218576784099540e+00 -5.434693063332193930e+00 -5.434693063332193930e+00 -5.879898770698770427e+00
1.583013878895494608e+00 1.870319680967348352e+00 1.888049536256512173e+00 1.924955451459164468e+00 1.988961205851220271e+00 2.018174119072540851e+00 2.130989684805585149e+00 3.084564890947197213e+00 2.865211548155114585e+00 3.448682567791228060e+00 4.123330194379145830e+00 4.123330194379145830e+00 4.383329771013889875e+00 4.547551134655710037e+00 4.547551134655710037e+00 4.936462870446725049e+00 4.902473233799025998e+00 4.751101341620618257e+00 4.909625227229849287e+00 4.950263837117899968e+00 5.028875964698205969e+00 5.076813129903719357e+00 5.144057351684942603e+00 5.243913894904352446e+00 5.275640680811017447e+00 5.186407794052430020e+00 5.186407794052430020e+00 5.176113695972837547e+00 5.206750259850307039e+00 5.481429862858854918e+00 5.268898954944080337e+00 5.358915810804001367e+00 5.679395501296980342e+00 5.726069502970449143e+00 5.585960556630279683e+00 5.729049581232676935e+00 5.671323648667766726e+00 5.568540520183300480e+00 5.568540520183300480e+00 5.292774270398759029e+00 5.104868106803667871e+00 5.054127213105322092e+00 4.999994083072742512e+00 4.654381134859100655e+00 4.608962033832790794e+00 4.305170726065381537e+00 4.206165957432705937e+00 4.084842856035796999e+00 4.138385043911612549e+00 4.092246097285248574e+00 3.878594540999814821e+00 3.579175903248857260e+00 3.371809404138253807e+00 3.371809404138253807e+00 3.266133619486423001e+00 3.282315731542888138e+00 3.182095091200366266e+00 3.133357828685589208e+00 3.125280323432774843e+00 3.076739213745367074e+00 2.957729837191068967e+00 2.982851152441992060e+00 2.937739198530222584e+00 2.994359808307943904e+00 3.068500037639018352e+00 3.068500037639018352e+00 3.092084272180924298e+00 3.157176582659146025e+00 3.117055708122985269e+00 3.077178027241048497e+00 2.908923963513927458e+00 2.733179835965844351e+00 2.892277462141548572e+00 2.951332971261938276e+00 3.050474505613514964e+00 3.157272624021966401e+00 3.195303235817802179e+00 3.195303235817802179e+00 2.788201543188610465e+00 1.940110694742520625e+00 1.534972512049736171e+00 1.319577979665698564e+00 7.982728198963680022e-01 5.321484097054590690e-01 2.058953049345707831e-01 9.252344763259578997e-02 -5.117381033516385513e-02 -2.660266318252010320e-01 -3.455975076515879207e-01 -7.280702009431060384e-01 -1.264222435147499546e+00 -1.689206181256940553e+00 -1.689206181256940553e+00 -2.060801270668946028e+00 -2.168467592142863332e+00 -2.235991563360006040e+00 -2.245046077942812524e+00 -2.270501118511170091e+00 -2.259131444574010494e+00 -2.389486434353771838e+00 -2.448289429928986127e+00 -2.551030483009413707e+00 -2.717619291231621936e+00 -2.770082868290605571e+00 -2.770082868290605571e+00 -2.655413463561154597e+00 -2.681675735961637663e+00 -2.962780573763586389e+00 -3.150939896882916980e+00 -3.725860782342053756e+00 -4.136917206408837089e+00 -4.656052132636609997e+00 -4.798028992004012672e+00 -5.160613175024939103e+00 -5.593203065193986134e+00 -5.911460274853614472e+00
1.985233578741965488e+00 1.540733943671473316e+00 1.961939784150799504e+00 2.004083300140115043e+00 2.004083300140115043e+00 2.320269746226178764e+00 3.168344304393326372e+00 3.084564890947197213e+00 3.961675408604831361e+00 4.198013934024757532e+00 4.346956901603254764e+00 4.934988451563319778e+00 4.897511275530653130e+00 4.964926523989458218e+00 5.110512124819370783e+00 5.144876013165387008e+00 5.144876013165387008e+00 5.048208209684868386e+00 4.933331257818875493e+00 4.950263837117899968e+00 4.914324843198625281e+00 4.937669317196109020e+00 5.144057351684942603e+00 5.220881725916141747e+00 5.013831604212556137e+00 5.042187396292105994e+00 5.042229328106588859e+00 4.827001756163515012e+00 4.971792514984604949e+00 5.057506381378712668e+00 5.187836431149676741e+00 5.187836431149676741e+00 5.270372612988941441e+00 5.365500841382992547e+00 5.585960556630279683e+00 5.386646148404598655e+00 5.362926834903266382e+00 5.472927548834473299e+00 5.320829762501740667e+00 5.102948426872292664e+00 5.094388175753199022e+00 4.947806226281407760e+00 4.732799047381841540e+00 4.732799047381841540e+00 4.555637896051501379e+00 4.267245443855079756e+00 4.206165957432705937e+00 4.095133170458945315e+00 4.110924690839478757e+00 4.092246097285248574e+00 3.777870977532350683e+00 3.705703564943812811e+00 3.542543983456287293e+00 3.358954577493792115e+00 3.318992681608592399e+00 3.318992681608592399e+00 3.227797613945951660e+00 3.148659845779283373e+00 3.125280323432774843e+00 3.155981077411605717e+00 3.097727912966186548e+00 2.982851152441992060e+00 3.105613042976896665e+00 3.129987626146838675e+00 3.111810547117712211e+00 3.136686777555916628e+00 3.182986006515044597e+00 3.145782678420367517e+00 3.185427089116625421e+00 3.037968839638731211e+00 3.037968839638731211e+00 2.842200869395842933e+00 2.915582790818155523e+00 2.951332971261938276e+00 3.004067397170883780e+00 3.093728785522153135e+00 3.160766271785375281e+00 3.126331893032969766e+00 2.860639603836618861e+00 2.402003563565228816e+00 1.708519027928394607e+00 1.130133109325216267e+00 1.130133109325216267e+00 6.453414856503538743e-01 2.892691031637700805e-01 9.252344763259578997e-02 1.145546150689560200e-02 -2.053878246212366698e-01 -3.455975076515879207e-01 -8.848792503234588214e-01 -1.097105313532938276e+00 -1.415831799667951474e+00 -1.834492705047976235e+00 -2.094279610392625113e+00 -2.142275088314733900e+00 -2.217225120134982852e+00 -2.273455041438018576e+00 -2.258318078821112351e+00 -2.257704185052426205e+00 -2.379081025090679091e+00 -2.542797608963954126e+00 -2.542797608963954126e+00 -2.718112102639745675e+00 -2.837160212320606334e+00 -2.749456677249769054e+00 -2.697916607125979027e+00 -2.687624610349215182e+00 -2.837225119825792952e+00 -3.329564372651223181e+00 -3.533978582724727424e+00 -3.947760950928627111e+00 -4.470300932430170349e+00 -4.945754707539190775e+00 -4.945754707539190775e+00 -5.339992470138140490e+00 -5.732697711116415462e+00
1.985233578741965488e+00 2.515743288516399279e+00 2.934158057621167437e+00 2.524927816574123796e+00 2.615125536266587503e+00 3.568700700516091118e+00 3.381442048058155514e+00 4.187006375386908452e+00 4.301973682644629093e+00 4.301973682644629093e+00 4.477659315184776112e+00 4.869024923482657030e+00 4.897511275530653130e+00 4.845083806630331225e+00 4.916167411893118455e+00 5.091779568079518370e+00 4.872535056885855198e+00 4.822448265520847599e+00 4.823860796312615662e+00 4.781758086163876875e+00 4.820055278375733998e+00 4.820055278375733998e+00 4.854269699432119722e+00 4.871414024352739958e+00 5.013831604212556137e+00 4.734511045798105222e+00 4.717144467138749242e+00 4.827001756163515012e+00 4.858363442279221900e+00 4.739752819962361308e+00 4.943117736080139935e+00 5.043580974882067025e+00 5.154425848445630010e+00 5.154425848445630010e+00 5.238275803474951253e+00 5.230072450529374528e+00 5.230072450529374528e+00 5.142673822989874743e+00 5.104012810570244696e+00 5.102948426872292664e+00 4.939111874794043899e+00 4.809099257343023126e+00 4.850380722341040673e+00 4.571552941426503480e+00 4.473753708201568813e+00 4.383629701346023921e+00 4.221810225333303634e+00 4.115114548277742479e+00 4.115114548277742479e+00 4.126339286581657717e+00 3.898258714860665997e+00 3.705703564943812811e+00 3.693793176978115156e+00 3.428009915842213040e+00 3.324180098873103617e+00 3.286324046120279174e+00 3.255190760003937811e+00 3.200536921025884496e+00 3.199502514479933613e+00 3.215222000731188245e+00 3.215222000731188245e+00 3.149854876072021526e+00 3.197533878150655262e+00 3.185864859404341498e+00 3.185864859404341498e+00 3.232486509680807085e+00 3.229743151035133764e+00 3.221159919612933020e+00 3.253766950539397573e+00 3.136260980085465278e+00 3.006161742956265037e+00 2.875377036530427866e+00 2.938888119494762030e+00 2.932078197376095208e+00 3.025956683973063832e+00 3.033293286297720659e+00 3.093779789951137449e+00 3.075983790476403357e+00 2.506203198427249923e+00 2.506203198427249923e+00 1.884894355402172872e+00 1.296929096943751247e+00 9.377070012146453415e-01 7.715310594796078725e-01 3.846258821002406236e-01 1.717554819552384593e-01 -6.565154563614079841e-02 -1.296165917903029652e-01 -2.694854894184843253e-01 -7.820553063597015520e-01 -1.271072139766528775e+00 -1.271072139766528775e+00 -1.739980739259174181e+00 -2.046160606111727898e+00 -2.142275088314733900e+00 -2.193008459631146323e+00 -2.245822566634041006e+00 -2.258318078821112351e+00 -2.303970033687622543e+00 -2.368675615827585457e+00 -2.423756129943199333e+00 -2.633339820526465758e+00 -2.812910252602121908e+00 -2.812910252602121908e+00 -2.843131253023086114e+00 -2.719561559190421640e+00 -2.687624610349215182e+00 -2.768388482460929723e+00 -3.187433055529850456e+00 -3.533978582724727424e+00 -3.758604695448416688e+00 -4.284549732223729812e+00 -4.605220147325913338e+00 -5.044746615408888246e+00 -5.157357533870119859e+00 -5.475963985655806887e+00
2.973741412817192398e+00 3.225817832181144595e+00 2.934158057621167437e+00 3.568112628266063346e+00 3.761609393166945203e+00 3.568700700516091118e+00 4.336547696068811852e+00 4.623349887197123920e+00 4.463732287989145675e+00 4.378125239610166197e+00 4.757230277350529057e+00 4.757230277350529057e+00 4.817180118792308008e+00 4.788658590472497423e+00 4.788658590472497423e+00 4.799542999304573954e+00 4.679978757892979679e+00 4.822448265520847599e+00 4.625064256773234739e+00 4.578383216018361068e+00 4.715267195885228801e+00 4.709475721218889355e+00 4.585304678927085043e+00 4.709276869919733599e+00 4.663402200844720014e+00 4.552096105129817438e+00 4.552096105129817438e+00 4.532326818763296572e+00 4.545712342620166879e+00 4.739752819962361308e+00 4.634771676983393540e+00 4.729798181012608183e+00 4.811062798767895110e+00 5.020413854097835582e+00 4.876815126991160376e+00 4.875764615523512369e+00 5.040826854676740076e+00 5.002265470826962712e+00 4.856702699214469732e+00 4.891966438570984899e+00 4.797288314618696425e+00 4.707215324410740642e+00 4.707215324410740642e+00 4.488724747993907194e+00 4.382144928319623212e+00 4.227988331401395961e+00 4.215477212816653108e+00 4.114177787274708287e+00 4.081045662701119348e+00 4.132173105716658412e+00 4.003878867388159790e+00 3.853437712589881770e+00 3.551168043400661389e+00 3.467268022936764726e+00 3.382226578259784233e+00 3.289074259690123458e+00 3.269674622219330473e+00 3.269674622219330473e+00 3.273727273772053525e+00 3.286681243124576213e+00 3.221641685404659228e+00 3.312066415276545772e+00 3.348313767877973302e+00 3.267616885389545978e+00 3.242120083116595275e+00 3.325173720594620796e+00 3.276127416789300639e+00 3.284147644886230566e+00 3.234400501965268404e+00 3.234400501965268404e+00 3.096556897399809216e+00 2.967546792351232199e+00 2.938888119494762030e+00 2.908257597913237458e+00 2.977105794775871672e+00 3.033293286297720659e+00 3.086084264787318787e+00 3.027038245104437753e+00 2.902718421074373722e+00 2.287078003816956695e+00 1.667407306660539490e+00 1.667407306660539490e+00 1.105481585498021335e+00 6.224298582506182509e-01 6.224298582506182509e-01 2.509875162778811841e-01 -3.566709073163763094e-02 -1.296165917903029652e-01 -1.120399185506534695e-01 -6.493265501306925147e-01 -9.787319696149197057e-01 -1.458270456618450561e+00 -1.688284331566781482e+00 -1.927179056111095967e+00 -2.106366238044349970e+00 -2.247870772100756476e+00 -2.247870772100756476e+00 -2.246135039131054612e+00 -2.301576995290909089e+00 -2.368675615827585457e+00 -2.414212040020245365e+00 -2.613055575165232902e+00 -2.721892162200339360e+00 -2.865104302530242286e+00 -2.897652925255878920e+00 -2.768643512013748698e+00 -2.730954877915356960e+00 -2.889739540582142663e+00 -2.889739540582142663e+00 -3.361795872382402628e+00 -3.940637589985500622e+00 -4.284549732223729812e+00 -4.422002923850741674e+00 -4.851213818099725295e+00 -5.157357533870119859e+00 -5.553935147379217341e+00
4.033457755869644501e+00 4.223942662409714721e+00 3.889460345613048986e+00 4.312649891795500068e+00 4.745545356416176475e+00 4.502639785153043306e+00 4.867691834593102840e+00 4.634903901179515451e+00 4.634903901179515451e+00 4.522965169454666423e+00 4.750044666671952243e+00 4.765332776389382019e+00 4.746731390369357761e+00 4.656318105354094072e+00 4.726625318647505125e+00 4.679933534344288049e+00 4.481144454151819723e+00 4.596688321356827700e+00 4.520540010915938822e+00 4.503152444711089331e+00 4.503152444711089331e+00 4.498211299783238637e+00 4.384278190225948002e+00 4.384278190225948002e+00 4.284181926088896475e+00 4.253348431765862969e+00 4.400589290451996760e+00 4.247408641137525365e+00 4.241301258536190666e+00 4.421999258546010836e+00 4.555229597378264828e+00 4.414592573847748724e+00 4.576900699311384102e+00 4.682049928343635870e+00 4.682261093874856783e+00 4.682261093874856783e+00 4.708427509587849613e+00 4.691351387445104493e+00 4.856702699214469732e+00 4.678571602453153844e+00 4.643599335513003190e+00 4.673003472945344683e+00 4.531172492410233232e+00 4.405222479634700150e+00 4.398225433931512995e+00 4.195591958730941151e+00 4.119782154289978848e+00 4.119782154289978848e+00 4.059151442965647227e+00 4.087924301406926197e+00 4.003878867388159790e+00 3.937909592448561202e+00 3.702949178023424714e+00 3.467268022936764726e+00 3.362862116872876506e+00 3.298002374614235510e+00 3.282583906061923074e+00 3.300381286103081013e+00 3.321308812247646181e+00 3.321308812247646181e+00 3.345555457843131464e+00 3.426736951649289598e+00 3.426736951649289598e+00 3.409174344489667163e+00 3.344645598203150882e+00 3.325173720594620796e+00 3.369276570670378668e+00 3.349116932432867344e+00 3.321551404913258843e+00 3.228502527999599803e+00 3.193318038561450578e+00 3.076494542979710367e+00 2.959436940983418030e+00 2.914805955198032983e+00 2.914805955198032983e+00 2.975085063616131453e+00 3.006238697756228095e+00 3.027038245104437753e+00 2.869990082625942573e+00 2.410464506260813877e+00 2.063564754057877870e+00 1.471409957570409155e+00 1.245653178093748759e+00 9.057890153188035143e-01 4.847507380048264314e-01 1.408477048873598148e-01 1.408477048873598148e-01 9.928263487346916660e-02 -3.099829517783410093e-01 -6.493265501306925147e-01 -8.436051176679792984e-01 -1.418251521791965786e+00 -1.688284331566781482e+00 -1.991216875618155857e+00 -2.023125940523087252e+00 -2.160144543732579692e+00 -2.216360450001225946e+00 -2.199607742566106694e+00 -2.262029618959853661e+00 -2.357298835901720846e+00 -2.487256380273758172e+00 -2.487256380273758172e+00 -2.740290402598065889e+00 -2.902594547258231295e+00 -2.897652925255878920e+00 -2.921475502152754977e+00 -2.678620803815023432e+00 -2.701920245666541209e+00 -3.101660686432147429e+00 -3.303690280727366257e+00 -3.616008335351176939e+00 -4.129478451696423136e+00 -4.559432122332960802e+00 -4.559432122332960802e+00 -5.005723645350689921e+00 -5.430906880103104406e+00
4.490631661615672066e+00 4.490631661615672066e+00 4.733116326633881599e+00 4.864858896916614661e+00 4.745545356416176475e+00 4.847687826404010636e+00 4.756854484071240563e+00 4.753800865037351997e+00 4.646457915161905206e+00 4.627320425585393693e+00 4.709707188810805079e+00 4.707857115356491207e+00 4.649023144424258014e+00 4.649023144424258014e+00 4.515752613313326336e+00 4.430966296705002527e+00 4.481144454151819723e+00 4.360849100769742748e+00 4.293779966099723566e+00 4.368155198414946483e+00 4.425076423366708589e+00 4.285365369584718920e+00 4.316339658422050363e+00 4.158279363831998587e+00 4.120544631759679888e+00 4.120544631759679888e+00 4.113217687290323887e+00 4.065041097537897663e+00 4.241301258536190666e+00 4.132359219456132493e+00 4.266009596774019030e+00 4.414592573847748724e+00 4.463532750046420361e+00 4.371450666206225577e+00 4.514804742279506122e+00 4.523810480433587244e+00 4.404401932284132570e+00 4.517353040279610710e+00 4.588792567867130856e+00 4.584883431532837506e+00 4.584883431532837506e+00 4.511210023851567996e+00 4.388396521781223747e+00 4.405222479634700150e+00 4.299009726162763556e+00 4.151875946661355954e+00 4.193174319497788183e+00 4.125599708067367644e+00 4.037577330849648760e+00 4.107337599055019162e+00 4.049730629768397705e+00 3.898127009121433950e+00 3.898127009121433950e+00 3.513748488636079692e+00 3.440518062440911962e+00 3.298002374614235510e+00 3.355208917544428182e+00 3.401403364409929075e+00 3.346827383702589920e+00 3.365563459132828505e+00 3.411328360870933718e+00 3.430953463123604497e+00 3.463389803295728875e+00 3.467363275854361326e+00 3.467363275854361326e+00 3.390917067756625158e+00 3.400667473521682194e+00 3.349116932432867344e+00 3.390786313493891146e+00 3.317012914027194004e+00 3.193318038561450578e+00 3.176283087014818651e+00 3.061311682972648551e+00 2.975493451240910581e+00 2.967853640003721871e+00 2.938482700053372199e+00 2.963653388019634072e+00 2.896136616969063216e+00 2.587045844634611402e+00 2.587045844634611402e+00 2.177389856053526529e+00 1.597939006013742613e+00 1.245653178093748759e+00 1.023278286327339748e+00 5.763421074957773005e-01 3.356648512170743448e-01 9.177215962375398495e-02 1.822280399484923208e-01 -4.014087744222696874e-02 -4.984520713710054451e-01 -1.057224413478235592e+00 -1.057224413478235592e+00 -1.539649211192356759e+00 -1.864391435519791917e+00 -2.023125940523087252e+00 -2.013836559845305185e+00 -2.148684625694739392e+00 -2.199607742566106694e+00 -2.298008397463995323e+00 -2.316070485584604377e+00 -2.395475769441879788e+00 -2.615867656047094592e+00 -2.870702219498635799e+00 -2.870702219498635799e+00 -2.998852169636608611e+00 -2.855676673232363960e+00 -2.708766480783336483e+00 -2.708766480783336483e+00 -3.086401061349814956e+00 -3.472054224162171465e+00 -3.472054224162171465e+00 -3.990309152892419053e+00 -4.467151862755644132e+00 -4.759314410446747523e+00 -4.880120757234552187e+00 -5.338804718338426625e+00
4.755799221640993224e+00 4.792944868716394247e+00 4.871309122986863471e+00 4.871309122986863471e+00 4.863227486293054902e+00 4.764207570421932658e+00 4.756854484071240563e+00 4.695195482316270486e+00 4.540385969563657476e+00 4.627320425585393693e+00 4.610104324412487742e+00 4.459039309154821495e+00 4.581632571241177843e+00 4.440888528016823322e+00 4.239434737366782002e+00 4.304929624273445832e+00 4.231655223086643325e+00 4.170065901466395886e+00 4.170065901466395886e+00 4.110282981827678483e+00 4.177559800310782556e+00 4.285365369584718920e+00 4.078657550016850486e+00 3.940007059980128012e+00 3.990953914825612792e+00 4.017947698473662399e+00 3.919538604595403264e+00 4.015794733959645590e+00 4.019474494118357555e+00 4.095800070358479594e+00 4.095800070358479594e+00 4.188643539914412628e+00 4.205255043555442995e+00 4.371450666206225577e+00 4.227098533991533458e+00 4.234108569766558361e+00 4.404401932284132570e+00 4.395863471570312875e+00 4.285366444594163937e+00 4.422105495260109542e+00 4.412030258831160623e+00 4.361198054365797105e+00 4.361198054365797105e+00 4.254898029516887448e+00 4.205695664631170061e+00 4.151875946661355954e+00 4.110471269806735606e+00 4.088247852935185556e+00 4.037577330849648760e+00 4.045830914119109778e+00 3.987283137418599299e+00 3.912328254233199409e+00 3.677001518667081470e+00 3.553269594829743028e+00 3.494152752298419262e+00 3.382637547486598617e+00 3.410723447577600709e+00 3.410723447577600709e+00 3.431183772273581400e+00 3.461080997059655218e+00 3.411328360870933718e+00 3.498805089660952383e+00 3.509583472766833800e+00 3.444341741521402156e+00 3.397703621272015528e+00 3.426341487521049167e+00 3.430684246927718561e+00 3.421168185835576914e+00 3.400249057261417462e+00 3.400249057261417462e+00 3.284778980185954822e+00 3.169222473940503271e+00 3.061311682972648551e+00 3.096043020378612454e+00 2.983856718592469370e+00 2.900984554122165271e+00 2.848133178192430393e+00 2.727236921742970388e+00 2.518923219986382911e+00 2.448824920775903635e+00 1.961686618599286946e+00 1.724468054457076072e+00 1.367648733450035126e+00 8.235765413985971506e-01 6.678268940097431550e-01 4.227608197135940271e-01 1.378708523960922583e-01 9.314200487919302440e-02 9.314200487919302440e-02 -3.729318306138691974e-01 -8.391457153992130102e-01 -1.187506739970136227e+00 -1.327512256306716321e+00 -1.736285826710719515e+00 -1.878802466527121684e+00 -2.073975807762702406e+00 -2.080560076558921612e+00 -2.144832106942275995e+00 -2.298542101373559188e+00 -2.362335412030361237e+00 -2.362335412030361237e+00 -2.609670774291827033e+00 -2.900523715433755534e+00 -2.973611468398010160e+00 -2.995327964814423538e+00 -2.884550394594041389e+00 -2.817495857500030620e+00 -2.842309971604011665e+00 -3.016673471718028132e+00 -3.233962691095579878e+00 -3.709872127967900557e+00 -4.165437644690086927e+00 -4.165437644690086927e+00 -4.667415002793768863e+00 -5.092367558378327885e+00 -5.338804718338426625e+00
