5.662628439684948001e-01 6.510411216879431473e-01 6.510411216879431473e-01 8.312095171249969106e-01 8.831199056482295084e-01 8.859912381151875405e-01 8.651198932394746910e-01 8.138142345835837066e-01 7.808235503815690315e-01 6.684239862523508879e-01 5.304387409058832770e-01 4.400423552612420242e-01 2.646137405301932644e-01 4.181665013847146728e-01 4.181665013847146728e-01 1.827138522485120542e-01 -1.390013599306363368e-01 -3.146210479143215499e-01 -6.717033430450755072e-01 -1.340924299357345806e+00 -1.662971183371666051e+00 -2.567520867860209055e+00 -2.714693236372312413e+00 -2.954490083513392040e+00 -3.075823153604246407e+00 -3.104972529626072841e+00 -3.073538595194572398e+00 -3.039299678917346981e+00 -2.950566399319062505e+00 -2.950566399319062505e+00 -3.037636462215928645e+00 -3.176119952550228387e+00 -3.194471134876859519e+00 -3.273703430979872042e+00 -3.330569258778318442e+00 -3.326228156287091675e+00 -3.140694695229905076e+00 -3.109088579374626349e+00 -3.070168051237113893e+00 -3.368168524493575955e+00 -3.760818448678580062e+00 -3.760818448678580062e+00 -4.137241953066600253e+00 -4.514369969121327486e+00 -4.695629648029536085e+00 -4.869541602002989578e+00 -5.088039943090223893e+00 -5.172463210228075425e+00 -5.355040766427821453e+00 -5.440701266853877449e+00 -5.511876487128156477e+00 -5.692269723017315819e+00 -5.843939531906748641e+00 -5.843939531906748641e+00 -6.068273617075229609e+00 -6.247172895356074562e+00 -6.353245061236632907e+00 -6.439044721554191497e+00 -6.693254803001570608e+00 -6.796916631073901982e+00 -6.911142216581146691e+00 -7.110553852603163527e+00 -7.230780603102399340e+00 -7.356894151059296227e+00 -7.477682518871521467e+00 -7.552552059175286381e+00 -7.750053277673137231e+00 -7.902580675477381966e+00 -7.902580675477381966e+00 -8.055927488810448622e+00 -8.178898110191795467e+00 -8.238643535411862118e+00 -8.307519621039393343e+00 -8.430513323649009294e+00 -8.491373655107718577e+00 -8.619191808803719823e+00 -8.667733766047941657e+00 -8.708411399366745798e+00 -8.812597689902951004e+00 -8.888046944043679787e+00 -8.888046944043679787e+00 -8.984965854056646606e+00 -9.054637866110427424e+00 -9.125385949150635057e+00 -9.125385949150635057e+00 -9.187585378425460192e+00 -9.276550523321279940e+00 -9.276161577001605707e+00 -9.306380492193307319e+00 -9.356536929511982237e+00 -9.406110786680276448e+00 -9.449946495966457860e+00 -9.475859506203770266e+00 -9.530325982173245336e+00 -9.566066821156057998e+00 -9.628779308343412779e+00 -9.628779308343412779e+00 -9.699261140550284210e+00 -9.717359025632763547e+00 -9.717359025632763547e+00 -9.772214501779743046e+00 -9.825686316692907596e+00 -9.845206380210179020e+00 -9.894462239738839315e+00 -9.929350235818777293e+00 -9.955331360402444929e+00 -1.001605002545895751e+01 -1.002565792157493085e+01 -1.005497926659218422e+01 -1.009462133906986026e+01 -1.013121718013964312e+01 -1.013121718013964312e+01 -1.017553503516732505e+01 -1.021494302060334824e+01 -1.022396201597554111e+01 -1.027240309438984944e+01
5.746429548015051791e-01 6.090344666954379260e-01 7.475761204150449535e-01 8.135380706879808965e-01 8.145793731537696036e-01 8.811962682707239480e-01 8.346175214179116786e-01 8.346175214179116786e-01 7.851086513856508908e-01 5.885427496790838209e-01 5.304387409058832770e-01 4.003764521370510310e-01 3.915570988073352465e-01 5.008164718122951609e-01 2.655009859613389755e-01 1.097242107142240158e-01 -3.010950998124885258e-02 -4.055104307320260837e-01 -1.076229476014915143e+00 -1.076229476014915143e+00 -1.707416471572618555e+00 -2.403124327814795791e+00 -2.714693236372312413e+00 -2.780446753433101215e+00 -3.087213580723039197e+00 -3.104972529626072841e+00 -3.051511561869264533e+00 -2.992403400179669770e+00 -2.972108466915614144e+00 -2.976842211462849441e+00 -3.111434986240898759e+00 -3.111434986240898759e+00 -3.246027761018948965e+00 -3.324407129032787900e+00 -3.330569258778318442e+00 -3.299460993688422938e+00 -3.217473407103827565e+00 -3.109088579374626349e+00 -3.286947536171478390e+00 -3.491587805899896590e+00 -3.591558917960712805e+00 -3.977674384521493245e+00 -4.209988713160539575e+00 -4.363241542276572460e+00 -4.752865682437612094e+00 -5.006470290630347542e+00 -5.006470290630347542e+00 -5.192733546471796302e+00 -5.371615489071586147e+00 -5.440701266853877449e+00 -5.534746710124654356e+00 -5.693478254283583340e+00 -5.854137602513753258e+00 -5.937399142761837112e+00 -6.058712830872661215e+00 -6.252752506972901969e+00 -6.352849030295238286e+00 -6.552059340870728832e+00 -6.674476771679465514e+00 -6.793244346071196205e+00 -6.998899362563888893e+00 -7.228926834871364449e+00 -7.228926834871364449e+00 -7.401260350267887311e+00 -7.570110190252540505e+00 -7.656965582806868120e+00 -7.741603214349501272e+00 -7.922117312579787018e+00 -7.993211559941530986e+00 -8.119152684971727041e+00 -8.182730376950715367e+00 -8.248337779692789695e+00 -8.369652992190298235e+00 -8.440090742758584952e+00 -8.500951074217294234e+00 -8.625508675381155399e+00 -8.712257652497854110e+00 -8.712257652497854110e+00 -8.815575276887759770e+00 -8.896533461290971445e+00 -8.937788014588457841e+00 -8.987921662298477443e+00 -9.065706214148702813e+00 -9.078716923640381964e+00 -9.163833161664060256e+00 -9.191869242718148314e+00 -9.229688490431001924e+00 -9.285095563303798372e+00 -9.339086263716868785e+00 -9.339086263716868785e+00 -9.410763830726919466e+00 -9.455692560773060862e+00 -9.475859506203770266e+00 -9.521993721520111364e+00 -9.566857463059095679e+00 -9.611870665528099877e+00 -9.678346908746277677e+00 -9.699912575524763270e+00 -9.713869424820948950e+00 -9.743916198990007160e+00 -9.826099048229682609e+00 -9.826099048229682609e+00 -9.850910365501505339e+00 -9.936679972116673198e+00 -9.929350235818777293e+00 -9.961751199261936307e+00 -1.001447221888490446e+01 -1.002565792157493085e+01 -1.005188362894786991e+01 -1.009491827882937720e+01 -1.010371956469368371e+01 -1.015181099763670858e+01 -1.017230202287798058e+01 -1.018296406699346335e+01 -1.021994086520304457e+01 -1.029211392039322348e+01
5.746429548015051791e-01 5.901309223823971717e-01 7.095808005578398969e-01 8.135380706879808965e-01 8.991226740578420751e-01 8.536378880728939800e-01 8.506938964491610466e-01 7.946201048891454732e-01 7.139939556052490310e-01 7.139939556052490310e-01 5.391823874110216464e-01 5.354191151003108162e-01 5.354191151003108162e-01 4.897938157294054462e-01 2.513115749183293945e-01 1.097242107142240158e-01 1.282933410725327003e-02 -4.755959604299955235e-01 -7.796753266811645711e-01 -1.432027937488328462e+00 -1.841620207218498173e+00 -2.360746614495904172e+00 -2.468877844875585037e+00 -2.846200270493890905e+00 -3.020752198309770709e+00 -3.085129576634447979e+00 -3.022610972465598067e+00 -2.960092368296748599e+00 -2.960092368296748599e+00 -3.044170642340381594e+00 -3.199460930893902599e+00 -3.201196402961507648e+00 -3.354751219447424049e+00 -3.460779657543540111e+00 -3.341297778137091612e+00 -3.309385398507529885e+00 -3.253613168987938398e+00 -3.281592355198635236e+00 -3.486232624927053880e+00 -3.690872894655472525e+00 -3.690872894655472525e+00 -4.042129112797496759e+00 -4.424704563946559865e+00 -4.588870760794931059e+00 -4.809473330642784816e+00 -5.028385958751067975e+00 -5.110769399472868457e+00 -5.215121692399097064e+00 -5.402615577784553480e+00 -5.470462958915258689e+00 -5.646743349038906956e+00 -5.718307011391507544e+00 -5.807289226093216961e+00 -5.995104076879777644e+00 -6.152237086632013963e+00 -6.152237086632013963e+00 -6.362217172755377348e+00 -6.555517005733635827e+00 -6.674476771679465514e+00 -6.764815591299271347e+00 -7.008073540271441360e+00 -7.118757943400702004e+00 -7.310069026101523093e+00 -7.391211217331681738e+00 -7.482953511726383233e+00 -7.658402781872535314e+00 -7.847859346256734980e+00 -7.847859346256734980e+00 -7.994422284637701992e+00 -8.122632455912938809e+00 -8.182730376950715367e+00 -8.247932329272879670e+00 -8.379230411299873893e+00 -8.440090742758584952e+00 -8.553639296656974977e+00 -8.628527043478129599e+00 -8.677604510441881303e+00 -8.779077894657953962e+00 -8.864253563405261716e+00 -8.864253563405261716e+00 -8.944778149669357248e+00 -9.037296053783350658e+00 -9.065706214148702813e+00 -9.085972187855274385e+00 -9.168596120395253735e+00 -9.191869242718148314e+00 -9.236103577648616891e+00 -9.290845521782665983e+00 -9.315849632913934641e+00 -9.366930720714549352e+00 -9.415416874773558931e+00 -9.446769219557069164e+00 -9.483494918313260413e+00 -9.555270501964256979e+00 -9.555270501964256979e+00 -9.622008439839074612e+00 -9.681425482535727767e+00 -9.699912575524763270e+00 -9.732004722735654312e+00 -9.753495629762701569e+00 -9.779576317217076209e+00 -9.826136198899764196e+00 -9.856614350792831658e+00 -9.900380216189400784e+00 -9.931764694857934117e+00 -9.966091415316059354e+00 -9.966091415316059354e+00 -1.002191757985296761e+01 -1.006907637502791175e+01 -1.009491827882937720e+01 -1.010532174555876850e+01 -1.014969362643586948e+01 -1.017230202287798058e+01 -1.021397117375822106e+01 -1.021985721441456718e+01 -1.027484956795038329e+01
5.467841329729188349e-01 6.095840922412010254e-01 6.773911269005081781e-01 8.003101530850680323e-01 8.923429439611546554e-01 8.652442096704211494e-01 8.652442096704211494e-01 8.187761801124431305e-01 6.999750323897782067e-01 5.009368602751993471e-01 3.428374363796309887e-01 3.227371534557920141e-01 5.758513485210778882e-01 3.774861046405057485e-01 2.651783935516061064e-01 1.390038638294296969e-01 -1.879085600919037646e-01 -7.991268493510500504e-01 -7.991268493510500504e-01 -1.481419103989846775e+00 -2.247643735264237996e+00 -2.360746614495904172e+00 -2.705028407831157722e+00 -2.885241093438554838e+00 -3.020752198309770709e+00 -2.981122912153576276e+00 -2.974606221917570181e+00 -3.025661218606595426e+00 -3.020075270803777023e+00 -3.126292340973904516e+00 -3.179501048091419424e+00 -3.334791336644940429e+00 -3.531177426448876222e+00 -3.531177426448876222e+00 -3.494135467073208989e+00 -3.315566612397493174e+00 -3.253613168987938398e+00 -3.160013293101870957e+00 -3.298980022437774107e+00 -3.531546627659745141e+00 -3.880915686453183078e+00 -4.123618929728353422e+00 -4.264877270721932234e+00 -4.648838854990679614e+00 -4.949514324097366469e+00 -4.949514324097366469e+00 -5.138228231302035098e+00 -5.326942138506705504e+00 -5.402615577784553480e+00 -5.477830952297509270e+00 -5.628469108656918962e+00 -5.718307011391507544e+00 -5.931495322886895849e+00 -6.035714798355460431e+00 -6.099323552348343114e+00 -6.278360797550093686e+00 -6.471681838537851839e+00 -6.471681838537851839e+00 -6.648917057036999978e+00 -6.887356927673611295e+00 -6.887356927673611295e+00 -7.126160494712944882e+00 -7.305769832993689761e+00 -7.391211217331681738e+00 -7.469094554744892811e+00 -7.673677218270043454e+00 -7.760768282263389217e+00 -7.912136489257047600e+00 -7.995603313325410078e+00 -8.062887030692870383e+00 -8.187071997814170388e+00 -8.318370079841166387e+00 -8.318370079841166387e+00 -8.449668161868160610e+00 -8.561974569534493540e+00 -8.628527043478129599e+00 -8.686469048551749950e+00 -8.791563945030757665e+00 -8.818552863872568537e+00 -8.905019978538261327e+00 -8.951768284750256655e+00 -8.998143176468717641e+00 -9.063078799894888959e+00 -9.134464328807851530e+00 -9.134464328807851530e+00 -9.196153107010836436e+00 -9.280049536836816770e+00 -9.290845521782665983e+00 -9.325318773634560188e+00 -9.377324511917116467e+00 -9.415416874773558931e+00 -9.462869968000779508e+00 -9.491130330422748784e+00 -9.528372324055686349e+00 -9.566025724459729318e+00 -9.637995011344207441e+00 -9.637995011344207441e+00 -9.694197973883049713e+00 -9.735970575506673441e+00 -9.735970575506673441e+00 -9.785360414929654027e+00 -9.826586081106622572e+00 -9.856614350792831658e+00 -9.906298192639960476e+00 -9.946809939490847796e+00 -9.966779153954377080e+00 -1.000802792094015636e+01 -1.001817723813100436e+01 -1.004878799130355205e+01 -1.009521521858889237e+01 -1.012841512612798134e+01 -1.012841512612798134e+01 -1.018457577774147360e+01 -1.021299932691309387e+01 -1.021985721441456718e+01 -1.027289038190079751e+01
5.401229393957708291e-01 5.591572223235252714e-01 6.773911269005081781e-01 8.805451826954471262e-01 9.004092563809157346e-01 8.844971361883203764e-01 8.498082228580279285e-01 7.699466799279527374e-01 8.054851352844970558e-01 4.521600486280473175e-01 1.778586938967685049e-01 1.778586938967685049e-01 3.947626929052824307e-01 3.991761930533951341e-01 2.651783935516061064e-01 7.168579837882554928e-02 -2.479015078288240581e-01 -4.831172356404122015e-01 -1.133159592089406420e+00 -1.465467220027734108e+00 -1.879313916657993744e+00 -2.628199758500752381e+00 -2.775221659709885991e+00 -2.775221659709885991e+00 -2.878708396850881535e+00 -2.931434804566271701e+00 -2.974606221917570181e+00 -2.941615219285264260e+00 -3.080647588941654469e+00 -3.126292340973904516e+00 -3.314831453842457698e+00 -3.446067167113715080e+00 -3.484880146072704576e+00 -3.643209297725128692e+00 -3.712197934393348664e+00 -3.542094096107205825e+00 -3.009482015514763464e+00 -3.058301688319694289e+00 -3.058301688319694289e+00 -3.402211654264394980e+00 -3.966775249343312382e+00 -4.123618929728353422e+00 -4.366539206647346738e+00 -4.732475728399062831e+00 -4.856581424040300021e+00 -5.062254684414789097e+00 -5.172856115957991108e+00 -5.251268699228855752e+00 -5.404390431169812103e+00 -5.558730442271742511e+00 -5.558730442271742511e+00 -5.702996969089357826e+00 -5.904319960981897708e+00 -6.035714798355460431e+00 -6.139934273824025901e+00 -6.303969088127285403e+00 -6.387825463332568177e+00 -6.543274278096464336e+00 -6.670522782339439516e+00 -6.770738676970944780e+00 -7.017279425389093994e+00 -7.223090683259066225e+00 -7.223090683259066225e+00 -7.382865340314537228e+00 -7.585075305010048119e+00 -7.673677218270043454e+00 -7.781200026289438298e+00 -7.962451380591934580e+00 -7.995603313325410078e+00 -8.130780135829800415e+00 -8.196649416923746045e+00 -8.257509748382457104e+00 -8.388807830409451327e+00 -8.459245580977736267e+00 -8.520105912436445550e+00 -8.631545411575103799e+00 -8.728192642635082876e+00 -8.728192642635082876e+00 -8.821530450857375527e+00 -8.913506495785554762e+00 -8.951768284750256655e+00 -9.025269290196884953e+00 -9.060287843264426044e+00 -9.093227452070166805e+00 -9.173359079126443660e+00 -9.200436971303524558e+00 -9.256173729666027583e+00 -9.291798409379117274e+00 -9.355396565009982623e+00 -9.355396565009982623e+00 -9.420069918820201949e+00 -9.470047375228496378e+00 -9.491130330422748784e+00 -9.536846030124397799e+00 -9.565193985860364734e+00 -9.641741934972433370e+00 -9.685356072891286416e+00 -9.692721523240747317e+00 -9.739173008233905193e+00 -9.763949316054977956e+00 -9.834189164241610825e+00 -9.827035963313479172e+00 -9.862535637078648776e+00 -9.923891698910011883e+00 -9.957259139121170222e+00 -9.957259139121170222e+00 -1.000158362299540649e+01 -1.005435407507619772e+01 -1.005435407507619772e+01 -1.009551215834840932e+01 -1.012701409912214956e+01 -1.015645990491607442e+01 -1.019108172522530609e+01 -1.021202748006796845e+01 -1.021964299263419917e+01 -1.027754507379057536e+01
4.062080725542674409e-01 4.062080725542674409e-01 7.435349391785394113e-01 8.995890393587220313e-01 9.004092563809157346e-01 8.786159604656345046e-01 8.019043834478113419e-01 7.699466799279527374e-01 6.309187494542339847e-01 4.579772579180053649e-01 3.155606314213190711e-01 4.000198214882345060e-01 5.008149428351816868e-01 4.679518155999539131e-01 1.586331001794082096e-01 -1.277023403646650734e-01 -1.277023403646650734e-01 -4.963611446442982023e-01 -1.181595746961993765e+00 -1.465467220027734108e+00 -1.975486164641024667e+00 -2.430136993496351483e+00 -2.655909668520135547e+00 -2.834471150013245122e+00 -2.786966383748402443e+00 -2.826098080703439042e+00 -2.910392834961775588e+00 -3.032794852374124162e+00 -3.032794852374124162e+00 -3.198100132545650176e+00 -3.364013053743041048e+00 -3.446067167113715080e+00 -3.592084506556961987e+00 -3.817083777057518112e+00 -3.712197934393348664e+00 -3.339430132750114577e+00 -2.985029010284846684e+00 -2.887144009220789620e+00 -3.236667161530640158e+00 -3.723303670283696132e+00 -3.723303670283696132e+00 -4.202977668626427743e+00 -4.589093178410582397e+00 -4.732475728399062831e+00 -4.913532650599101714e+00 -5.095478542743907546e+00 -5.172856115957991108e+00 -5.266218845744894850e+00 -5.397697374896019085e+00 -5.402746037259023026e+00 -5.640567715942609084e+00 -5.720028190722498351e+00 -5.786677480547868235e+00 -5.989805824491349462e+00 -6.209448604091845070e+00 -6.209448604091845070e+00 -6.370407423434432559e+00 -6.577310303327629448e+00 -6.670522782339439516e+00 -6.790013733825766451e+00 -7.027403209787948413e+00 -7.135866470616463175e+00 -7.301470639885854652e+00 -7.431060682187489164e+00 -7.606297912515699089e+00 -7.686802147129170315e+00 -7.880025895466534536e+00 -7.943510501901503318e+00 -7.996723304222928874e+00 -8.135789085465036763e+00 -8.267087167492032762e+00 -8.267087167492032762e+00 -8.398385249519026985e+00 -8.529683331546021208e+00 -8.571192181246585662e+00 -8.638361982801303185e+00 -8.737872330811143229e+00 -8.804341787925892504e+00 -8.884384717081097449e+00 -8.919040523406348342e+00 -8.958752499128348035e+00 -9.040355965759777845e+00 -9.100482716285061002e+00 -9.100482716285061002e+00 -9.178122037857637139e+00 -9.270899099629637874e+00 -9.270899099629637874e+00 -9.299838718626388001e+00 -9.364939753701946756e+00 -9.387718303119681806e+00 -9.424722962866841414e+00 -9.477224782456215024e+00 -9.498765742532238932e+00 -9.568222059429974280e+00 -9.567132323058423538e+00 -9.638209770331304327e+00 -9.689772646181440408e+00 -9.733651617279392099e+00 -9.733651617279392099e+00 -9.774403002347254343e+00 -9.832687873178659999e+00 -9.827035963313479172e+00 -9.870144660581914309e+00 -9.918542357933537446e+00 -9.961855184123761475e+00 -9.983981829658214124e+00 -9.995139325050658385e+00 -1.001443689640904289e+01 -1.007729763006018686e+01 -1.010852610728893097e+01 -1.010852610728893097e+01 -1.016510754590663801e+01 -1.019371506767087610e+01 -1.021202748006796845e+01 -1.021994760033418004e+01 -1.028705430832570755e+01
2.071476430142520087e-01 4.892321383549551594e-01 5.632578875190237255e-01 8.250385785689619000e-01 8.964499497764404357e-01 8.236403180462787965e-01 8.236403180462787965e-01 7.253564731915431718e-01 6.040191202422015015e-01 4.579772579180053649e-01 5.332446837385292904e-01 4.690662355803494332e-01 5.008149428351816868e-01 2.584632602129661172e-01 7.731832567852725546e-02 -2.232722155603050762e-02 -3.209171597548225452e-01 -9.068521490581059608e-01 -9.068521490581059608e-01 -1.550733522881136306e+00 -2.203595091880735879e+00 -2.430136993496351483e+00 -2.545833199440473038e+00 -2.724453089720358712e+00 -2.786966383748402443e+00 -2.768893475917938662e+00 -2.939270859284179416e+00 -3.010020538806098322e+00 -3.156648402576099244e+00 -3.289024795455221195e+00 -3.319272257445925245e+00 -3.514371694935729984e+00 -3.750177623502652935e+00 -3.777205904126384350e+00 -3.585761245232392369e+00 -3.143147573124399852e+00 -2.936712309401156240e+00 -2.936712309401156240e+00 -3.397463660617055403e+00 -3.856712672749051052e+00 -4.033868495714022728e+00 -4.259865149270519957e+00 -4.597159472112537060e+00 -4.760851302566296184e+00 -5.011327492564217501e+00 -5.136923833941502870e+00 -5.201571339843198416e+00 -5.344838272108608734e+00 -5.472327439776035085e+00 -5.472327439776035085e+00 -5.635908052639210908e+00 -5.799488665502385842e+00 -5.914138872382266321e+00 -5.978843996007769945e+00 -6.194069678082101404e+00 -6.296311220803148423e+00 -6.472369137216697155e+00 -6.571624982043724472e+00 -6.678534142190916789e+00 -6.904445204117364732e+00 -7.025351314119628654e+00 -7.136788505952191386e+00 -7.328215128330982431e+00 -7.486467840388261408e+00 -7.486467840388261408e+00 -7.653116755104130142e+00 -7.835163961984562775e+00 -7.943510501901503318e+00 -8.007876400596577682e+00 -8.145366504574612421e+00 -8.206226836033323480e+00 -8.337524918060317702e+00 -8.407962668628602643e+00 -8.468823000087311925e+00 -8.580409792958679560e+00 -8.699676608379565579e+00 -8.699676608379565579e+00 -8.817119630821027343e+00 -8.899355476726647396e+00 -8.919040523406348342e+00 -8.964397633527159570e+00 -9.043682483705675068e+00 -9.057405192220418400e+00 -9.144179415771223063e+00 -9.182074398666539850e+00 -9.205749651227504771e+00 -9.281437915768513847e+00 -9.340808245205248994e+00 -9.340808245205248994e+00 -9.398112094322248922e+00 -9.472712813712988122e+00 -9.477224782456215024e+00 -9.507347605713320604e+00 -9.573875052664478247e+00 -9.567132323058423538e+00 -9.645265248895871224e+00 -9.694189219471592622e+00 -9.698916617313965816e+00 -9.739693452700841192e+00 -9.784856688639530731e+00 -9.798299211905597161e+00 -9.827485845520337548e+00 -9.913233489492885298e+00 -9.913233489492885298e+00 -9.961086991176852479e+00 -9.996868647631565352e+00 -9.995139325050658385e+00 -1.001454077065192294e+01 -1.008931249308527001e+01 -1.009632562170827796e+01 -1.012582008602058359e+01 -1.018158051884305415e+01 -1.018663596644868541e+01 -1.021105563322284127e+01 -1.026021965946512893e+01 -1.026021965946512893e+01
1.433514747630967312e-01 1.830726750688455029e-01 6.425133648720072754e-01 6.425133648720072754e-01 8.408121309567635482e-01 8.092027163318725735e-01 7.527412631839061063e-01 7.066401110953330900e-01 5.602592655738205529e-01 5.731169363873920286e-01 5.018902557098394723e-01 3.987784209720006690e-01 4.287027924421106251e-01 1.689294945492692823e-01 -1.038266088559115508e-01 -1.038266088559115508e-01 -4.009807430675521589e-01 -9.917430796667563442e-01 -1.277963732375827943e+00 -1.620054237530958563e+00 -2.188302275687674658e+00 -2.352939882529651694e+00 -2.683585730328216457e+00 -2.684810217721426362e+00 -2.725677577113568617e+00 -2.885620227654712266e+00 -3.077644325538534176e+00 -3.077644325538534176e+00 -3.258777333464517589e+00 -3.409542909504647668e+00 -3.447525752990790782e+00 -3.597884394183479273e+00 -3.815088977321106967e+00 -3.777205904126384350e+00 -3.546355797642724905e+00 -3.119628181260502231e+00 -2.923212743879306075e+00 -3.179508408557111920e+00 -3.388401870049564391e+00 -3.636991401670109703e+00 -4.092230178482907377e+00 -4.433467641658777936e+00 -4.433467641658777936e+00 -4.729838373521114470e+00 -5.009508134891270892e+00 -5.136923833941502870e+00 -5.162855677107721419e+00 -5.318027540798214936e+00 -5.423729488359808393e+00 -5.573387143216782746e+00 -5.617169150786287979e+00 -5.719149440693243491e+00 -5.861738492174171533e+00 -6.075358968664628989e+00 -6.075358968664628989e+00 -6.277818376620500018e+00 -6.467730157662177959e+00 -6.571624982043724472e+00 -6.670049499820640548e+00 -6.905212553690682320e+00 -7.025351314119628654e+00 -7.227479231867807385e+00 -7.336792433222655063e+00 -7.426711451367507877e+00 -7.571062796665430028e+00 -7.742621655805110414e+00 -7.742621655805110414e+00 -7.928770366152321003e+00 -8.066267240773665748e+00 -8.145366504574612421e+00 -8.207912766414638739e+00 -8.347102337169895137e+00 -8.407962668628602643e+00 -8.478400419196887583e+00 -8.589627404670771682e+00 -8.656203515049689656e+00 -8.749930935813658550e+00 -8.830084069648837186e+00 -8.833438964864029685e+00 -8.923913070347252230e+00 -9.035572125980394276e+00 -9.035572125980394276e+00 -9.062515379011065519e+00 -9.148776647088077141e+00 -9.182074398666539850e+00 -9.214019892107106813e+00 -9.281120948630073642e+00 -9.308854251634349097e+00 -9.374482942393909113e+00 -9.408505885524816037e+00 -9.433187535045348682e+00 -9.484402189683933670e+00 -9.548899917520316194e+00 -9.548899917520316194e+00 -9.572276949313280880e+00 -9.649235782228881675e+00 -9.694189219471592622e+00 -9.707495074211511366e+00 -9.752297658981811779e+00 -9.784856688639530731e+00 -9.830371414524755380e+00 -9.829953750959742109e+00 -9.877753684085181618e+00 -9.918645133360282529e+00 -9.953476646049901788e+00 -9.953476646049901788e+00 -9.997223247435616855e+00 -1.009536829217050524e+01 -1.009536829217050524e+01 -1.009885384838758426e+01 -1.012807065663120198e+01 -1.018158051884305415e+01 -1.017886723736410737e+01 -1.021139093643190066e+01 -1.022102858660164415e+01 -1.029166508258505530e+01
1.842316767531859689e-01 2.346665555471567077e-01 7.572309985117191278e-02 6.322784698875443254e-01 8.337184019026002701e-01 8.337184019026002701e-01 7.427307204479578484e-01 6.578898248928617409e-01 5.602592655738205529e-01 3.436070422660574275e-01 2.697068429171980419e-01 3.987784209720006690e-01 3.937787305591992082e-01 1.341014437586818264e-01 -7.444225276897087351e-03 -3.437986580513655577e-01 -3.438098712323534034e-01 -5.883008930744262344e-01 -1.216612050938628231e+00 -1.922750254076474485e+00 -1.922750254076474485e+00 -2.347930566267645069e+00 -2.643942858329284107e+00 -2.684810217721426362e+00 -2.746136344336286061e+00 -2.909247041436774595e+00 -3.000162670746147953e+00 -3.199786794879295737e+00 -3.285011693497004615e+00 -3.379295447513944062e+00 -3.531038452238540959e+00 -3.748243035376168208e+00 -3.748243035376168208e+00 -3.732587734018866676e+00 -3.325331876465501324e+00 -3.119628181260502231e+00 -2.898249427180153770e+00 -3.119829877850814448e+00 -3.388401870049564391e+00 -3.848290200290755081e+00 -4.180479845484116552e+00 -4.286986597552040479e+00 -4.599495596448630153e+00 -4.912004595345220714e+00 -4.912004595345220714e+00 -5.098232423283603154e+00 -5.248238752796715367e+00 -5.248238752796715367e+00 -5.399474535891199523e+00 -5.535904704912459451e+00 -5.617169150786287979e+00 -5.685034182754399978e+00 -5.856692469996293227e+00 -5.956648259247156574e+00 -6.170268735737614918e+00 -6.259649545390104208e+00 -6.362077144051603739e+00 -6.568370605498435211e+00 -6.785073793261735986e+00 -6.785073793261735986e+00 -7.016580744931518510e+00 -7.229102802718784915e+00 -7.336792433222655063e+00 -7.412158955756792622e+00 -7.575817650831546679e+00 -7.650043926143654360e+00 -7.833315323465115831e+00 -7.957930955045341648e+00 -8.019456124191902902e+00 -8.145304858703001472e+00 -8.280751691324317321e+00 -8.280751691324317321e+00 -8.417540087738178300e+00 -8.548838169765174300e+00 -8.589627404670771682e+00 -8.664892023602845939e+00 -8.759166917749009684e+00 -8.830084069648837186e+00 -8.914326236372199119e+00 -8.928785617288157894e+00 -8.970042767925969329e+00 -9.047009001651572291e+00 -9.078197320785166724e+00 -9.110553909517562943e+00 -9.181847213071211655e+00 -9.273908265989962985e+00 -9.273908265989962985e+00 -9.317869784642311970e+00 -9.384026131085873246e+00 -9.408505885524816037e+00 -9.442950239324433781e+00 -9.491579596911652317e+00 -9.515943307412065622e+00 -9.577506192623413739e+00 -9.577421575568138223e+00 -9.652320727460438121e+00 -9.698605792761746613e+00 -9.735148245798017186e+00 -9.735148245798017186e+00 -9.794514255455863960e+00 -9.832637795153990723e+00 -9.829953750959742109e+00 -9.885362707588447151e+00 -9.918747908787025835e+00 -9.957191166377400648e+00 -1.000324130778270870e+01 -1.000124523817384770e+01 -1.011587540071765545e+01 -1.010132735611035493e+01 -1.011236210249063028e+01 -1.013032122724182216e+01 -1.018256964527179775e+01 -1.019275467641500654e+01 -1.022582968818363014e+01 -1.022582968818363014e+01 -1.028809572676456341e+01
4.509652135965458997e-01 2.346665555471567077e-01 2.186999138340554871e-01 9.187833320597116327e-02 7.481371202703728240e-01 7.741846577891994263e-01 7.279428267255243501e-01 7.321489081367762441e-01 4.909077044860450378e-01 1.406352648623953594e-01 1.406352648623953594e-01 4.052287256743197785e-03 3.081768548378274741e-01 1.341014437586818264e-01 1.125595341887958289e-02 -2.004120946499689249e-01 -3.438098712323534034e-01 -8.556693240359098951e-01 -1.213757138671242686e+00 -1.578844003136986363e+00 -2.251539521488785667e+00 -2.431444749222088753e+00 -2.572167251003061317e+00 -2.737855864487665158e+00 -2.862566364156312382e+00 -2.862566364156312382e+00 -3.029960272633334117e+00 -3.181194880247994128e+00 -3.285011693497004615e+00 -3.398244655275480586e+00 -3.616212247388404855e+00 -3.681397093431229450e+00 -3.794576965517851619e+00 -3.680461071885813951e+00 -3.518788627430449623e+00 -3.109186272254346850e+00 -2.868077873482500095e+00 -2.868077873482500095e+00 -3.311146215893255640e+00 -3.958115530050618336e+00 -4.180479845484116552e+00 -4.433396432298327028e+00 -4.725777615361073103e+00 -4.818891105353147353e+00 -5.040378996554832902e+00 -5.135845708546428412e+00 -5.177781562130326698e+00 -5.328842208007835701e+00 -5.464876706903557313e+00 -5.464876706903557313e+00 -5.604661301062849432e+00 -5.791465802498996673e+00 -5.856692469996293227e+00 -5.954911147159174689e+00 -6.146467793393128431e+00 -6.259649545390104208e+00 -6.463091178107660539e+00 -6.570839132572396935e+00 -6.675901349717381805e+00 -6.896441984502571287e+00 -7.007810175743408365e+00 -7.096892603485528639e+00 -7.344647743286264685e+00 -7.496865271896961502e+00 -7.496865271896961502e+00 -7.670580264131196202e+00 -7.869099081124294237e+00 -7.957930955045341648e+00 -8.020762974422892100e+00 -8.176096103175611418e+00 -8.223977870954243485e+00 -8.356877500722170282e+00 -8.433003310120021467e+00 -8.487977838306465017e+00 -8.598845016382863804e+00 -8.715371246307215714e+00 -8.767672013262737707e+00 -8.843387166189426551e+00 -8.919031732636282683e+00 -8.975687902324782641e+00 -8.975687902324782641e+00 -9.050335519597471290e+00 -9.115202493859902333e+00 -9.151207032394577112e+00 -9.184012906586849212e+00 -9.275412849170125540e+00 -9.280803981491633436e+00 -9.356499453521186283e+00 -9.393535885863862234e+00 -9.418025717190552371e+00 -9.490008543150267428e+00 -9.524539009110808863e+00 -9.524539009110808863e+00 -9.581137332582347454e+00 -9.655343149792166457e+00 -9.655343149792166457e+00 -9.703022366051900605e+00 -9.740065151291126710e+00 -9.789101044054802969e+00 -9.804092548868116097e+00 -9.844956360429694797e+00 -9.835746510792528596e+00 -9.919691537092305111e+00 -9.918850684213772695e+00 -9.953295341577947042e+00 -1.000898360773222606e+01 -1.002434875114901658e+01 -1.002434875114901658e+01 -1.011334221913543985e+01 -1.011485759252663996e+01 -1.013032122724182216e+01 -1.016867269228762538e+01 -1.020949492745491938e+01 -1.021181894134394419e+01 -1.027096728952964888e+01 -1.028963900058933056e+01
6.020042192358783240e-01 3.845699849776121892e-01 1.595633374691861617e-01 1.595633374691861617e-01 4.603786311094753558e-01 6.782473248121143605e-01 7.279428267255243501e-01 6.845506260869365089e-01 3.806357647939740962e-01 1.748138658696871128e-01 -1.074684977841638273e-02 1.260734903706559745e-02 3.215422925747123406e-01 1.654809477481445634e-01 -1.302111026372095581e-01 -1.302111026372095581e-01 -3.693831128922065443e-01 -8.930033055737149894e-01 -1.213757138671242686e+00 -1.552871025362623669e+00 -2.259448891006872628e+00 -2.431444749222088753e+00 -2.668410603003406045e+00 -2.755390571712742709e+00 -2.807747964423392695e+00 -2.947874458791844177e+00 -3.128487059433357143e+00 -3.128487059433357143e+00 -3.302350296547386321e+00 -3.549392075656450096e+00 -3.616212247388404855e+00 -3.544393437798019963e+00 -3.609758831524825240e+00 -3.680461071885813951e+00 -3.345678851782130536e+00 -3.112341092147591581e+00 -2.833608658047501727e+00 -3.115114929130827548e+00 -3.458597983227165162e+00 -3.703730352046398888e+00 -4.269072803678639616e+00 -4.637405022542970379e+00 -4.637405022542970379e+00 -4.884723668753141901e+00 -5.060043246401757067e+00 -5.224401090853202589e+00 -5.224401090853202589e+00 -5.342235253640732040e+00 -5.474839787028484395e+00 -5.529120057351237350e+00 -5.608048258535323072e+00 -5.775718638284113027e+00 -5.851103679281271397e+00 -6.041397381380399167e+00 -6.133675343953648884e+00 -6.248001353958278159e+00 -6.451891829484379670e+00 -6.667599807024151559e+00 -6.667599807024151559e+00 -6.903872770150630167e+00 -7.087471710855558271e+00 -7.225963012075574454e+00 -7.343348628359928298e+00 -7.507742294564406116e+00 -7.588408070401474248e+00 -7.765736976329502994e+00 -7.871734067214646302e+00 -7.954264515435802707e+00 -8.131642986082086466e+00 -8.175631281768019676e+00 -8.266967501484881353e+00 -8.383259848272789583e+00 -8.509129119517876205e+00 -8.509129119517876205e+00 -8.608062628094955926e+00 -8.723603896172500427e+00 -8.767672013262737707e+00 -8.846936336967337056e+00 -8.923642450890840294e+00 -8.933658164229061782e+00 -9.034995080528982925e+00 -9.053845445589489671e+00 -9.095316566825365712e+00 -9.157024860245494224e+00 -9.230560373866309121e+00 -9.230560373866309121e+00 -9.280487014353195008e+00 -9.364345057679154039e+00 -9.393535885863862234e+00 -9.427114355480751939e+00 -9.498656407868907081e+00 -9.498757004139369187e+00 -9.560953804916236365e+00 -9.584768472541282947e+00 -9.584690094464484389e+00 -9.656018742052946635e+00 -9.730301557578078686e+00 -9.730301557578078686e+00 -9.825904429127792383e+00 -9.819587076035880102e+00 -9.844956360429694797e+00 -9.841539270625316860e+00 -9.922920560892013242e+00 -9.918850684213772695e+00 -9.972415314344301507e+00 -9.994227101366151444e+00 -1.001263229891398332e+01 -1.013638250926481099e+01 -1.012535708216052477e+01 -1.010391030174620575e+01 -1.013257179785244233e+01 -1.018612425902317753e+01 -1.018612425902317753e+01 -1.021224694625599128e+01 -1.026822703858940677e+01 -1.028963900058933056e+01
4.832945749945078973e-01 3.698333582140477249e-01 2.652641894681194157e-01 3.440663020898537122e-02 6.361732122927046262e-01 6.361732122927046262e-01 6.397904328319679035e-01 5.680049426887153752e-01 5.680049426887153752e-01 1.898638961791237756e-01 -5.347143062956983411e-02 1.260734903706559745e-02 1.207976464001607880e-01 1.123121113958334416e-01 -1.157259102047930865e-01 -2.241889364231702819e-01 -3.546599054558794428e-01 -9.352668468229021759e-01 -1.243575356530921772e+00 -1.962932825748784582e+00 -2.348838905964846457e+00 -2.517032857201020324e+00 -2.751838245234955682e+00 -2.846231919278180644e+00 -2.846231919278180644e+00 -3.029777040217968676e+00 -3.209080610542311529e+00 -3.253310173634637259e+00 -3.408973641236060725e+00 -3.446375886306144221e+00 -3.480123513397640700e+00 -3.458286015625501975e+00 -3.370860834951030061e+00 -3.369685102993716264e+00 -3.136347343359177753e+00 -2.903009583724638354e+00 -2.903009583724638354e+00 -3.213465614407931437e+00 -3.789665789681032848e+00 -4.034741320138564014e+00 -4.365708602074597877e+00 -4.642537276632416443e+00 -4.760249974961416441e+00 -5.001397185898790454e+00 -5.076965747972151277e+00 -5.150683419412676933e+00 -5.292405300305032867e+00 -5.360409509756863145e+00 -5.413377573182239999e+00 -5.539085810308582936e+00 -5.697056234216097970e+00 -5.697056234216097970e+00 -5.846757905836077462e+00 -6.035971860412313816e+00 -6.133675343953648884e+00 -6.245515818437436195e+00 -6.451338866808694839e+00 -6.556606657105639613e+00 -6.784395862249994913e+00 -6.895118739994648749e+00 -7.028158962321469971e+00 -7.214408112814443719e+00 -7.417152491893610033e+00 -7.417152491893610033e+00 -7.603544840296142304e+00 -7.769291807021739160e+00 -7.871734067214646302e+00 -7.956102061286550509e+00 -8.100704770820767564e+00 -8.175631281768019676e+00 -8.311952826638814074e+00 -8.362269664668081859e+00 -8.435745342063704300e+00 -8.549836904958930006e+00 -8.694887378444066783e+00 -8.694887378444066783e+00 -8.774117465166266783e+00 -8.870132426609675491e+00 -8.923642450890840294e+00 -8.939548180545918044e+00 -9.028385440236178283e+00 -9.053845445589489671e+00 -9.105497518669460888e+00 -9.166079549174110497e+00 -9.188682298760292966e+00 -9.273403866383102212e+00 -9.284429380281498112e+00 -9.336193912612475998e+00 -9.400796789144422405e+00 -9.460624584789830038e+00 -9.460624584789830038e+00 -9.503507667144594606e+00 -9.565220862551392145e+00 -9.584768472541282947e+00 -9.589076767217893149e+00 -9.653762157374181641e+00 -9.707438939342054596e+00 -9.744982056784236235e+00 -9.836837172198544366e+00 -9.808664751509210689e+00 -9.857085735975500640e+00 -9.897089792527108187e+00 -9.897089792527108187e+00 -9.921311004453455595e+00 -9.969952414373695504e+00 -9.994227101366151444e+00 -1.002437610173450722e+01 -1.014799621059231782e+01 -1.012535708216052477e+01 -1.011735308256264787e+01 -1.013466524706300653e+01 -1.015477573930345656e+01 -1.022298029028362976e+01 -1.023179248904183680e+01 -1.023179248904183680e+01 -1.029211953239324018e+01
4.586719762074871753e-01 2.842578548886016132e-01 2.842578548886016132e-01 -1.184534026449694452e-02 5.085653379931539542e-01 5.798406390395861587e-01 4.250413381286119452e-01 3.415173382640699917e-01 3.159866868330588052e-01 6.781744977326180368e-02 -2.734975625808863664e-02 -1.707415412738619298e-01 2.049602472716653134e-01 -2.468012233216031887e-02 -2.468012233216031887e-02 -2.527344717737113888e-01 -5.748284498193888536e-01 -9.352668468229021759e-01 -1.303096110152657472e+00 -2.003538281074746408e+00 -2.348838905964846457e+00 -2.706313567967701950e+00 -2.875803616994484280e+00 -2.882930902114429372e+00 -3.045364675860168013e+00 -3.181773137081807867e+00 -3.223380795107623431e+00 -3.390502187156028580e+00 -3.431541079774902858e+00 -3.431541079774902858e+00 -3.385784066002243797e+00 -3.326360729371587777e+00 -3.370860834951030061e+00 -3.212713506412439912e+00 -3.082708473474808919e+00 -2.972609366122043628e+00 -2.967242246172227205e+00 -3.303592220333312124e+00 -3.544035977861408782e+00 -4.116569972695256041e+00 -4.555481563645882304e+00 -4.555481563645882304e+00 -4.791193876245420924e+00 -5.022439035582245026e+00 -5.076965747972151277e+00 -5.158202423238854806e+00 -5.276504744077247011e+00 -5.360409509756863145e+00 -5.479081251099017891e+00 -5.545291582692087218e+00 -5.606529613891074071e+00 -5.786064209896873756e+00 -5.938834404798165600e+00 -5.938834404798165600e+00 -6.131355997532973667e+00 -6.345125282652815280e+00 -6.345125282652815280e+00 -6.543344522101003591e+00 -6.745224285292458433e+00 -6.895118739994648749e+00 -7.047319003208555976e+00 -7.202813495521406928e+00 -7.335987836676357787e+00 -7.522104956920991903e+00 -7.611156431086600449e+00 -7.691682743209419471e+00 -7.866738217330651040e+00 -8.025698572883431581e+00 -8.025698572883431581e+00 -8.163744504143226166e+00 -8.289544179513516298e+00 -8.362269664668081859e+00 -8.392172908450756807e+00 -8.532757727822858129e+00 -8.598988864247965935e+00 -8.729212960060559467e+00 -8.777242586952931802e+00 -8.837647779918370361e+00 -8.923273592321002923e+00 -8.987419754485257428e+00 -8.987419754485257428e+00 -9.065071297591780208e+00 -9.124183939297692447e+00 -9.166079549174110497e+00 -9.200630591406309122e+00 -9.261045774677803877e+00 -9.284429380281498112e+00 -9.364632237099684176e+00 -9.405007645525046200e+00 -9.432210997363004168e+00 -9.500866139910829844e+00 -9.538048303423474650e+00 -9.538048303423474650e+00 -9.586457811781919247e+00 -9.631148985004024610e+00 -9.631148985004024610e+00 -9.703728872505042347e+00 -9.742289712535955104e+00 -9.836837172198544366e+00 -9.799916365908075022e+00 -9.855703375740294092e+00 -9.843192986168242342e+00 -9.921486424257842884e+00 -9.925423550377198367e+00 -9.943801525531291929e+00 -9.984414932683566946e+00 -1.003004281562395761e+01 -1.003004281562395761e+01 -1.011894825986806801e+01 -1.012260666414908350e+01 -1.013466524706300653e+01 -1.014172692961935951e+01 -1.021078803294959059e+01 -1.021349289523978321e+01 -1.026688071136997316e+01 -1.029560267661971729e+01
4.455387004463898792e-01 3.531777025915832091e-01 1.357497161442611511e-01 4.372756065871872405e-02 3.372017569372874890e-01 4.898769132204947585e-01 4.395737844205381828e-01 4.395737844205381828e-01 3.206388566313648214e-01 7.277727622420855635e-02 -2.734975625808863664e-02 -1.300852107180726080e-01 5.130378941932264153e-02 4.359870491498083617e-02 -1.812005634280084432e-01 -3.374450569208227169e-01 -3.672744269671058270e-01 -9.577954852625577553e-01 -1.658237656184646358e+00 -1.658237656184646358e+00 -2.414242013902850648e+00 -2.831518227505327889e+00 -2.875803616994484280e+00 -2.965174980998870780e+00 -3.084500688209135255e+00 -3.181773137081807867e+00 -3.276389122621621297e+00 -3.319771865778640141e+00 -3.363771014358969413e+00 -3.340427367480289345e+00 -3.266377218899991774e+00 -3.266377218899991774e+00 -3.200367294844533195e+00 -3.053603583118569276e+00 -3.053603583118569276e+00 -2.935591821354784692e+00 -3.091170882619171056e+00 -3.303592220333312124e+00 -3.712386891983514126e+00 -4.280972045303470530e+00 -4.440762526973224489e+00 -4.689018091274363087e+00 -4.835053498362034574e+00 -4.915461639002595362e+00 -5.114184221172912714e+00 -5.235493615322893923e+00 -5.235493615322893923e+00 -5.359532419785469237e+00 -5.480597635081526420e+00 -5.545291582692087218e+00 -5.611501914285155657e+00 -5.783571935941984599e+00 -5.855559316025543026e+00 -6.030546339444227577e+00 -6.125719902183200283e+00 -6.240865833952558894e+00 -6.462984692926921682e+00 -6.680948342122564831e+00 -6.680948342122564831e+00 -6.866515609899417782e+00 -7.083441302859226241e+00 -7.202813495521406928e+00 -7.327848848171386820e+00 -7.507425736726802690e+00 -7.611156431086600449e+00 -7.757725467873433089e+00 -7.871733418858975817e+00 -7.964381097714400504e+00 -8.088778674161389404e+00 -8.126447672205129535e+00 -8.216818694358948960e+00 -8.325941772025650778e+00 -8.466526591397752100e+00 -8.466526591397752100e+00 -8.607111410769853421e+00 -8.734067173816010055e+00 -8.777242586952931802e+00 -8.827919185536305946e+00 -8.926547144283540902e+00 -8.958460921233783125e+00 -9.034650759368727080e+00 -9.086617872754938929e+00 -9.107698457791165936e+00 -9.175885168288553828e+00 -9.248233778606287814e+00 -9.248233778606287814e+00 -9.307606121847854297e+00 -9.362426473946168670e+00 -9.436356526931286126e+00 -9.436356526931286126e+00 -9.501351970946210201e+00 -9.542418137642359355e+00 -9.566204656979349963e+00 -9.587853896473442106e+00 -9.620092266107754142e+00 -9.652258378482903467e+00 -9.738681908655744124e+00 -9.737440719184226268e+00 -9.814117931043821130e+00 -9.815959193907410452e+00 -9.840987070183723873e+00 -9.840987070183723873e+00 -9.915719910518053126e+00 -9.942147716935682666e+00 -9.942147716935682666e+00 -9.976679629377345648e+00 -1.002467507615713771e+01 -1.013193163061533575e+01 -1.010616516264766496e+01 -1.011958090090763918e+01 -1.013731435858091778e+01 -1.019987081005255192e+01 -1.019930185179291904e+01 -1.021582933909970947e+01 -1.026677637027715839e+01 -1.031291332749234790e+01
4.455387004463898792e-01 2.536037443646618206e-01 -1.664099388940006030e-02 4.372756065871872405e-02 5.287300564348292875e-01 3.955391613903452841e-01 4.729193617239537684e-01 4.762026722862491290e-01 3.848537811716430390e-01 1.868940504951976389e-01 -4.865630354297403176e-02 -1.447352844840422148e-01 -1.447352844840422148e-01 -9.589872069568863844e-02 -3.076156868745395512e-01 -3.374450569208227169e-01 -4.271897249883213066e-01 -9.702548885785446942e-01 -1.312937031294546752e+00 -2.053022273165946210e+00 -2.476956585717720039e+00 -2.744323839094780837e+00 -2.894060824415545685e+00 -3.015506340707913235e+00 -3.015506340707913235e+00 -3.134816862761636180e+00 -3.275772717198311312e+00 -3.319771865778640141e+00 -3.281932746004230239e+00 -3.264828327976737832e+00 -3.264546294066052567e+00 -3.205655040076724305e+00 -3.098612070174895816e+00 -3.001523901588561305e+00 -2.833270728256920723e+00 -2.874624772997749655e+00 -2.874624772997749655e+00 -3.499974682746623600e+00 -4.121181563633715683e+00 -4.280972045303470530e+00 -4.522737608166523593e+00 -4.780073461844217775e+00 -4.835053498362034574e+00 -4.966669230972625471e+00 -5.113565865363402629e+00 -5.188244601069266437e+00 -5.302993765806799153e+00 -5.374330933791286569e+00 -5.426305058873396980e+00 -5.575905182034697205e+00 -5.683407737729997855e+00 -5.683407737729997855e+00 -5.870073714667843667e+00 -6.017155748740230514e+00 -6.125719902183200283e+00 -6.232144221174511500e+00 -6.441041320293836137e+00 -6.631887144697869552e+00 -6.735742311735343435e+00 -6.851278190756354469e+00 -7.078369048499379090e+00 -7.190175738840069997e+00 -7.412633826565097728e+00 -7.496410053337331014e+00 -7.593396705442488681e+00 -7.776044227071039927e+00 -7.953813191203058963e+00 -7.953813191203058963e+00 -8.054305260984104819e+00 -8.193479499175435166e+00 -8.259710635600542972e+00 -8.334064318547536487e+00 -8.474649137919637809e+00 -8.540880274344743839e+00 -8.698054516542409687e+00 -8.738921387571464194e+00 -8.779608397321609914e+00 -8.901033171702945168e+00 -8.983793600771967647e+00 -8.983793600771967647e+00 -9.045718446587423855e+00 -9.109899396912870984e+00 -9.109899396912870984e+00 -9.185690787402997159e+00 -9.267454687409514946e+00 -9.276286085660176539e+00 -9.335749362446469135e+00 -9.364872890205138134e+00 -9.409218501905671772e+00 -9.465789091167032154e+00 -9.500914506950346450e+00 -9.515142555372085198e+00 -9.567188451407309557e+00 -9.597632816768381758e+00 -9.597632816768381758e+00 -9.676431261552519203e+00 -9.731385788717918928e+00 -9.737440719184226268e+00 -9.791398689889096119e+00 -9.811843895968664242e+00 -9.854321015505089321e+00 -9.883186171543687948e+00 -9.909953396778261592e+00 -9.929536096300939363e+00 -9.962330956035618357e+00 -1.002539907541308750e+01 -1.002539907541308750e+01 -1.011586705063835723e+01 -1.010255006777861553e+01 -1.011958090090763918e+01 -1.014690735631495855e+01 -1.020741150587865675e+01 -1.019930185179291904e+01 -1.024790996123606313e+01 -1.026673959207511899e+01 -1.029888626600636492e+01
3.185939793209820459e-01 6.323626406900363650e-02 6.323626406900363650e-02 -1.391441864904131853e-01 4.594961878880038375e-01 3.955391613903452841e-01 2.336872636819810889e-01 3.112207694435161764e-01 3.848537811716430390e-01 5.448055675903099027e-02 -8.378851672371462334e-02 -1.346601569981327184e-01 -2.574292800277976911e-01 -2.927333768522529245e-01 -2.927333768522529245e-01 -2.623263295278482898e-01 -6.622602960595163069e-01 -9.702548885785446942e-01 -1.322327184108114118e+00 -2.081634372637281238e+00 -2.476956585717720039e+00 -2.760506554960445058e+00 -2.958131109085221588e+00 -2.976562800583106405e+00 -3.070742772076271887e+00 -3.118807516239376909e+00 -3.204021021250991197e+00 -3.243923454821584507e+00 -3.273769618238157264e+00 -3.204053544999195147e+00 -3.200102251325690261e+00 -3.098223858477478387e+00 -2.870467480722013853e+00 -2.870467480722013853e+00 -2.811322830808378193e+00 -3.030407487247743781e+00 -3.190802501377734579e+00 -3.619593609055368422e+00 -4.132583485011816826e+00 -4.389874768543474914e+00 -4.698873095648464115e+00 -4.800428366199501085e+00 -4.882731173831838412e+00 -5.046879131115909800e+00 -5.203589553755683106e+00 -5.203589553755683106e+00 -5.319651613819210922e+00 -5.446054398770119320e+00 -5.503057389338687599e+00 -5.570656574157247576e+00 -5.706514140532501500e+00 -5.789032024771827878e+00 -5.907727909712273906e+00 -6.041720717310989031e+00 -6.117187685237210459e+00 -6.325945552798000193e+00 -6.431705399956236135e+00 -6.558123524318961728e+00 -6.735196634704919028e+00 -6.962287492447943649e+00 -6.962287492447943649e+00 -7.189378350190970046e+00 -7.414661204060116084e+00 -7.496410053337331014e+00 -7.585268766879589286e+00 -7.769705186361772320e+00 -7.864568759510810914e+00 -7.986663543378226926e+00 -8.061017226325221330e+00 -8.127248362750329136e+00 -8.267833182122428681e+00 -8.408418001494530003e+00 -8.408418001494530003e+00 -8.549002820866633101e+00 -8.699638085591580250e+00 -8.738921387571464194e+00 -8.784578320770300763e+00 -8.905956495073684920e+00 -8.926953024388424751e+00 -9.005761528400269000e+00 -9.055347655448976241e+00 -9.108164447918102979e+00 -9.141333703339387995e+00 -9.204043664480531461e+00 -9.204043664480531461e+00 -9.291698652679963644e+00 -9.337398570885454774e+00 -9.364872890205138134e+00 -9.413429358286297344e+00 -9.468371344355634989e+00 -9.500914506950346450e+00 -9.529634734723227751e+00 -9.568172245835267375e+00 -9.589249981164963188e+00 -9.617496362077261551e+00 -9.679351249282031944e+00 -9.685626755565518664e+00 -9.732591725832499208e+00 -9.787403597369195296e+00 -9.787403597369195296e+00 -9.852938655269884549e+00 -9.874648459751654173e+00 -9.909953396778261592e+00 -9.927871829350051414e+00 -9.964965826432690577e+00 -9.971494877635066700e+00 -1.001930733669031781e+01 -1.009980247066137693e+01 -1.009338206542726368e+01 -1.012553379861775227e+01 -1.015315738242073351e+01 -1.015315738242073351e+01 -1.020394325426686777e+01 -1.025520981281372279e+01 -1.026673959207511899e+01 -1.030088405724253597e+01
8.335872743806843621e-01 2.790631158341892459e-01 -2.436219581070171378e-02 -2.035651887249848718e-02 2.532437171903927364e-01 2.992395565706940097e-01 1.366282112648420088e-01 4.746788780581936984e-02 7.601573461364245776e-02 -8.720253443137628013e-02 -1.788517446737423189e-01 -1.788517446737423189e-01 -2.692984724138982600e-01 -2.865312175001109574e-01 -3.659372034630711812e-01 -2.909099771385268984e-01 -6.281513059215788619e-01 -9.668067009300783665e-01 -1.729023989677697770e+00 -2.130510588291661289e+00 -2.491991342137356735e+00 -2.896260227431515233e+00 -3.014793998808340980e+00 -3.014793998808340980e+00 -3.129956922960960064e+00 -3.157884753949967038e+00 -3.204021021250991197e+00 -3.201885872487372886e+00 -3.205791743401090077e+00 -3.204053544999195147e+00 -3.132079659649741110e+00 -3.046601849598397749e+00 -3.038326045389954544e+00 -2.945126938168877828e+00 -3.202111018282909782e+00 -3.099873240003876429e+00 -3.352581385758309995e+00 -3.871841691623410409e+00 -3.871841691623410409e+00 -4.357907177196111981e+00 -4.718125558567164646e+00 -4.800428366199501085e+00 -4.903987639227164408e+00 -5.087573912493846606e+00 -5.139924688585041146e+00 -5.277545003427661641e+00 -5.341469523364732019e+00 -5.389354661906152089e+00 -5.508407338947468368e+00 -5.646349150318703103e+00 -5.646349150318703103e+00 -5.790671964672553074e+00 -5.968311540789335901e+00 -6.041720717310989031e+00 -6.112869484888156180e+00 -6.305287275593511431e+00 -6.431705399956236135e+00 -6.663883371477198558e+00 -6.733451122683164591e+00 -6.852854822841131011e+00 -7.073516636118012180e+00 -7.300387651882559226e+00 -7.300387651882559226e+00 -7.496170395937841846e+00 -7.678090241632141932e+00 -7.769705186361772320e+00 -7.851335247340668566e+00 -8.028090064845656570e+00 -8.061017226325221330e+00 -8.135370909272214845e+00 -8.275955728644316167e+00 -8.342186865069422197e+00 -8.482771684441523519e+00 -8.557125367388517034e+00 -8.623356503813624840e+00 -8.743775601326916558e+00 -8.838253193522499274e+00 -8.838253193522499274e+00 -8.924748559129678682e+00 -9.013740937033924538e+00 -9.055347655448976241e+00 -9.122807675451685583e+00 -9.160096394672997633e+00 -9.195496406517438714e+00 -9.275528802727890820e+00 -9.303669742392823849e+00 -9.363054343261225654e+00 -9.371775085671217198e+00 -9.444647586067846490e+00 -9.444647586067846490e+00 -9.500477042954480922e+00 -9.553731173089705209e+00 -9.568172245835267375e+00 -9.590646065856486047e+00 -9.620338085896943170e+00 -9.679351249282031944e+00 -9.724297459579254621e+00 -9.739223347612359305e+00 -9.768679448734372883e+00 -9.807728598029919809e+00 -9.840637905544360464e+00 -9.840637905544360464e+00 -9.904804925460005904e+00 -9.942573324111595667e+00 -9.942573324111595667e+00 -9.977113468471117130e+00 -1.001592381582262092e+01 -1.009980247066137693e+01 -1.008059896820686241e+01 -1.012337082486147466e+01 -1.015315331636880458e+01 -1.018484395286304434e+01 -1.020731843929848637e+01 -1.021304021286619701e+01 -1.026908082334999506e+01 -1.031825125188500536e+01
8.808895696008639531e-01 8.808895696008639531e-01 1.570464702444613336e-01 3.427636806983468121e-02 2.532437171903927364e-01 2.029679899424167988e-01 7.420345917968541871e-02 4.746788780581936984e-02 -3.604916096527092245e-02 -6.260774741488508988e-02 -1.237794716608618673e-01 -2.071457064086521804e-01 -2.369447185826980551e-01 -2.653568693357334918e-01 -2.466251455102886070e-01 -4.604885313602039010e-01 -4.604885313602039010e-01 -1.004353115810478148e+00 -1.740817360883250231e+00 -2.130510588291661289e+00 -2.478332172950349577e+00 -2.887353107848931177e+00 -2.951073553328636301e+00 -3.043124245955589391e+00 -3.066991302734961344e+00 -3.111748486648942880e+00 -3.155749605186349172e+00 -3.199741535893651623e+00 -3.199741535893651623e+00 -3.144257085451319433e+00 -3.058626002832986579e+00 -3.046601849598397749e+00 -2.970002521717875599e+00 -3.058708766661022871e+00 -3.202111018282909782e+00 -3.367688261204524025e+00 -3.516522350929564666e+00 -3.674425591923337286e+00 -4.153681373195357907e+00 -4.599503605156059827e+00 -4.599503605156059827e+00 -4.819292321067315754e+00 -5.005800043656669196e+00 -5.005800043656669196e+00 -5.181170822282296307e+00 -5.294008852049275404e+00 -5.341469523364732019e+00 -5.405304803625563537e+00 -5.515583951973122012e+00 -5.591873291400309753e+00 -5.726774483061521259e+00 -5.779115468796085509e+00 -5.854622890117868295e+00 -6.039460308366502161e+00 -6.213654102248865385e+00 -6.213654102248865385e+00 -6.411047122751748262e+00 -6.629047618654393403e+00 -6.733451122683164591e+00 -6.837364619642099406e+00 -7.054168715710684268e+00 -7.180962192408771649e+00 -7.391178911556163911e+00 -7.479531388290258320e+00 -7.592548430165931173e+00 -7.774468275860229483e+00 -7.937271988009690027e+00 -7.937271988009690027e+00 -8.092098237975198671e+00 -8.209724592219210138e+00 -8.275955728644316167e+00 -8.350309411591309683e+00 -8.490894230963409228e+00 -8.557125367388517034e+00 -8.701221654640750813e+00 -8.748629815082368921e+00 -8.789039646599462685e+00 -8.908164963960865990e+00 -8.934853612783522081e+00 -8.982578003370997877e+00 -9.063885100095902203e+00 -9.129577354267089717e+00 -9.129577354267089717e+00 -9.204188353669298550e+00 -9.285318433688683371e+00 -9.303669742392823849e+00 -9.344215325835790509e+00 -9.378889434195240682e+00 -9.417911403896226830e+00 -9.470953597544236047e+00 -9.500039578958617170e+00 -9.530097853092318161e+00 -9.569156040263226970e+00 -9.606145519315649750e+00 -9.606145519315649750e+00 -9.653020318771616815e+00 -9.717209130440590314e+00 -9.750788308962114570e+00 -9.750788308962114570e+00 -9.805621020236293006e+00 -9.841781983665230271e+00 -9.866110747959623950e+00 -9.902958769180864707e+00 -9.936424561301254954e+00 -9.964783467688981489e+00 -1.002518383092567689e+01 -1.001470343945775987e+01 -1.008373789068439841e+01 -1.009954389676853737e+01 -1.015939927642265062e+01 -1.015939927642265062e+01 -1.016342694099796162e+01 -1.022384813689200378e+01 -1.025746207219801143e+01 -1.027142205462487112e+01 -1.032064352940626506e+01
6.321143195437526341e-01 6.897370905415858289e-01 4.403432002289669467e-01 1.674811774909790163e-02 5.456564179327182823e-02 1.073310506511366835e-01 1.073310506511366835e-01 -1.911802326490065485e-02 -4.279069255242250874e-02 -6.260774741488508988e-02 -1.093785759435961374e-01 -2.019023427191394826e-01 -2.369447185826980551e-01 -2.251843092540676272e-01 -3.597178844465341863e-01 -2.590278228743613242e-01 -6.675045012909892606e-01 -1.204254504616697030e+00 -1.413670336022804896e+00 -2.166715021230464000e+00 -2.872146236210408432e+00 -2.872146236210408432e+00 -2.942644657733697766e+00 -3.040989651063171095e+00 -3.066991302734961344e+00 -3.136506369892877011e+00 -3.177301251918103198e+00 -3.185210061476652754e+00 -3.189427848093285611e+00 -3.150879695584850371e+00 -3.090656106390229585e+00 -2.991884364687174003e+00 -2.882977751197216776e+00 -2.882977751197216776e+00 -3.018979518620868330e+00 -3.242465264795676205e+00 -3.516522350929564666e+00 -3.844066165340996211e+00 -4.274150560271176680e+00 -4.411952225866339283e+00 -4.749919172023672864e+00 -4.877077743175777691e+00 -4.941438893416223443e+00 -5.121729848641000338e+00 -5.238756021190577705e+00 -5.238756021190577705e+00 -5.357994439104373896e+00 -5.466438525646628577e+00 -5.515583951973122012e+00 -5.572276395943720928e+00 -5.722335992393871251e+00 -5.779115468796085509e+00 -5.922444283560931666e+00 -6.006128571042221864e+00 -6.110609075943669311e+00 -6.284628998389022669e+00 -6.393646977386190144e+00 -6.513608441815652128e+00 -6.720848890884858484e+00 -6.950123063784197086e+00 -6.950123063784197086e+00 -7.177117987112064057e+00 -7.401571734911193801e+00 -7.479531388290258320e+00 -7.578757572690381750e+00 -7.769027117202488064e+00 -7.949212196662045926e+00 -8.018631635586300987e+00 -8.093896355275253640e+00 -8.220114584234281097e+00 -8.284078275166201877e+00 -8.424663094538304975e+00 -8.499016777485298491e+00 -8.565247913910404520e+00 -8.702805223689921377e+00 -8.793500972428624607e+00 -8.793500972428624607e+00 -8.898328250269921469e+00 -8.982375100049019068e+00 -9.029439202910317874e+00 -9.072422544742828165e+00 -9.133924285522198261e+00 -9.181272982200331612e+00 -9.215904313331451547e+00 -9.292579885586086164e+00 -9.303596162759561139e+00 -9.350095421877021806e+00 -9.422672967063606464e+00 -9.422672967063606464e+00 -9.473535850732837105e+00 -9.521304510302442736e+00 -9.521304510302442736e+00 -9.570446283204027793e+00 -9.610401870589283746e+00 -9.624594437170577166e+00 -9.647630874039213822e+00 -9.709126964102928525e+00 -9.747155446521864164e+00 -9.815678304987880409e+00 -9.806869079020115620e+00 -9.847666238018909723e+00 -9.861211590580772679e+00 -9.918151493319045997e+00 -9.918151493319045997e+00 -9.964898184559963568e+00 -1.002507620868197158e+01 -1.001470343945775987e+01 -1.006767331070741811e+01 -1.009536231835083342e+01 -1.012228960795148325e+01 -1.016416637362083719e+01 -1.016165170900081627e+01 -1.020453520690024973e+01 -1.025971433158229829e+01 -1.030487963971487986e+01 -1.030487963971487986e+01
4.381355929987442166e-01 1.016123170490136118e+00 4.403432002289669467e-01 6.116007419099601661e-01 -1.778873737599508675e-01 -2.020353619133730128e-02 2.420815180952517673e-02 -2.156649958966986025e-01 -7.251653234435709305e-02 -1.133244884874591851e-01 -2.824253867491598458e-01 -2.824253867491598458e-01 -3.609107791682097388e-01 -4.253037128943008005e-01 -3.597178844465341863e-01 -4.836565301123228466e-01 -7.174503315692508654e-01 -1.204254504616697030e+00 -1.910654309966881126e+00 -2.460255506912947254e+00 -2.624776947941488192e+00 -2.940334537083174826e+00 -3.013682059462299279e+00 -3.013682059462299279e+00 -3.111967800341441936e+00 -3.207403962541442777e+00 -3.177301251918103198e+00 -3.214740916660625558e+00 -3.208267098008479312e+00 -3.150879695584850371e+00 -3.117306169539862282e+00 -2.969550393742143246e+00 -2.876438663212939062e+00 -2.755102326100902665e+00 -2.750470974669267044e+00 -3.330280905798240987e+00 -3.653866338192835794e+00 -4.147831786050447000e+00 -4.388615598945410312e+00 -4.527668697942492493e+00 -4.781030820978126705e+00 -5.004333187896208734e+00 -5.004333187896208734e+00 -5.128734883089035357e+00 -5.274889618270496072e+00 -5.312534023043030018e+00 -5.376938656324298904e+00 -5.505150919494568917e+00 -5.531820573906793825e+00 -5.630495068529682179e+00 -5.712116382978157603e+00 -5.765641308327890791e+00 -5.931018534122318719e+00 -6.092389364737857527e+00 -6.092389364737857527e+00 -6.271880704462880374e+00 -6.512215708534151659e+00 -6.622542164207573023e+00 -6.701458250279327622e+00 -6.959686376934414831e+00 -7.065491145884872815e+00 -7.328132225932121102e+00 -7.398119035685721379e+00 -7.496001062026798500e+00 -7.690097338455068154e+00 -7.801108032719024088e+00 -7.869181942464929413e+00 -8.042022494288422862e+00 -8.163384251365830124e+00 -8.163384251365830124e+00 -8.292200821688089363e+00 -8.432785641060190684e+00 -8.499016777485298491e+00 -8.573370460432290230e+00 -8.704388792739093716e+00 -8.753484028837821285e+00 -8.839852880888081188e+00 -8.899263800092064969e+00 -8.952248856809568167e+00 -9.043536231677904880e+00 -9.126167329047472521e+00 -9.126167329047472521e+00 -9.180621294059370996e+00 -9.221834637756909814e+00 -9.292579885586086164e+00 -9.303550187999555021e+00 -9.359254159704892828e+00 -9.386067036616818626e+00 -9.452938645204406853e+00 -9.473769590339685465e+00 -9.499602114962751642e+00 -9.565044208537051063e+00 -9.595818340096039734e+00 -9.595818340096039734e+00 -9.628850788444211162e+00 -9.695755276904531428e+00 -9.709126964102928525e+00 -9.751057351072230261e+00 -9.798395202286162231e+00 -9.806869079020115620e+00 -9.842926061786101855e+00 -9.857913421838617296e+00 -9.903497186663761553e+00 -9.928770909489728069e+00 -9.966441627940124448e+00 -9.977849894406487508e+00 -1.001348306309289882e+01 -1.008295689052317812e+01 -1.008295689052317812e+01 -1.012159380914695461e+01 -1.016488410835686196e+01 -1.016165170900081627e+01 -1.019953116506314572e+01 -1.026203183165161725e+01 -1.027917122806052674e+01 -1.032274020754073085e+01
9.578478459077270912e-01 9.578478459077270912e-01 1.028133876842436178e+00 5.386981696398418507e-01 6.180894205284617193e-01 -1.462543333816118674e-01 -2.400635740240691096e-01 -2.742759756071054822e-01 -2.742759756071054822e-01 -1.871237656082887779e-01 -2.607132099347312937e-01 -3.729699114794751136e-01 -3.896936233477130140e-01 -3.955832801117926123e-01 -3.985292332121043168e-01 -5.703089613930825141e-01 -8.157870036647246748e-01 -1.138993226417926774e+00 -2.252100494486986459e+00 -2.767170763294490854e+00 -2.767170763294490854e+00 -2.930517653953415014e+00 -3.032813416539532181e+00 -3.072625432228896614e+00 -3.138442023988690543e+00 -3.193711970520660692e+00 -3.203741184837192613e+00 -3.191509949950821934e+00 -3.203672534739491429e+00 -3.170680662774389091e+00 -2.992694517771018248e+00 -2.669278969846027305e+00 -2.669278969846027305e+00 -2.638934760885432773e+00 -3.095830795296990345e+00 -3.330280905798240987e+00 -3.743565430029365260e+00 -4.229621700592645972e+00 -4.388615598945410312e+00 -4.674526634009986026e+00 -4.815881604387666215e+00 -4.921235612283991756e+00 -5.100408742411701724e+00 -5.167109531103513120e+00 -5.192127956118312682e+00 -5.347381246766831353e+00 -5.442414676583734234e+00 -5.442414676583734234e+00 -5.555901858411097294e+00 -5.668484206703994666e+00 -5.712116382978157603e+00 -5.791070168661893725e+00 -5.916546261959606312e+00 -6.003126325802532470e+00 -6.213623994963191066e+00 -6.267452793883171225e+00 -6.398672438413027130e+00 -6.602715607805510700e+00 -6.803833957198144766e+00 -6.803833957198144766e+00 -7.055991460640182567e+00 -7.294998695618732043e+00 -7.398119035685721379e+00 -7.499117160364351165e+00 -7.702267315710868090e+00 -7.801108032719024088e+00 -7.950777102836043220e+00 -8.035983601979767244e+00 -8.092254923894792284e+00 -8.233972191277493025e+00 -8.366554504635082878e+00 -8.366554504635082878e+00 -8.507139324007184200e+00 -8.654562734297854831e+00 -8.704388792739093716e+00 -8.758338242593275424e+00 -8.844650221710338656e+00 -8.899263800092064969e+00 -8.956286248491622359e+00 -9.044406993160773567e+00 -9.080720979725711572e+00 -9.129380329161438823e+00 -9.181046662489631416e+00 -9.219731312887201824e+00 -9.288925539496350581e+00 -9.352242152368658523e+00 -9.352242152368658523e+00 -9.393244639038398347e+00 -9.457084174772687035e+00 -9.473769590339685465e+00 -9.497596010327466587e+00 -9.570700726260724878e+00 -9.571913663891621127e+00 -9.614658221862917742e+00 -9.633107139717845158e+00 -9.647681889590593585e+00 -9.701013703210367822e+00 -9.739775176422243774e+00 -9.739775176422243774e+00 -9.806567249913168638e+00 -9.844070139906969885e+00 -9.857913421838617296e+00 -9.904035604146658400e+00 -9.921117257678204737e+00 -9.966441627940124448e+00 -1.002496858643826627e+01 -1.001226268672803776e+01 -1.005160873073043781e+01 -1.009118073993312770e+01 -1.014838654892496805e+01 -1.014838654892496805e+01 -1.016608230575955929e+01 -1.021978938447816354e+01 -1.026203183165161725e+01 -1.028884273222637091e+01 -1.032483688567520019e+01
9.081479873031451655e-01 1.011591267071031641e+00 9.973169170701022823e-01 8.856283470534971336e-01 6.180894205284617193e-01 1.127190379419343302e-01 4.209053474380572424e-02 -1.794405127690234247e-01 -1.681881257109695549e-01 -1.335680787399024239e-01 -1.335680787399024239e-01 -2.245193100429889455e-01 -3.638703057823252096e-01 -3.955832801117926123e-01 -3.062519861329467963e-01 -6.821876168935537832e-01 -8.157870036647246748e-01 -1.291071495439902295e+00 -2.184817821983175090e+00 -2.573901658207311982e+00 -2.877504317532689981e+00 -2.926349755508131700e+00 -2.979722360949569993e+00 -3.079400295393301068e+00 -3.183682756204129216e+00 -3.183682756204129216e+00 -3.182504561933082510e+00 -3.181326367662035803e+00 -3.203672534739491429e+00 -3.113673702547168354e+00 -2.850027650403418988e+00 -2.758330327020377837e+00 -2.518991488365579734e+00 -2.763375082013167283e+00 -2.882342577676882289e+00 -3.477102619544596429e+00 -4.041675100895520956e+00 -4.041675100895520956e+00 -4.434657531876683656e+00 -4.713189972385326776e+00 -4.815881604387666215e+00 -4.939442001939642779e+00 -5.129185861115617584e+00 -5.167109531103513120e+00 -5.262303341938511458e+00 -5.337475026364838726e+00 -5.388941562327922874e+00 -5.516048242520826150e+00 -5.617472551559920646e+00 -5.617472551559920646e+00 -5.732496266041891886e+00 -5.838651127592170198e+00 -5.916546261959606312e+00 -5.999637953349520991e+00 -6.209030202694151512e+00 -6.267452793883171225e+00 -6.384868101804462626e+00 -6.595742951448455571e+00 -6.689459446202556947e+00 -6.924790153487552224e+00 -7.056622348470417805e+00 -7.173908645449381893e+00 -7.401873150565338122e+00 -7.586712022275033718e+00 -7.586712022275033718e+00 -7.803050550382982564e+00 -7.960690656592189995e+00 -8.035983601979767244e+00 -8.119516471261423618e+00 -8.246189480285924134e+00 -8.304560131189155925e+00 -8.440908187582076394e+00 -8.515261870529069910e+00 -8.581493006954177716e+00 -8.705972361788264280e+00 -8.802423624086950227e+00 -8.802423624086950227e+00 -8.900904078801028518e+00 -8.992647489886547163e+00 -9.044406993160773567e+00 -9.087003628768815844e+00 -9.133975205789024443e+00 -9.181046662489631416e+00 -9.227764962182369857e+00 -9.285271193406616774e+00 -9.317428862128368294e+00 -9.380889538738310662e+00 -9.427943794593911520e+00 -9.427943794593911520e+00 -9.471195568055879477e+00 -9.516337438396719861e+00 -9.516337438396719861e+00 -9.573381044579214461e+00 -9.618914573136551738e+00 -9.633107139717845158e+00 -9.651556057572772573e+00 -9.695509865547609962e+00 -9.747228552437444904e+00 -9.781112099584447606e+00 -9.804606621642760089e+00 -9.842007395263937752e+00 -9.854615253096463690e+00 -9.908065917871276440e+00 -9.908065917871276440e+00 -9.966805985399863843e+00 -1.002251436990061606e+01 -1.001226268672803776e+01 -1.003554415075346107e+01 -1.008699916151542020e+01 -1.012974362110040616e+01 -1.016473877871762355e+01 -1.017095717897210605e+01 -1.022461195680445378e+01 -1.026436827551154352e+01 -1.030887522218722552e+01 -1.032693356380966598e+01
6.626302900582740074e-01 9.219844320317495123e-01 9.405430837669686017e-01 9.405430837669686017e-01 8.099231160098728788e-01 3.231525846995874085e-01 4.209053474380572424e-02 1.864339946357900790e-01 2.040351429441408099e-02 -2.764498073620897528e-02 -4.262948154860151523e-02 -7.094617584196567794e-02 -2.661675296668996604e-01 -3.010921382925980661e-01 -4.581645738102845256e-01 -4.581645738102845256e-01 -9.845566325501342586e-01 -1.848809457033687931e+00 -2.184817821983175090e+00 -2.591194814217328446e+00 -2.829885743980395496e+00 -2.926349755508131700e+00 -3.035478940689222860e+00 -3.105426454148950910e+00 -3.156682306058553600e+00 -3.176719028428755642e+00 -3.176257543491255220e+00 -3.176257543491255220e+00 -3.139623538558198312e+00 -3.011421295525937403e+00 -3.011421295525937403e+00 -2.625287523070553242e+00 -2.489588796037454532e+00 -2.763375082013167283e+00 -3.007758675660754832e+00 -3.606039495657439531e+00 -3.863669203590292422e+00 -4.286366283527718757e+00 -4.494528706840644539e+00 -4.620302203738843261e+00 -4.834183414401472589e+00 -5.068312099829355155e+00 -5.068312099829355155e+00 -5.215737184625175438e+00 -5.321026122628609301e+00 -5.337475026364838726e+00 -5.404568562808438337e+00 -5.511228895698147667e+00 -5.546344922025894242e+00 -5.687926169794160991e+00 -5.726263865275013742e+00 -5.772582504529186309e+00 -5.894978072193861607e+00 -6.103654968728099206e+00 -6.103654968728099206e+00 -6.263473159348752262e+00 -6.488922892382136709e+00 -6.595742951448455571e+00 -6.702655205318555964e+00 -6.916256830940133327e+00 -7.056622348470417805e+00 -7.279755482622349838e+00 -7.403212697621320615e+00 -7.495872109813234374e+00 -7.706620988439516040e+00 -7.797223837915034039e+00 -7.889009049977223853e+00 -8.042285816963303802e+00 -8.203156731496088483e+00 -8.203156731496088483e+00 -8.323156758481491835e+00 -8.446695508010968467e+00 -8.515261870529069910e+00 -8.589615553476063425e+00 -8.707555930837436620e+00 -8.763192456348729564e+00 -8.849111547539500577e+00 -8.901225143357514469e+00 -8.998271828606894118e+00 -9.041882414420994607e+00 -9.129733755220884817e+00 -9.138570082416611839e+00 -9.189354037559720467e+00 -9.233695286607829900e+00 -9.348853704483833127e+00 -9.348853704483833127e+00 -9.402524917771726720e+00 -9.434845990059990584e+00 -9.461695895013017221e+00 -9.468621545772069936e+00 -9.514854740798762478e+00 -9.575924293537147136e+00 -9.604722006555260094e+00 -9.623170924410185734e+00 -9.637363490991479154e+00 -9.674891652539210796e+00 -9.742868073821711050e+00 -9.742868073821711050e+00 -9.763828996882729427e+00 -9.839177973886451767e+00 -9.845214218027839692e+00 -9.853461764554701574e+00 -9.902620891192611907e+00 -9.919909188723869065e+00 -9.963328557978616828e+00 -1.001994011197491652e+01 -1.001104231036317849e+01 -1.009678920019895187e+01 -1.008281758309771448e+01 -1.012020221153789734e+01 -1.017201119339670079e+01 -1.018840984800633009e+01 -1.018840984800633009e+01 -1.025836675249162155e+01 -1.031087301342339657e+01 -1.032693356380966598e+01
8.378559584138465244e-01 8.455083329490536981e-01 9.189438267640431812e-01 8.648674063365837661e-01 7.350579846286617869e-01 5.529711536569055230e-01 1.864802576600317341e-01 6.406043237508166066e-02 6.406043237508166066e-02 -2.183697971136877580e-02 8.198362232059307197e-02 -7.094617584196567794e-02 -1.743578426551974092e-01 -2.279166316812814286e-01 -3.271731580812248241e-01 -6.811896840625819571e-01 -1.171619488207076065e+00 -1.470327381770753616e+00 -2.371697408410343488e+00 -2.711633197670026085e+00 -2.711633197670026085e+00 -2.886167679476517645e+00 -3.034086050797068168e+00 -3.105426454148950910e+00 -3.161700702471534896e+00 -3.152183255017273922e+00 -3.171231302315975498e+00 -3.120342561733889575e+00 -3.063700332701674078e+00 -3.075899984470361836e+00 -2.774891534089602985e+00 -2.410795856911308821e+00 -2.410795856911308821e+00 -2.751569863397929527e+00 -3.355344917217785383e+00 -3.606039495657439531e+00 -3.929485040319513622e+00 -4.346147254936578719e+00 -4.494528706840644539e+00 -4.770272192974847059e+00 -4.898109942379403670e+00 -4.979509466702358722e+00 -5.147808632761437408e+00 -5.229034081346529916e+00 -5.275443822795168103e+00 -5.356619596882227441e+00 -5.490088974589500737e+00 -5.523424578095968762e+00 -5.551643966766476090e+00 -5.670614151872244157e+00 -5.777292207636257615e+00 -5.777292207636257615e+00 -5.903317216721517546e+00 -6.092430341463408894e+00 -6.177249641315267326e+00 -6.266919588850780265e+00 -6.462226054857952207e+00 -6.585610837726438405e+00 -6.774489008575275584e+00 -6.897350271290797252e+00 -7.019331535378421805e+00 -7.274136374820519890e+00 -7.504279323750789210e+00 -7.504279323750789210e+00 -7.697358102073380337e+00 -7.895670126184958448e+00 -7.978697932113909985e+00 -8.061728765825966647e+00 -8.209790275539845084e+00 -8.281733833205636941e+00 -8.400124036677057759e+00 -8.477091314872623684e+00 -8.522834264196152532e+00 -8.681055864876450201e+00 -8.768046670104181928e+00 -8.768046670104181928e+00 -8.853572873368662499e+00 -8.960703186265980946e+00 -8.960703186265980946e+00 -9.041626024010042784e+00 -9.138271199867810779e+00 -9.138570082416611839e+00 -9.208208943151459991e+00 -9.239625611033288166e+00 -9.281616847316881191e+00 -9.363009283774596625e+00 -9.419279109010760820e+00 -9.407230146796806025e+00 -9.466681543522408759e+00 -9.492943748658230874e+00 -9.492943748658230874e+00 -9.580213661652477342e+00 -9.608978357828892314e+00 -9.623170924410185734e+00 -9.641619842265111373e+00 -9.673336131700811080e+00 -9.695596114121656228e+00 -9.734650867298736188e+00 -9.754278423670708520e+00 -9.802645993372351541e+00 -9.846902756433721038e+00 -9.890339796385626769e+00 -9.890339796385626769e+00 -9.913828285149383746e+00 -9.987868686561336418e+00 -1.001994011197491652e+01 -1.001104178550851742e+01 -1.010390153259291957e+01 -1.008281758309771448e+01 -1.014377278781740621e+01 -1.018637928540507254e+01 -1.017903107726342604e+01 -1.022228002075725506e+01 -1.026511720032994468e+01 -1.030296843962939057e+01 -1.032939915399410502e+01
7.470168934379761705e-01 8.455083329490536981e-01 8.456164617288629559e-01 8.558864022139486272e-01 7.350579846286617869e-01 2.479436228806775888e-01 1.564271097272730282e-01 6.201496676903728994e-02 -2.149051968392579146e-03 1.184138873024170868e-01 1.184138873024170868e-01 -8.143378538623666230e-02 -3.207478890409855010e-01 -2.279166316812814286e-01 -3.478857520033736828e-01 -7.794498553980125921e-01 -1.544209721221204923e+00 -1.544209721221204923e+00 -2.343864267784294242e+00 -2.684647302255244394e+00 -2.786938277911882977e+00 -2.891828920568532357e+00 -3.022393845311331262e+00 -3.059630781157190782e+00 -3.130044777876767714e+00 -3.065680910879814647e+00 -3.091601385173796679e+00 -3.085467113542039286e+00 -2.918904453621078421e+00 -2.918904453621078421e+00 -2.582436402498840877e+00 -2.445613863019254985e+00 -2.559498134029814853e+00 -2.858246609953825068e+00 -3.471982048981008262e+00 -3.699965319867480673e+00 -4.182400593108883236e+00 -4.373707231145653296e+00 -4.522369944874526482e+00 -4.773700545107796067e+00 -4.976915972480674633e+00 -4.976915972480674633e+00 -5.163275181805306424e+00 -5.274239944105977074e+00 -5.308808944357030768e+00 -5.381906934115919583e+00 -5.504228331304262589e+00 -5.523424578095968762e+00 -5.622000818680643164e+00 -5.664850298940613982e+00 -5.739895135621940980e+00 -5.849643875974620322e+00 -5.905703307629837084e+00 -6.011115021367675837e+00 -6.166149048106330355e+00 -6.359529470014149588e+00 -6.359529470014149588e+00 -6.570876699656606590e+00 -6.791060351816963880e+00 -6.897350271290797252e+00 -7.033307336306910074e+00 -7.270499285052933303e+00 -7.377029157341768340e+00 -7.585402924484552223e+00 -7.687119793549424429e+00 -7.789340927504162515e+00 -7.969956005394249310e+00 -8.115712828882170271e+00 -8.115712828882170271e+00 -8.279323430937081341e+00 -8.415185790794886600e+00 -8.477091314872623684e+00 -8.552204761799060861e+00 -8.691055732545178714e+00 -8.709139499886607183e+00 -8.811346275745274070e+00 -8.865367445600000451e+00 -8.901546207914002196e+00 -9.003896167327241074e+00 -9.103033530681802432e+00 -9.103033530681802432e+00 -9.144038667299179579e+00 -9.216072774915200938e+00 -9.239625611033288166e+00 -9.283022609949723503e+00 -9.361727347313474112e+00 -9.419279109010760820e+00 -9.441126956796427550e+00 -9.470686938777383546e+00 -9.467617219834160380e+00 -9.515220082177426875e+00 -9.536973398213543618e+00 -9.564308135660470001e+00 -9.613428394644019548e+00 -9.650708119635234894e+00 -9.650708119635234894e+00 -9.726129134347909044e+00 -9.757828620519262586e+00 -9.754278423670708520e+00 -9.799447782677729535e+00 -9.849452460363654183e+00 -9.855112488418949823e+00 -9.901757960281454274e+00 -9.921266330886611584e+00 -9.959874183193083041e+00 -1.001949152836079016e+01 -1.003604210970799215e+01 -1.003604210970799215e+01 -1.008293915517926997e+01 -1.016150951507759892e+01 -1.018637928540507254e+01 -1.019537238026422798e+01 -1.023004231686704379e+01 -1.026511720032994468e+01 -1.031574415436493020e+01 -1.033612554149385687e+01
1.888261097823238643e-01 7.847847498363337282e-01 8.383867432820854004e-01 8.258027195995876202e-01 7.264064579875252337e-01 2.916178182405013697e-01 8.233501307331986263e-02 8.233501307331986263e-02 -6.750194065473388849e-02 2.113733483813782787e-01 7.003251232073298693e-02 -1.419149401995178916e-02 -3.206994221342178153e-01 -3.010101921080052256e-01 -5.621584658020000180e-01 -8.810561139127802699e-01 -1.165429531429224896e+00 -1.928065452851982053e+00 -2.545294549183587218e+00 -2.545294549183587218e+00 -2.830788054425628530e+00 -2.964257241847513935e+00 -3.022393845311331262e+00 -3.030108464624101217e+00 -3.050640903920040614e+00 -3.065680910879814647e+00 -3.065433203254316119e+00 -3.013985703534066474e+00 -2.983319130525917462e+00 -2.666584252581681636e+00 -2.386837233037256478e+00 -2.366051492557374125e+00 -2.663169538653676227e+00 -3.232931660499329229e+00 -3.232931660499329229e+00 -3.832429569269485192e+00 -4.224876271834246744e+00 -4.373707231145653296e+00 -4.537872578507384347e+00 -4.830481491207359923e+00 -4.904650297232444167e+00 -5.078705381371976024e+00 -5.179815008791793574e+00 -5.235940165079522757e+00 -5.345429614093669457e+00 -5.455658199142197518e+00 -5.455658199142197518e+00 -5.549401555801722452e+00 -5.655709054410973380e+00 -5.664850298940613982e+00 -5.763603215286739356e+00 -5.840112299049014410e+00 -5.905703307629837084e+00 -6.102028971548911329e+00 -6.169887236195070734e+00 -6.264311139475380763e+00 -6.445116494218461334e+00 -6.672481858746722061e+00 -6.672481858746722061e+00 -6.896845832107165286e+00 -7.160187332091345169e+00 -7.270499285052933303e+00 -7.370106089597393328e+00 -7.601220624366696654e+00 -7.687119793549424429e+00 -7.788415308973537066e+00 -7.959674289316454932e+00 -8.035243040150998439e+00 -8.232359525006229362e+00 -8.272817924074008289e+00 -8.344001857434447444e+00 -8.489860275332748785e+00 -8.606842948270417182e+00 -8.606842948270417182e+00 -8.722791956615314035e+00 -8.820425814210706150e+00 -8.865367445600000451e+00 -8.916904872265048354e+00 -9.009043180772270176e+00 -9.043421565059363232e+00 -9.143791952182327876e+00 -9.152374956443262377e+00 -9.217777387088716523e+00 -9.251559473042705761e+00 -9.360426894348190530e+00 -9.360426894348190530e+00 -9.413713717829503835e+00 -9.444288221901148361e+00 -9.470686938777383546e+00 -9.473469792238388365e+00 -9.518109049820969503e+00 -9.536973398213543618e+00 -9.588327359804548422e+00 -9.613033670685947385e+00 -9.635454971373617283e+00 -9.676989482762941464e+00 -9.746430861120661149e+00 -9.746430861120661149e+00 -9.759077062689847537e+00 -9.834981935535203945e+00 -9.834981935535203945e+00 -9.863583431655367662e+00 -9.906020362258532330e+00 -9.921266330886611584e+00 -9.960918108666175996e+00 -1.002102791556962558e+01 -1.002671763362891078e+01 -1.010356393733096425e+01 -1.009744936486683997e+01 -1.012613222129287394e+01 -1.020309434309901420e+01 -1.020025083602846472e+01 -1.020025083602846472e+01 -1.027045788761879308e+01 -1.032259995354205628e+01 -1.033612554149385687e+01
1.888261097823238643e-01 7.370100430893034016e-01 8.144729829939674204e-01 8.258027195995876202e-01 7.035882790689340638e-01 3.036096909760492291e-01 1.894686115627661205e-01 -3.332002331338856926e-02 -1.577094310090926821e-01 -1.603923472421786567e-01 1.359673441812088712e-01 -1.980652865807164265e-01 -1.980652865807164265e-01 -3.031197249540072969e-01 -6.838490188480305099e-01 -8.810561139127802699e-01 -1.260754032198347918e+00 -2.059873717459226317e+00 -2.349269462301986522e+00 -2.702980123211905727e+00 -2.822966580360385613e+00 -2.914571917654869448e+00 -2.996408110017507731e+00 -3.010619168972812787e+00 -3.010619168972812787e+00 -2.997224417385000450e+00 -2.977247095185836301e+00 -3.013985703534066474e+00 -2.923652087384962073e+00 -2.531896826285899849e+00 -2.386837233037256478e+00 -2.534238032274230168e+00 -2.779661194426237270e+00 -2.975599605820034466e+00 -3.590967259842403170e+00 -4.073976290907919129e+00 -4.073976290907919129e+00 -4.397287324257024288e+00 -4.704360465463929941e+00 -4.704360465463929941e+00 -4.938651022695474069e+00 -5.130753086771438376e+00 -5.179815008791793574e+00 -5.269823151647744730e+00 -5.404006924175963178e+00 -5.435175486868770278e+00 -5.514565488221546019e+00 -5.555711122990676820e+00 -5.583701143714542070e+00 -5.699490035424833678e+00 -5.779424551936111598e+00 -5.779424551936111598e+00 -5.908144777042304341e+00 -6.062988093251622246e+00 -6.169887236195070734e+00 -6.266141445020529943e+00 -6.444419229710157460e+00 -6.567447758415666748e+00 -6.776094337716564553e+00 -6.915289022861225376e+00 -7.023439338375963459e+00 -7.282902167701233331e+00 -7.497379631205504324e+00 -7.497379631205504324e+00 -7.707243529995482234e+00 -7.877423077451366495e+00 -7.959674289316454932e+00 -8.064037761123898918e+00 -8.195893922070943916e+00 -8.272817924074008289e+00 -8.432318120488293545e+00 -8.497776317569318394e+00 -8.562657643164444110e+00 -8.676821477182885545e+00 -8.781953423383239254e+00 -8.781953423383239254e+00 -8.879864449310240104e+00 -8.963962794658893785e+00 -8.963962794658893785e+00 -9.051873913372013192e+00 -9.147868408819011421e+00 -9.152374956443262377e+00 -9.223515075590407619e+00 -9.268524819622552258e+00 -9.294778028064714093e+00 -9.360983910963803112e+00 -9.408148326648245074e+00 -9.416597700183515940e+00 -9.474258494416886833e+00 -9.487796593582906723e+00 -9.520998017464510355e+00 -9.533657884910700986e+00 -9.585011846501707566e+00 -9.637597691863980742e+00 -9.637597691863980742e+00 -9.684188447873221861e+00 -9.751124584792627559e+00 -9.758780725876032847e+00 -9.763875701708986554e+00 -9.823976483701528650e+00 -9.854378399410489209e+00 -9.886956598835666910e+00 -9.917246054847977277e+00 -9.936544640777400517e+00 -1.000344835489352313e+01 -1.004239348174930058e+01 -1.004239348174930058e+01 -1.010322634206900538e+01 -1.013229439026281575e+01 -1.017580800127736573e+01 -1.021373281566803115e+01 -1.021737953842713154e+01 -1.024561105962081697e+01 -1.027579857490764326e+01 -1.032945575271918415e+01 -1.034285192899360872e+01
2.839313092896894597e-02 7.254049602993144497e-01 7.254049602993144497e-01 7.951660643215976432e-01 4.439860483464008745e-01 3.036096909760492291e-01 1.701618154021185825e-01 -4.250273531483778067e-02 -1.577094310090926821e-01 1.845082950974453184e-01 3.456483536832750947e-02 -8.165792627644001545e-02 -4.245789451050155927e-01 -5.198750601864969845e-01 -5.198750601864969845e-01 -9.915700568735936749e-01 -1.629794892620621383e+00 -1.629794892620621383e+00 -2.326466995618255762e+00 -2.685087806077941064e+00 -2.822966580360385613e+00 -2.842915248023216712e+00 -2.920479086106587019e+00 -2.940040703819691625e+00 -2.956301177533542379e+00 -2.891298324828394328e+00 -2.937832590017177559e+00 -2.926423964378102927e+00 -2.638237820386196475e+00 -2.638237820386196475e+00 -2.413799192616149725e+00 -2.617616285451874969e+00 -2.779661194426237270e+00 -3.144368288345451568e+00 -3.724572284223270913e+00 -3.922078070147965168e+00 -4.282013551351202096e+00 -4.448924355024370669e+00 -4.557267684428147447e+00 -4.845222493333119829e+00 -5.067410907075450943e+00 -5.067410907075450943e+00 -5.210656899083778271e+00 -5.344010599623631563e+00 -5.404006924175963178e+00 -5.459213046000736647e+00 -5.519603746392729882e+00 -5.555711122990676820e+00 -5.644487242754779643e+00 -5.704957594472438664e+00 -5.764780027968621212e+00 -5.836963215019592255e+00 -5.915878028992050730e+00 -5.980759847095168169e+00 -6.150117358270033030e+00 -6.355173501740296160e+00 -6.355173501740296160e+00 -6.591140161752863769e+00 -6.787459519719664769e+00 -7.037348528354581134e+00 -7.037348528354581134e+00 -7.278872523985750576e+00 -7.496618798461794242e+00 -7.589757853542472787e+00 -7.712920653721191400e+00 -7.888259318480876026e+00 -7.963235922059670457e+00 -8.117868845176131387e+00 -8.204685336157789166e+00 -8.280562930934625143e+00 -8.440572309526531924e+00 -8.573110524529825582e+00 -8.573110524529825582e+00 -8.672879359005460032e+00 -8.789632374584217089e+00 -8.844054025420327036e+00 -8.892687955927840449e+00 -8.967095406545469771e+00 -9.013754796049298079e+00 -9.099596205733092802e+00 -9.151944865455693190e+00 -9.160711245587345175e+00 -9.231098959563839301e+00 -9.306533446179708235e+00 -9.306533446179708235e+00 -9.360240474614128559e+00 -9.420849825279480783e+00 -9.420849825279480783e+00 -9.477830050056388345e+00 -9.485175253560637287e+00 -9.520998017464510355e+00 -9.530342371607858354e+00 -9.581876429836627906e+00 -9.612502876166654886e+00 -9.672997361924206672e+00 -9.668478541721878372e+00 -9.710469811000930207e+00 -9.767690126752516022e+00 -9.785456940125737191e+00 -9.785456940125737191e+00 -9.859304338457322459e+00 -9.905707496463076467e+00 -9.917246054847977277e+00 -9.949670730036796584e+00 -1.001145665951318442e+01 -1.002256430277845922e+01 -1.007838015375291540e+01 -1.010288874680704652e+01 -1.011260844028470274e+01 -1.017921251160578855e+01 -1.022115959179688005e+01 -1.022115959179688005e+01 -1.025591799824069739e+01 -1.031256643066983614e+01 -1.032945575271918415e+01 -1.034957831649336057e+01
-4.762931669739921964e-02 5.029911790798210491e-01 7.793072130690471555e-01 7.539646488680237235e-01 6.351680029663929750e-01 2.613066145923831352e-01 4.124531380670126701e-02 4.124531380670126701e-02 -1.424831721800177142e-01 1.490211817866103072e-01 3.456483536832750947e-02 -6.320497702397340212e-02 -3.972193879199492628e-01 -4.182237125144440681e-01 -7.713016396143641540e-01 -1.063444962630395896e+00 -1.299291094899156951e+00 -2.027989416980633841e+00 -2.536039327638389462e+00 -2.536039327638389462e+00 -2.840518406234421533e+00 -2.865541331419047655e+00 -2.920479086106587019e+00 -2.866687964640381558e+00 -2.835928440570333109e+00 -2.891298324828394328e+00 -2.824413022479563828e+00 -2.828324634208972732e+00 -2.471753538171207687e+00 -2.343952763510204207e+00 -2.439584211278441828e+00 -2.759395210949544097e+00 -2.910861699334451380e+00 -3.559553503243638506e+00 -3.745069943764974596e+00 -3.931716061022941133e+00 -4.299859206369830211e+00 -4.577144038525622349e+00 -4.577144038525622349e+00 -4.842392369815460285e+00 -5.102065166452659284e+00 -5.171120973367212770e+00 -5.229889259820078351e+00 -5.348941073192737150e+00 -5.427205910254207843e+00 -5.517271335181109571e+00 -5.527367134635539969e+00 -5.581490769214327408e+00 -5.634855472255328124e+00 -5.746440725273807892e+00 -5.746440725273807892e+00 -5.822880851503330568e+00 -5.975417046245785180e+00 -6.054041116369127451e+00 -6.129803215084245416e+00 -6.346744796284925272e+00 -6.492681721085832969e+00 -6.655705841658974720e+00 -6.772676742773103165e+00 -6.907053818682594049e+00 -7.148484669523790025e+00 -7.386326565472074890e+00 -7.386326565472074890e+00 -7.601093684385920035e+00 -7.806008106615788478e+00 -7.806008106615788478e+00 -7.971336973006572180e+00 -8.128807741380956742e+00 -8.204685336157789166e+00 -8.288817119972863523e+00 -8.448826498564772081e+00 -8.507986257455911527e+00 -8.638431377359985675e+00 -8.686283650928093181e+00 -8.763186990245195318e+00 -8.868586190984565576e+00 -8.933539351600156664e+00 -8.933539351600156664e+00 -9.026613970549066224e+00 -9.104654535242039159e+00 -9.151944865455693190e+00 -9.169047534731427973e+00 -9.238612051888157595e+00 -9.285490166202398754e+00 -9.330549874251545361e+00 -9.371238209052659585e+00 -9.400726280102892574e+00 -9.451606271473504961e+00 -9.485174937046846111e+00 -9.485174937046846111e+00 -9.522556766220336755e+00 -9.554361595751942104e+00 -9.581876429836627906e+00 -9.611972081647362387e+00 -9.672291097905059587e+00 -9.668478541721878372e+00 -9.755818308464593969e+00 -9.779196639624833765e+00 -9.768674340728125571e+00 -9.815666459262986976e+00 -9.853196653257651150e+00 -9.865958565628339727e+00 -9.941352106555623180e+00 -9.963136059940108424e+00 -9.963136059940108424e+00 -1.002434334203559807e+01 -1.008755380064741658e+01 -1.010288874680704652e+01 -1.012776751570256550e+01 -1.018030040131909431e+01 -1.020799849320495412e+01 -1.023051548268357891e+01 -1.026601120535310407e+01 -1.028110308032638009e+01 -1.033631155189631201e+01 -1.035630699252589615e+01
1.962519127968475607e-01 1.962519127968475607e-01 7.088462467182734539e-01 5.631463232261205709e-01 5.631463232261205709e-01 2.178645437288445619e-01 4.110522851214140627e-02 -3.500113006769442481e-02 -1.423441033122039567e-01 -4.852871289705139313e-02 7.214655662679467230e-02 -2.277842037128745278e-01 -4.722327563979801801e-01 -4.291850755636219539e-01 -6.422930781956067703e-01 -1.372429482161515946e+00 -1.372429482161515946e+00 -1.998781847752960861e+00 -2.469269793954531167e+00 -2.726225532288689024e+00 -2.810163732832231975e+00 -2.789623924876148742e+00 -2.829764851113699020e+00 -2.807019632533316766e+00 -2.717355743020442915e+00 -2.760773943894031746e+00 -2.668962584544730454e+00 -2.612491088259756733e+00 -2.612491088259756733e+00 -2.438646334149408901e+00 -2.716329236071232334e+00 -2.759395210949544097e+00 -3.063398983767512185e+00 -3.512526852505086339e+00 -3.745069943764974596e+00 -4.139426196356486898e+00 -4.351397895561429863e+00 -4.443437320144719038e+00 -4.708685651434557862e+00 -4.879736365785025676e+00 -4.973933982724395797e+00 -5.166427803159310272e+00 -5.295370920971552486e+00 -5.295370920971552486e+00 -5.436568416754392175e+00 -5.492049560065867198e+00 -5.527367134635539969e+00 -5.563871841218554160e+00 -5.655512576275511627e+00 -5.704621916299628559e+00 -5.812578682305496791e+00 -5.882161761719938653e+00 -5.885295369076056105e+00 -6.050502560750711467e+00 -6.240260950739674684e+00 -6.240260950739674684e+00 -6.446996971705492463e+00 -6.677227795814856037e+00 -6.772676742773103165e+00 -6.924098864263600106e+00 -7.146185495721786296e+00 -7.276573350183747735e+00 -7.495578313515892432e+00 -7.612774456489477259e+00 -7.716779931560077799e+00 -7.901380321851675603e+00 -8.052930146604122541e+00 -8.052930146604122541e+00 -8.212939525196031099e+00 -8.372948903787936104e+00 -8.448826498564772081e+00 -8.517724002818912510e+00 -8.645972035154304791e+00 -8.686283650928093181e+00 -8.779032474827340948e+00 -8.873207236581329482e+00 -8.902197861420445335e+00 -8.985480493365949783e+00 -9.027751385138671480e+00 -9.063713327611267800e+00 -9.156012631839168137e+00 -9.235287236858933824e+00 -9.235287236858933824e+00 -9.302455512782245250e+00 -9.344841970913744689e+00 -9.371238209052659585e+00 -9.399831655583749779e+00 -9.456046987876868926e+00 -9.481401605695891632e+00 -9.486439020719684478e+00 -9.526735463648435598e+00 -9.535751411993238946e+00 -9.578957962762784106e+00 -9.634974976280687997e+00 -9.634974976280687997e+00 -9.699038530003173619e+00 -9.760512032136560379e+00 -9.779196639624833765e+00 -9.766377540999275908e+00 -9.807356434824445302e+00 -9.853196653257651150e+00 -9.917603819884167393e+00 -9.964413861709902065e+00 -9.943946980939919911e+00 -1.001554485201221922e+01 -1.006505948247899163e+01 -1.006505948247899163e+01 -1.010255115154508943e+01 -1.014766205284832878e+01 -1.018030040131909431e+01 -1.019951851038220880e+01 -1.023750452388881271e+01 -1.026601120535310407e+01 -1.028551015491014553e+01 -1.034316735107343987e+01 -1.035630470399311420e+01
-1.495959020407294782e-01 6.590051800875843524e-01 6.758244863935314317e-01 6.766706983391671537e-01 3.066909357280081516e-01 1.410754776885158879e-01 1.410754776885158879e-01 -4.022330052737607686e-02 -2.308007560214844767e-01 -4.852871289705139313e-02 -7.672684689792060031e-02 -2.818564073023938077e-01 -4.722327563979801801e-01 -5.187049643327994453e-01 -9.521937578747128317e-01 -1.040802694187338506e+00 -1.706078615430845602e+00 -1.945418762572594051e+00 -2.173228749572881036e+00 -2.605622800959540353e+00 -2.740252705743547956e+00 -2.740252705743547956e+00 -2.729186028237125861e+00 -2.680339385169156152e+00 -2.717355743020442915e+00 -2.617854424050501283e+00 -2.506368900150261148e+00 -2.509597965057814850e+00 -2.437708457020376862e+00 -2.611317067474540288e+00 -2.715391358942199851e+00 -2.993074260864023284e+00 -3.352238772724646321e+00 -3.352238772724646321e+00 -3.783940087312847922e+00 -4.221346285181986957e+00 -4.351397895561429863e+00 -4.542321911103453402e+00 -4.766754889737960355e+00 -4.879736365785025676e+00 -5.090603704876387248e+00 -5.158513104391015958e+00 -5.221169868800929592e+00 -5.350935002666828311e+00 -5.456731985496193538e+00 -5.456731985496193538e+00 -5.526192280577081561e+00 -5.600856256067587857e+00 -5.655512576275511627e+00 -5.683960026052536918e+00 -5.779619155677741205e+00 -5.882161761719938653e+00 -5.878652803855957565e+00 -6.025527833703044678e+00 -6.122360760994088658e+00 -6.319288426106433043e+00 -6.426116970546739360e+00 -6.566543304929894909e+00 -6.789955177160303279e+00 -7.051966477548994305e+00 -7.051966477548994305e+00 -7.274274176381744894e+00 -7.493877070069424384e+00 -7.612774456489477259e+00 -7.717739437005921133e+00 -7.901174957050453251e+00 -7.977052551827287452e+00 -8.137061930419195122e+00 -8.221193714234267702e+00 -8.297071309011103679e+00 -8.457080687603010460e+00 -8.594016287260590303e+00 -8.594016287260590303e+00 -8.713387653565138891e+00 -8.804990276986174536e+00 -8.873207236581329482e+00 -8.911181660329853926e+00 -9.001688871421702487e+00 -9.027751385138671480e+00 -9.108395287715103095e+00 -9.158404774693865491e+00 -9.177383823875508995e+00 -9.246125144212477664e+00 -9.330044282409689416e+00 -9.330044282409689416e+00 -9.373869643558279563e+00 -9.418669121701633173e+00 -9.418669121701633173e+00 -9.484973161335393144e+00 -9.496671779702650085e+00 -9.526735463648435598e+00 -9.543831973979120420e+00 -9.576039495688945635e+00 -9.611441287128069888e+00 -9.665760545666724823e+00 -9.685037270184700731e+00 -9.724867741221487449e+00 -9.782167418970065143e+00 -9.771466097573743070e+00 -9.799046410385903627e+00 -9.834934385588512740e+00 -9.909044877592091183e+00 -9.949034358621910101e+00 -9.949034358621910101e+00 -1.001864926783626863e+01 -1.007580661483216744e+01 -1.009270534489706250e+01 -1.011966141769589100e+01 -1.015328015767000025e+01 -1.018078151770613005e+01 -1.022652330197297843e+01 -1.024449356509404652e+01 -1.027532302598851999e+01 -1.032973488907721915e+01 -1.036304847227897241e+01 -1.036304847227897241e+01
